# .PCD v0.7 - Point Cloud Data file format
VERSION 0.7
FIELDS x y z
SIZE 4 4 4
TYPE F F F
COUNT 1 1 1
WIDTH 1184
HEIGHT 1
VIEWPOINT 0 0 0 1 0 0 0
POINTS 1184
DATA ascii
0.010127849 -0.00050800003 -0.021787023
-0.017844304 0.00025400001 -0.0036954198
-0.017844304 -2.1684043e-19 -0.0036954198
-0.017844304 -0.00025400001 -0.0036954198
0.0096455701 0.00050800003 -0.019133586
0.009886709 -0.00050800003 -0.019133586
0.0096455701 0.00025400001 -0.019133586
-0.017844304 -0.00025400001 -0.023234351
-0.017844304 -2.1684043e-19 -0.023234351
-0.017844304 0.00025400001 -0.023234351
0.0096455701 -2.1684043e-19 -0.019133586
0.0096455701 -0.00025400001 -0.019133586
-0.017603165 -0.00025400001 -0.023234351
-0.017603165 -2.1684043e-19 -0.023234351
0.017844304 0.00025400001 -0.0039366409
-0.015191773 -0.00025400001 -0.0036954198
0.010127849 -0.00050800003 -0.019133586
-0.015191773 0.00025400001 -0.0036954198
-0.015191773 -2.1684043e-19 -0.0036954198
0.017844304 -2.1684043e-19 -0.0039366409
0.010127849 0.00025400001 -0.021787023
0.009886709 0.00050800003 -0.019133586
-0.015432912 0.00025400001 -0.0036954198
-0.015432912 -2.1684043e-19 -0.0036954198
-0.015432912 -0.00025400001 -0.0036954198
0.0089221522 -0.00050800003 -0.019133586
0.0091632912 -2.1684043e-19 -0.019133586
0.0091632912 -0.00025400001 -0.019133586
0.0091632912 -0.00050800003 -0.019133586
0.017120887 -0.00127 -0.020339694
0.0089221522 0.00025400001 -0.019133586
0.0089221522 -2.1684043e-19 -0.019133586
0.0089221522 -0.00025400001 -0.019133586
0.0091632912 0.00025400001 -0.019133586
0.01278038 0.00025400001 -0.0039366409
0.01278038 -2.1684043e-19 -0.0039366409
0.01278038 -0.00025400001 -0.0039366409
0.012539241 0.00025400001 -0.0039366409
0.0094044311 -0.00050800003 -0.019133586
0.016879749 -0.00127 -0.020339694
0.017603165 0.00025400001 -0.0039366409
0.017603165 -2.1684043e-19 -0.0039366409
0.0094044311 0.00025400001 -0.019133586
0.0094044311 -2.1684043e-19 -0.019133586
0.0094044311 -0.00025400001 -0.019133586
0.0067518991 0.00025400001 -0.019133586
0.015432912 0.00025400001 -0.0039366409
0.015432912 -2.1684043e-19 -0.0039366409
0.015191773 0.00025400001 -0.0039366409
0.015191773 -2.1684043e-19 -0.0039366409
0.015191773 -0.00025400001 -0.0039366409
0.0026525317 0.00025400001 -0.0039366409
0.0026525317 -2.1684043e-19 -0.0039366409
0.003858228 0.00025400001 -0.019133586
0.003858228 -2.1684043e-19 -0.019133586
0.0026525317 -0.00025400001 -0.0039366409
0.003858228 -0.00025400001 -0.019133586
0.0040993672 -0.00050800003 -0.019133586
0.003858228 -0.00050800003 -0.019133586
0.0024113925 0.00025400001 -0.0039366409
0.0024113925 -2.1684043e-19 -0.0039366409
0.0024113925 -0.00025400001 -0.0039366409
0.0036170888 0.00025400001 -0.019133586
0.0036170888 -2.1684043e-19 -0.019133586
0.0036170888 -0.00050800003 -0.019133586
0.018808862 -0.0010160001 -0.020339694
-0.010127849 0.00025400001 -0.023234351
0.0045816456 -2.1684043e-19 -0.019133586
0.007475317 -0.00025400001 -0.021787023
-0.010368988 -0.00025400001 -0.023234351
-0.010368988 -2.1684043e-19 -0.023234351
0.0045816456 -0.00025400001 -0.019133586
0.0045816456 -0.00050800003 -0.019133586
0.018567722 -0.0010160001 -0.020339694
-0.010127849 -0.00025400001 -0.023234351
0.0033759496 0.00025400001 -0.019133586
0.0043405066 0.00025400001 -0.019133586
0.0043405066 -2.1684043e-19 -0.019133586
0.0043405066 -0.00025400001 -0.019133586
0.0043405066 -0.00050800003 -0.019133586
0.0040993672 0.00025400001 -0.019133586
0.0040993672 -2.1684043e-19 -0.019133586
0.0040993672 -0.00025400001 -0.019133586
-0.007475317 0.00025400001 -0.023234351
0.01905 -2.1684043e-19 -0.020339694
-0.007716456 -0.00025400001 -0.023234351
-0.007716456 -2.1684043e-19 -0.023234351
-0.007716456 0.00025400001 -0.023234351
0.01905 0.00025400001 -0.020339694
0.01905 0.00050800003 -0.020339694
-0.007475317 -0.00025400001 -0.023234351
-0.007475317 -2.1684043e-19 -0.023234351
0.0026525317 -0.00050800003 -0.019133586
0.0024113925 -0.00050800003 -0.019133586
-0.01905 -0.00050800003 -0.020098472
-0.01905 -0.00025400001 -0.020098472
0.0021702533 0.00025400001 -0.019133586
0.0021702533 -2.1684043e-19 -0.019133586
0.0021702533 -0.00025400001 -0.019133586
0.0028936709 -2.1684043e-19 -0.019133586
0.0033759496 -2.1684043e-19 -0.019133586
0.0031348104 0.00025400001 -0.019133586
0.0031348104 -2.1684043e-19 -0.019133586
0.0031348104 -0.00025400001 -0.019133586
0.0028936709 0.00025400001 -0.019133586
0.0045816456 0.00025400001 -0.019133586
0.0028936709 -0.00025400001 -0.019133586
0.0028936709 -0.00050800003 -0.019133586
0.00024113925 -0.00025400001 -0.0063488549
0.0060284813 -2.1684043e-19 -0.019133586
-0.012539241 0.00025400001 -0.023234351
0.0062696207 0.00050800003 -0.019133586
0.0062696207 0.00025400001 -0.019133586
0.0062696207 -2.1684043e-19 -0.019133586
0.0062696207 -0.00025400001 -0.019133586
0.0062696207 -0.00050800003 -0.019133586
0.018326582 -0.0010160001 -0.020339694
0.0060284813 0.00025400001 -0.019133586
-0.012539241 -2.1684043e-19 -0.023234351
0.0060284813 -0.00025400001 -0.019133586
0.0060284813 -0.00050800003 -0.019133586
0.0057873419 0.00050800003 -0.019133586
0.0057873419 0.00025400001 -0.019133586
0.0057873419 -2.1684043e-19 -0.019133586
0.0057873419 -0.00025400001 -0.019133586
0.0057873419 -0.00050800003 -0.019133586
0.0065107597 -0.00025400001 -0.019133586
0.0067518991 -2.1684043e-19 -0.019133586
0.0067518991 -0.00025400001 -0.019133586
0.0065107597 0.00050800003 -0.019133586
0.0065107597 0.00025400001 -0.019133586
0.0065107597 -2.1684043e-19 -0.019133586
-0.01278038 -0.00025400001 -0.023234351
-0.01278038 -2.1684043e-19 -0.023234351
-0.01278038 0.00025400001 -0.023234351
0.0065107597 -0.00050800003 -0.019133586
-0.012539241 -0.00025400001 -0.023234351
0.0050639245 -0.00050800003 -0.019133586
0.004822785 -2.1684043e-19 -0.0039366409
0.0053050634 -0.00050800003 -0.019133586
0.007475317 0.00025400001 -0.021787023
0.004822785 0.00050800003 -0.019133586
0.004822785 -0.00025400001 -0.019133586
0.004822785 -0.00050800003 -0.019133586
0.007475317 -2.1684043e-19 -0.021787023
0.0045816456 0.00050800003 -0.019133586
0.0055462029 -0.00050800003 -0.019133586
0.007716456 0.00025400001 -0.021787023
0.0053050634 0.00025400001 -0.0039366409
0.0055462029 0.00050800003 -0.019133586
0.0053050634 -2.1684043e-19 -0.0039366409
0.0053050634 -0.00025400001 -0.0039366409
0.0055462029 0.00025400001 -0.019133586
0.0055462029 -2.1684043e-19 -0.019133586
0.0055462029 -0.00025400001 -0.019133586
0.00024113925 -0.00025400001 -0.018892366
0.0050639245 0.00025400001 -0.0039366409
0.007716456 -2.1684043e-19 -0.021787023
0.0050639245 -0.00025400001 -0.0039366409
0.007716456 -0.00025400001 -0.021787023
0.007716456 -0.00050800003 -0.021787023
0.0053050634 0.00050800003 -0.019133586
-0.007475317 -2.1684043e-19 -0.018409923
0.009886709 -0.00050800003 -0.021545801
-0.0026525317 -2.1684043e-19 -0.007072519
-0.0026525317 0.00025400001 -0.007072519
0.0096455701 0.00076199998 -0.021545801
-0.0024113925 -0.00025400001 -0.007072519
-0.0024113925 -2.1684043e-19 -0.007072519
-0.0024113925 0.00025400001 -0.007072519
-0.007475317 0.00025400001 -0.018409923
-0.0026525317 -0.00025400001 -0.007072519
-0.007475317 -0.00025400001 -0.018409923
0.0094044311 0.00076199998 -0.021545801
-0.007716456 0.00025400001 -0.018409923
-0.007716456 -2.1684043e-19 -0.018409923
-0.007716456 -0.00025400001 -0.018409923
0.01278038 0.00025400001 -0.003212977
0.0091632912 0.00076199998 -0.021545801
-0.00024113925 -0.00025400001 -0.007072519
0.01278038 -2.1684043e-19 -0.003212977
0.015432912 -2.1684043e-19 -0.003212977
0.010368988 -0.00076199998 -0.021545801
0.010127849 0.00076199998 -0.021545801
-0.0050639245 -0.00025400001 -0.007072519
0.010127849 0.00050800003 -0.021545801
-0.0050639245 0.00025400001 -0.007072519
0.015432912 0.00025400001 -0.003212977
-0.00024113925 -2.1684043e-19 -0.007072519
0.015191773 0.00025400001 -0.003212977
0.015191773 -2.1684043e-19 -0.003212977
0.015191773 -0.00025400001 -0.003212977
0.009886709 0.00076199998 -0.021545801
0.009886709 0.00025400001 -0.021545801
0.010127849 0.00025400001 -0.003212977
-0.010127849 -0.00025400001 -0.018409923
-0.010368988 0.00025400001 -0.018409923
-0.010368988 -2.1684043e-19 -0.018409923
-0.010368988 -0.00025400001 -0.018409923
0.010368988 0.00025400001 -0.003212977
0.010368988 -2.1684043e-19 -0.003212977
0.0024113925 -0.00025400001 -0.007072519
0.0024113925 -2.1684043e-19 -0.007072519
0.0024113925 0.00025400001 -0.007072519
0.010127849 -2.1684043e-19 -0.003212977
0.010127849 -0.00025400001 -0.003212977
0.0026525317 -0.00025400001 -0.007072519
0.0026525317 -2.1684043e-19 -0.007072519
0.0026525317 0.00025400001 -0.007072519
0.0079575954 0.00025400001 -0.021545801
0.0079575954 -2.1684043e-19 -0.021545801
0.0079575954 -0.00025400001 -0.021545801
0.0026525317 -0.00025400001 -0.023716792
0.01278038 -0.00025400001 -0.003212977
-0.00024113925 0.00025400001 -0.007072519
0.0024113925 -0.00025400001 -0.023716792
0.0024113925 -2.1684043e-19 -0.023716792
0.0024113925 0.00025400001 -0.023716792
0 -0.00025400001 -0.007072519
0 0.00025400001 -0.007072519
0.012539241 0.00025400001 -0.003212977
-0.0053050634 -2.1684043e-19 -0.018409923
0.0026525317 -2.1684043e-19 -0.023716792
0.0026525317 0.00025400001 -0.023716792
0.012539241 -2.1684043e-19 -0.003212977
0.012539241 -0.00025400001 -0.003212977
0.00024113925 -0.00025400001 -0.007072519
0.00024113925 -2.1684043e-19 -0.007072519
0.00024113925 0.00025400001 -0.007072519
-0.010127849 0.00025400001 -0.018409923
-0.01278038 -0.00025400001 -0.0029717556
-0.012539241 -2.1684043e-19 -0.007072519
-0.012539241 0.00025400001 -0.007072519
-0.010368988 -0.00025400001 -0.007072519
-0.010368988 -2.1684043e-19 -0.007072519
-0.012539241 0.00025400001 -0.0029717556
-0.012539241 -2.1684043e-19 -0.0029717556
-0.012539241 -0.00025400001 -0.0029717556
-0.01278038 0.00025400001 -0.0029717556
-0.01278038 -2.1684043e-19 -0.0029717556
-0.012539241 -0.00025400001 -0.007072519
-0.010127849 -0.00025400001 -0.007072519
-0.010127849 0.00025400001 -0.007072519
-0.0024113925 0.00025400001 -0.018409923
-0.0024113925 -2.1684043e-19 -0.018409923
-0.0024113925 -0.00025400001 -0.018409923
-0.0026525317 0.00025400001 -0.018409923
-0.0026525317 -2.1684043e-19 -0.018409923
-0.0026525317 -0.00025400001 -0.018409923
0.012539241 -0.00025400001 -0.021545801
-0.0024113925 -0.00025400001 -0.023716792
-0.0024113925 -2.1684043e-19 -0.023716792
-0.0024113925 0.00025400001 -0.023716792
0.00024113925 0.00025400001 -0.018409923
0.00024113925 -2.1684043e-19 -0.018409923
0.00024113925 -0.00025400001 -0.018409923
0.012298102 -2.1684043e-19 -0.021545801
0 0.00050800003 -0.018409923
-0.015191773 0.00025400001 -0.0029717556
-0.01278038 -0.00025400001 -0.007072519
-0.01278038 -2.1684043e-19 -0.007072519
-0.00024113925 0.00025400001 -0.018409923
-0.00024113925 -2.1684043e-19 -0.018409923
-0.00024113925 -0.00025400001 -0.018409923
-0.01278038 0.00025400001 -0.007072519
0.010368988 0.00050800003 -0.021545801
0.00024113925 -2.1684043e-19 -0.023716792
0.00024113925 0.00025400001 -0.023716792
-0.0053050634 -0.00025400001 -0.007072519
0.010368988 0.00076199998 -0.021545801
-0.017844304 0.00025400001 -0.0029717556
-0.017844304 -2.1684043e-19 -0.0029717556
-0.0050639245 0.00025400001 -0.018409923
-0.017844304 -0.00025400001 -0.0029717556
0.00024113925 -0.00025400001 -0.023716792
0.010368988 0.00025400001 -0.021545801
0.010368988 -2.1684043e-19 -0.021545801
0.010368988 -0.00025400001 -0.021545801
0.010368988 -0.00050800003 -0.021545801
-0.0053050634 -2.1684043e-19 -0.007072519
0.017844304 0.00025400001 -0.003212977
0.017844304 -2.1684043e-19 -0.003212977
-0.007475317 -0.00025400001 -0.007072519
-0.015191773 -2.1684043e-19 -0.0029717556
-0.015191773 -0.00025400001 -0.0029717556
-0.015432912 0.00025400001 -0.0029717556
-0.015432912 -2.1684043e-19 -0.0029717556
-0.015432912 -0.00025400001 -0.0029717556
-0.007716456 -0.00025400001 -0.007072519
-0.007716456 -2.1684043e-19 -0.007072519
-0.007716456 0.00025400001 -0.007072519
0.010610127 0.0010160001 -0.021545801
-0.012539241 0.00025400001 -0.018409923
-0.00024113925 -0.00025400001 -0.023716792
-0.00024113925 -2.1684043e-19 -0.023716792
-0.00024113925 0.00025400001 -0.023716792
-0.007475317 -2.1684043e-19 -0.007072519
-0.007475317 0.00025400001 -0.007072519
0 -0.00025400001 -0.023716792
0 0.00025400001 -0.023716792
-0.015191773 -2.1684043e-19 -0.0068312977
0.0053050634 0.00076199998 -0.021545801
0.0053050634 0.00050800003 -0.021545801
-0.015432912 -0.00025400001 -0.0068312977
-0.015432912 -2.1684043e-19 -0.0068312977
0.0050639245 0.0010160001 -0.021545801
0.0050639245 0.00076199998 -0.021545801
0.0053050634 0.0010160001 -0.021545801
-0.015191773 0.00025400001 -0.0068312977
0.017844304 0.00025400001 -0.018651145
0.017844304 -2.1684043e-19 -0.018651145
0.017844304 -0.00025400001 -0.018651145
0.0026525317 0.00025400001 -0.003212977
0.0026525317 -2.1684043e-19 -0.003212977
0.0026525317 -0.00025400001 -0.003212977
0.0055462029 0.00050800003 -0.021545801
0.015432912 0.00025400001 -0.007072519
0.017603165 -2.1684043e-19 -0.007072519
0.017603165 0.00025400001 -0.007072519
0.017844304 -2.1684043e-19 -0.007072519
0.017844304 0.00025400001 -0.007072519
0.007475317 -0.00025400001 -0.023716792
0.007475317 -2.1684043e-19 -0.023716792
0.007475317 0.00025400001 -0.023716792
0.0055462029 0.00076199998 -0.021545801
0.0055462029 0.00025400001 -0.021545801
0.0055462029 -2.1684043e-19 -0.021545801
0.007716456 -0.00025400001 -0.023716792
0.007716456 -2.1684043e-19 -0.023716792
0.007716456 0.00025400001 -0.023716792
-0.017844304 -0.00025400001 -0.0068312977
-0.017844304 -2.1684043e-19 -0.0068312977
-0.017844304 0.00025400001 -0.0068312977
0.015191773 -0.00025400001 -0.018651145
-0.010368988 -2.1684043e-19 -0.0068312977
-0.010127849 -0.00025400001 -0.0068312977
-0.010127849 0.00025400001 -0.0068312977
0.0045816456 0.00025400001 -0.021545801
0.015432912 0.00025400001 -0.018651145
0.015432912 -2.1684043e-19 -0.018651145
0.015191773 0.00025400001 -0.018651145
0.015191773 -2.1684043e-19 -0.018651145
-0.010368988 -0.00025400001 -0.0068312977
-0.007716456 -0.00025400001 -0.0068312977
-0.007716456 -2.1684043e-19 -0.0068312977
0.009886709 -2.1684043e-19 -0.023716792
-0.007716456 0.00025400001 -0.0068312977
-0.007475317 -0.00025400001 -0.0068312977
0.00024113925 0.00025400001 -0.003212977
-0.007475317 -2.1684043e-19 -0.0068312977
-0.007475317 0.00025400001 -0.0068312977
0.017603165 0.00025400001 -0.018651145
0.017603165 -2.1684043e-19 -0.018651145
0.0050639245 -0.00076199998 -0.021545801
0.0024113925 0.00025400001 -0.003212977
0.0024113925 -2.1684043e-19 -0.003212977
0.004822785 0.00050800003 -0.021545801
0.015432912 -2.1684043e-19 -0.007072519
0.004822785 -0.00025400001 -0.021545801
0.004822785 -0.00050800003 -0.021545801
-0.01278038 -0.00025400001 -0.0068312977
-0.01278038 -2.1684043e-19 -0.0068312977
-0.01278038 0.00025400001 -0.0068312977
-0.012539241 -0.00025400001 -0.0068312977
-0.012539241 -2.1684043e-19 -0.0068312977
-0.012539241 0.00025400001 -0.0068312977
0.0050639245 -0.00025400001 -0.023716792
0.0053050634 0.00025400001 -0.007072519
0.007475317 -0.00025400001 -0.021545801
0.007475317 -0.00050800003 -0.021545801
0.007716456 0.00025400001 -0.003212977
0.007716456 -2.1684043e-19 -0.003212977
0.007716456 -0.00025400001 -0.003212977
0.004822785 -2.1684043e-19 -0.023716792
0.0072341776 0.00025400001 -0.021545801
0.0072341776 -2.1684043e-19 -0.021545801
0.0053050634 -2.1684043e-19 -0.007072519
0.0050639245 0.00025400001 -0.023716792
0.007475317 -0.00025400001 -0.007072519
0.007475317 0.00025400001 -0.003212977
0.007475317 -2.1684043e-19 -0.003212977
0.007475317 -2.1684043e-19 -0.007072519
0.007475317 0.00025400001 -0.007072519
0.0053050634 -0.00025400001 -0.023716792
0.0053050634 -2.1684043e-19 -0.023716792
-0.012539241 -2.1684043e-19 -0.018409923
-0.012539241 -0.00025400001 -0.018409923
-0.01278038 0.00025400001 -0.018409923
-0.01278038 -2.1684043e-19 -0.018409923
-0.01278038 -0.00025400001 -0.018409923
0.007716456 0.00050800003 -0.021545801
0.0053050634 0.00025400001 -0.023716792
0.004822785 -2.1684043e-19 -0.007072519
0.0050639245 -0.00025400001 -0.007072519
0.007475317 0.00050800003 -0.021545801
0.0050639245 0.00025400001 -0.007072519
0.0053050634 -0.00025400001 -0.007072519
0.0050639245 -0.00025400001 -0.003212977
-0.017844304 -2.1684043e-19 -0.018409923
-0.017844304 -0.00025400001 -0.018409923
0.012539241 -0.00025400001 -0.007072519
0.0053050634 0.00025400001 -0.003212977
0.0053050634 -2.1684043e-19 -0.003212977
0.012539241 -2.1684043e-19 -0.007072519
0.01278038 -0.00025400001 -0.007072519
0.0050639245 0.00025400001 -0.003212977
-0.017844304 0.00025400001 -0.018409923
0.01278038 -2.1684043e-19 -0.007072519
0.0060284813 0.00050800003 -0.021545801
0.0060284813 0.00025400001 -0.021545801
0.0057873419 0.00127 -0.021545801
0.015191773 -0.00025400001 -0.007072519
0.015191773 -2.1684043e-19 -0.007072519
0.015191773 0.00025400001 -0.007072519
0.0057873419 0.0010160001 -0.021545801
0.007716456 0.00025400001 -0.007072519
-0.015191773 0.00025400001 -0.018409923
0.007475317 -0.00025400001 -0.003212977
-0.015191773 -0.00025400001 -0.018409923
-0.015432912 0.00025400001 -0.018409923
-0.015432912 -2.1684043e-19 -0.018409923
-0.015432912 -0.00025400001 -0.018409923
0.007716456 -0.00025400001 -0.007072519
0.007716456 -2.1684043e-19 -0.007072519
0.0067518991 0.00025400001 -0.021545801
0.010127849 -0.00025400001 -0.007072519
0.010127849 0.00025400001 -0.007072519
0.010368988 -2.1684043e-19 -0.007072519
0.010368988 0.00025400001 -0.007072519
-0.017603165 -2.1684043e-19 -0.018409923
-0.017603165 -0.00025400001 -0.018409923
-0.010368988 -2.1684043e-19 -0.023716792
0.017844304 -0.00025400001 -0.018409923
0.017603165 0.00025400001 -0.018409923
0.017603165 -2.1684043e-19 -0.018409923
0.017603165 -0.00025400001 -0.018409923
-0.0053050634 -0.00025400001 -0.00731374
-0.010368988 -0.00025400001 -0.023716792
0.017844304 -2.1684043e-19 -0.018409923
-0.0053050634 -2.1684043e-19 -0.00731374
-0.0050639245 -0.00025400001 -0.00731374
-0.0050639245 0.00025400001 -0.00731374
-0.010127849 -0.00025400001 -0.023716792
-0.010127849 0.00025400001 -0.023716792
-0.004822785 -2.1684043e-19 -0.00731374
0.007716456 0.00127 -0.020339694
-0.007716456 -2.1684043e-19 -0.00731374
0.0024113925 0.00025400001 -0.0029717556
0.0024113925 -2.1684043e-19 -0.0029717556
-0.010127849 0.00025400001 -0.00731374
-0.009886709 -0.00025400001 -0.00731374
-0.018567722 0.00025400001 -0.021304579
-0.018567722 -2.1684043e-19 -0.021304579
-0.018567722 -0.00025400001 -0.021304579
-0.007716456 -0.00025400001 -0.00731374
0.015432912 0.00025400001 -0.018409923
-0.007716456 0.00025400001 -0.00731374
-0.018808862 0.00025400001 -0.021304579
-0.018808862 -2.1684043e-19 -0.021304579
-0.018808862 -0.00025400001 -0.021304579
-0.007475317 -0.00025400001 -0.00731374
-0.007475317 -2.1684043e-19 -0.00731374
-0.007475317 0.00025400001 -0.00731374
0.017844304 0.00025400001 -0.018409923
-0.0024113925 -0.00025400001 -0.00731374
-0.0024113925 -2.1684043e-19 -0.00731374
-0.0024113925 0.00025400001 -0.00731374
0 0.00025400001 -0.0029717556
0 -0.00025400001 -0.0029717556
0.00024113925 -0.00025400001 -0.0029717556
-0.00024113925 -0.00025400001 -0.00731374
-0.00024113925 -2.1684043e-19 -0.00731374
-0.00024113925 0.00025400001 -0.00731374
0 -0.00025400001 -0.00731374
0.0081987344 0.00127 -0.020339694
-0.00024113925 0.00025400001 -0.0029717556
-0.00024113925 -2.1684043e-19 -0.0029717556
0.015432912 -2.1684043e-19 -0.018409923
-0.009886709 -2.1684043e-19 -0.023716792
0.0079575954 -0.00127 -0.020339694
0.015191773 0.00025400001 -0.018409923
0.015191773 -2.1684043e-19 -0.018409923
0.015191773 -0.00025400001 -0.018409923
0.0079575954 0.00127 -0.020339694
-0.0026525317 -0.00025400001 -0.00731374
-0.0026525317 -2.1684043e-19 -0.00731374
-0.0026525317 0.00025400001 -0.00731374
0.0081987344 -0.00127 -0.020339694
0.00024113925 0.00025400001 -0.0029717556
0.00024113925 -2.1684043e-19 -0.0029717556
-0.017603165 -0.00050800003 -0.021304579
-0.015432912 -0.00025400001 -0.018168701
-0.017603165 0.00050800003 -0.021304579
0.017603165 -2.1684043e-19 -0.0075549614
0.017603165 0.00025400001 -0.0075549614
0.017844304 -2.1684043e-19 -0.0075549614
0.017844304 0.00025400001 -0.0075549614
-0.015432912 -2.1684043e-19 -0.018168701
0.0053050634 0.00025400001 -0.0029717556
0.0053050634 -2.1684043e-19 -0.0029717556
0.0053050634 -0.00025400001 -0.0029717556
-0.017603165 -0.00127 -0.021304579
-0.017844304 -0.00025400001 -0.00731374
-0.017844304 -2.1684043e-19 -0.00731374
0.0050639245 0.00025400001 -0.0029717556
-0.017844304 0.00050800003 -0.021304579
-0.017362026 -0.00050800003 -0.021304579
0.007475317 0.00025400001 -0.0029717556
0.007475317 -2.1684043e-19 -0.0029717556
0.007475317 -0.00025400001 -0.0029717556
-0.017362026 0.00050800003 -0.021304579
-0.017362026 0.00025400001 -0.021304579
0.015191773 -0.00025400001 -0.0075549614
0.015191773 -2.1684043e-19 -0.0075549614
0.015191773 0.00025400001 -0.0075549614
-0.017362026 -0.00127 -0.021304579
-0.015191773 0.00025400001 -0.018168701
-0.015191773 -0.00025400001 -0.018168701
0.015432912 -2.1684043e-19 -0.0075549614
0.015432912 0.00025400001 -0.0075549614
-0.015432912 0.00025400001 -0.018168701
-0.018326582 0.00025400001 -0.021304579
-0.01278038 -2.1684043e-19 -0.00731374
-0.017603165 -2.1684043e-19 -0.018168701
-0.017603165 -0.00025400001 -0.018168701
-0.01278038 0.00025400001 -0.00731374
-0.017844304 0.00025400001 -0.018168701
-0.017844304 -2.1684043e-19 -0.018168701
-0.012539241 -0.00025400001 -0.00731374
-0.012539241 -2.1684043e-19 -0.00731374
-0.012539241 0.00025400001 -0.00731374
-0.01278038 -0.00025400001 -0.00731374
-0.018326582 -2.1684043e-19 -0.021304579
-0.018326582 -0.00025400001 -0.021304579
-0.010368988 -0.00025400001 -0.00731374
0.0026525317 0.00025400001 -0.0029717556
0.0026525317 -2.1684043e-19 -0.0029717556
0.0026525317 -0.00025400001 -0.0029717556
-0.010368988 -2.1684043e-19 -0.00731374
-0.010127849 -0.00025400001 -0.00731374
-0.012539241 -0.00025400001 -0.023716792
-0.01278038 -0.00025400001 -0.023716792
-0.01278038 -2.1684043e-19 -0.023716792
-0.01278038 0.00025400001 -0.023716792
-0.015432912 -0.00025400001 -0.00731374
0.0050639245 -0.00025400001 -0.0029717556
-0.017844304 -0.00050800003 -0.021304579
-0.015432912 -2.1684043e-19 -0.00731374
-0.00024113925 -0.00025400001 -0.0029717556
-0.012539241 -2.1684043e-19 -0.023716792
-0.012539241 0.00025400001 -0.023716792
-0.015191773 -2.1684043e-19 -0.00731374
0.004822785 -2.1684043e-19 -0.0029717556
-0.015191773 0.00025400001 -0.00731374
0.01278038 -0.00025400001 -0.00731374
-0.0053050634 -2.1684043e-19 -0.023716792
0.010368988 -2.1684043e-19 -0.00731374
-0.0050639245 -0.00025400001 -0.023716792
-0.0050639245 0.00025400001 -0.023716792
0.014709494 -2.1684043e-19 -0.021545801
0.012539241 -0.00025400001 -0.00731374
0.012539241 -2.1684043e-19 -0.00731374
-0.004822785 -2.1684043e-19 -0.023716792
-0.0053050634 -0.00025400001 -0.023716792
0.01278038 -2.1684043e-19 -0.00731374
0.015191773 -0.00025400001 -0.00731374
0.015191773 -2.1684043e-19 -0.00731374
-0.007475317 0.00025400001 -0.0029717556
-0.007475317 -2.1684043e-19 -0.0029717556
-0.007475317 -0.00025400001 -0.0029717556
0.015191773 0.00025400001 -0.00731374
-0.007716456 0.00025400001 -0.0029717556
-0.007716456 -2.1684043e-19 -0.0029717556
0.010127849 -0.00025400001 -0.00731374
0.007716456 0.00025400001 -0.00731374
0.015432912 -0.00025400001 -0.021545801
-0.0050639245 0.00025400001 -0.0029717556
-0.0050639245 -0.00025400001 -0.0029717556
-0.0053050634 -2.1684043e-19 -0.0029717556
-0.007716456 -0.00025400001 -0.0029717556
0.010127849 0.00025400001 -0.00731374
0.014950634 0.00025400001 -0.021545801
0.0053050634 0.00025400001 -0.018409923
0.0053050634 -2.1684043e-19 -0.018409923
0.0050639245 -0.00025400001 -0.018409923
0.012539241 0.00050800003 -0.021545801
-0.015432912 -0.00025400001 -0.007072519
-0.010127849 0.00025400001 -0.0029717556
-0.010127849 -0.00025400001 -0.0029717556
-0.015432912 -2.1684043e-19 -0.007072519
0.01278038 -0.00050800003 -0.021545801
0.01278038 0.00050800003 -0.021545801
-0.010368988 -2.1684043e-19 -0.0029717556
-0.010368988 -0.00025400001 -0.0029717556
-0.015191773 -2.1684043e-19 -0.007072519
-0.015191773 0.00025400001 -0.007072519
-0.0026525317 -0.00025400001 -0.023716792
-0.0026525317 -2.1684043e-19 -0.023716792
-0.0026525317 0.00025400001 -0.023716792
0.017603165 -2.1684043e-19 -0.00731374
0.015432912 -2.1684043e-19 -0.00731374
0.015432912 0.00025400001 -0.00731374
0.0026525317 0.00025400001 -0.018409923
0.0026525317 -2.1684043e-19 -0.018409923
0.0026525317 -0.00025400001 -0.018409923
0.0024113925 0.00025400001 -0.018409923
0.0024113925 -2.1684043e-19 -0.018409923
0.0024113925 -0.00025400001 -0.018409923
0.013021519 0.00076199998 -0.021545801
0.007716456 -2.1684043e-19 -0.00731374
0.013021519 0.00050800003 -0.021545801
0.013021519 0.00025400001 -0.021545801
0.013021519 -2.1684043e-19 -0.021545801
0.017603165 0.00025400001 -0.00731374
0.017844304 -2.1684043e-19 -0.00731374
-0.017844304 -0.00025400001 -0.007072519
-0.017844304 -2.1684043e-19 -0.007072519
-0.017844304 0.00025400001 -0.007072519
0.0026525317 0.00025400001 -0.00731374
0.018085444 0.00025400001 -0.021545801
0.018085444 -2.1684043e-19 -0.021545801
0.018085444 -0.00025400001 -0.021545801
0.0024113925 -0.00025400001 -0.00731374
0.0024113925 -2.1684043e-19 -0.00731374
0.0024113925 0.00025400001 -0.00731374
0.0026525317 -0.00025400001 -0.00731374
0.0026525317 -2.1684043e-19 -0.00731374
0.0086810132 -0.00127 -0.020339694
0.017844304 0.00025400001 -0.021545801
0.017844304 -0.00025400001 -0.021545801
0.010368988 0.00025400001 -0.018409923
0.010368988 -2.1684043e-19 -0.018409923
0 0.00025400001 -0.00731374
0.0084398743 -0.00127 -0.020339694
0.01278038 0.00025400001 -0.018409923
0.01278038 -2.1684043e-19 -0.018409923
0.01278038 -0.00025400001 -0.018409923
0.017603165 0.00025400001 -0.021545801
0.00024113925 -0.00025400001 -0.00731374
0.00024113925 -2.1684043e-19 -0.00731374
0.012539241 0.00025400001 -0.018409923
0.012539241 -2.1684043e-19 -0.018409923
0.012539241 -0.00025400001 -0.018409923
0.00024113925 0.00025400001 -0.00731374
0.0084398743 0.00127 -0.020339694
0.007475317 0.00025400001 -0.018409923
0.0053050634 0.00025400001 -0.00731374
-0.0026525317 0.00025400001 -0.0029717556
-0.0026525317 -2.1684043e-19 -0.0029717556
-0.0026525317 -0.00025400001 -0.0029717556
0.0086810132 0.00127 -0.020339694
0.0089221522 -0.00127 -0.020339694
0.007716456 0.00025400001 -0.018409923
0.007716456 -2.1684043e-19 -0.018409923
0.007716456 -0.00025400001 -0.018409923
0.0053050634 -2.1684043e-19 -0.00731374
0.007475317 -2.1684043e-19 -0.018409923
0.007475317 -0.00025400001 -0.018409923
0.007475317 -0.00025400001 -0.00731374
0.007475317 -2.1684043e-19 -0.00731374
0.007475317 0.00025400001 -0.00731374
0.015432912 0.00025400001 -0.021545801
0.007716456 -0.00025400001 -0.00731374
-0.007475317 -0.00025400001 -0.023716792
0.017603165 -0.00025400001 -0.021545801
-0.007716456 -0.00025400001 -0.023716792
-0.007716456 -2.1684043e-19 -0.023716792
-0.007716456 0.00025400001 -0.023716792
0.010127849 0.00025400001 -0.018409923
0.010127849 -0.00025400001 -0.018409923
0.010127849 -0.00025400001 -0.023716792
-0.007475317 -2.1684043e-19 -0.023716792
-0.007475317 0.00025400001 -0.023716792
0.004822785 -2.1684043e-19 -0.00731374
0.0050639245 -0.00025400001 -0.00731374
0.0050639245 0.00025400001 -0.00731374
-0.0024113925 -2.1684043e-19 -0.0029717556
-0.0024113925 -0.00025400001 -0.0029717556
-0.017603165 -0.00025400001 -0.018651145
0.0050639245 -0.00025400001 -0.0034541984
-0.0060284813 -0.00076199998 -0.021545801
0.0026525317 -0.00025400001 -0.0065900763
0.0026525317 -2.1684043e-19 -0.0065900763
-0.0062696207 -0.00076199998 -0.021545801
-0.017603165 0.00025400001 -0.018651145
-0.017603165 -2.1684043e-19 -0.018651145
0.004822785 -2.1684043e-19 -0.0034541984
0.0050639245 0.00025400001 -0.0034541984
0.0026525317 0.00025400001 -0.0065900763
-0.0062696207 -0.0010160001 -0.021545801
-0.01278038 -0.00025400001 -0.023475572
-0.01278038 -2.1684043e-19 -0.023475572
-0.01278038 0.00025400001 -0.023475572
-0.017844304 0.00025400001 -0.018651145
-0.017844304 -2.1684043e-19 -0.018651145
-0.012539241 -0.00025400001 -0.023475572
-0.012539241 -2.1684043e-19 -0.023475572
0 0.00025400001 -0.0065900763
-0.015191773 -0.00025400001 -0.018651145
-0.00024113925 -0.00025400001 -0.0065900763
-0.00024113925 -2.1684043e-19 -0.0065900763
-0.015432912 0.00025400001 -0.018651145
-0.015432912 -2.1684043e-19 -0.018651145
-0.015432912 -0.00025400001 -0.018651145
-0.00024113925 0.00025400001 -0.0065900763
0 -0.00025400001 -0.0065900763
-0.012539241 0.00025400001 -0.023475572
0.00024113925 -0.00025400001 -0.0065900763
0.00024113925 -2.1684043e-19 -0.0065900763
0.00024113925 0.00025400001 -0.0065900763
0.0053050634 0.00025400001 -0.0034541984
0.0053050634 -2.1684043e-19 -0.0034541984
0.0024113925 -0.00025400001 -0.0065900763
0.0024113925 -2.1684043e-19 -0.0065900763
0.0024113925 0.00025400001 -0.0065900763
0.007716456 -2.1684043e-19 -0.0065900763
0.017603165 0.00025400001 -0.018892366
0.017603165 -0.00025400001 -0.018892366
0.0024113925 0.00025400001 -0.0034541984
0.0024113925 -2.1684043e-19 -0.0034541984
0.0024113925 -0.00025400001 -0.0034541984
-0.007475317 -0.00050800003 -0.021545801
0.007716456 -0.00025400001 -0.0065900763
0.007716456 0.00025400001 -0.0065900763
-0.007475317 -0.00076199998 -0.021545801
-0.007716456 0.00050800003 -0.021545801
-0.007716456 -0.00050800003 -0.021545801
-0.007716456 -0.00076199998 -0.021545801
0.004822785 -2.1684043e-19 -0.0065900763
0.0050639245 -0.00025400001 -0.0065900763
0.0050639245 0.00025400001 -0.0065900763
0.0053050634 -2.1684043e-19 -0.0065900763
0.0053050634 0.00025400001 -0.0065900763
0.007475317 -0.00025400001 -0.0065900763
-0.0072341776 -2.1684043e-19 -0.021545801
0.017844304 0.00025400001 -0.018892366
0.017844304 -0.00025400001 -0.018892366
0.007475317 -2.1684043e-19 -0.0065900763
0.0026525317 0.00025400001 -0.0034541984
0.0026525317 -2.1684043e-19 -0.0034541984
0.0026525317 -0.00025400001 -0.0034541984
-0.007475317 0.00050800003 -0.021545801
0.007475317 0.00025400001 -0.0065900763
-0.007475317 0.00025400001 -0.021545801
-0.010368988 -2.1684043e-19 -0.018651145
-0.0036170888 -0.00076199998 -0.021545801
0.010127849 0.00025400001 -0.0034541984
0.010127849 -2.1684043e-19 -0.0034541984
0.010127849 -0.00025400001 -0.0034541984
-0.007475317 0.00025400001 -0.0065900763
-0.010127849 0.00025400001 -0.018651145
-0.010127849 -0.00025400001 -0.018651145
-0.010368988 0.00025400001 -0.018651145
-0.0036170888 -0.00050800003 -0.021545801
-0.010368988 -0.00025400001 -0.018651145
-0.0040993672 -0.00050800003 -0.021545801
-0.0053050634 -0.00025400001 -0.0065900763
-0.0053050634 -2.1684043e-19 -0.0065900763
-0.0050639245 -0.00025400001 -0.0065900763
-0.0050639245 0.00025400001 -0.0065900763
-0.004822785 -2.1684043e-19 -0.0065900763
-0.015432912 -0.00025400001 -0.023475572
-0.009886709 -0.00025400001 -0.0065900763
0.01278038 0.00025400001 -0.0034541984
0.01278038 -2.1684043e-19 -0.0034541984
0.01278038 -0.00025400001 -0.0034541984
0.012539241 0.00025400001 -0.0034541984
0.012539241 -2.1684043e-19 -0.0034541984
0.012539241 -0.00025400001 -0.0034541984
-0.010127849 -0.00025400001 -0.0065900763
-0.010127849 0.00025400001 -0.0065900763
-0.015432912 -2.1684043e-19 -0.023475572
-0.0033759496 -0.00025400001 -0.021545801
-0.007716456 -0.00025400001 -0.0065900763
-0.007716456 -2.1684043e-19 -0.0065900763
-0.007716456 0.00025400001 -0.0065900763
-0.007475317 -0.00025400001 -0.0065900763
-0.007475317 -2.1684043e-19 -0.0065900763
0.010368988 0.00025400001 -0.0034541984
0.010368988 -2.1684043e-19 -0.0034541984
0.007475317 -0.00025400001 -0.0034541984
0.007716456 0.00025400001 -0.0034541984
0.007716456 -2.1684043e-19 -0.0034541984
0.007716456 -0.00025400001 -0.0034541984
-0.0026525317 -0.00025400001 -0.0065900763
-0.0026525317 -2.1684043e-19 -0.0065900763
-0.0026525317 0.00025400001 -0.0065900763
0.007475317 0.00025400001 -0.0034541984
0.007475317 -2.1684043e-19 -0.0034541984
-0.0053050634 0.00050800003 -0.021545801
-0.0053050634 0.00025400001 -0.021545801
-0.0024113925 -0.00025400001 -0.0065900763
-0.0024113925 -2.1684043e-19 -0.0065900763
-0.0024113925 0.00025400001 -0.0065900763
-0.0053050634 -2.1684043e-19 -0.021545801
-0.015191773 0.00025400001 -0.018651145
-0.004822785 0.00025400001 -0.021545801
-0.015432912 0.00025400001 -0.023475572
-0.012539241 0.00025400001 -0.018651145
-0.012539241 -2.1684043e-19 -0.018651145
-0.012539241 -0.00025400001 -0.018651145
-0.0045816456 -0.00025400001 -0.021545801
-0.015191773 -0.00025400001 -0.023475572
-0.015191773 -2.1684043e-19 -0.023475572
-0.015191773 0.00025400001 -0.023475572
-0.01278038 0.00025400001 -0.018651145
0.015432912 0.00025400001 -0.018892366
-0.01278038 -2.1684043e-19 -0.018651145
-0.01278038 -0.00025400001 -0.018651145
-0.004822785 -0.00050800003 -0.021545801
-0.0050639245 0.00050800003 -0.021545801
0.017603165 -2.1684043e-19 -0.0065900763
0.0050639245 -0.00025400001 -0.018892366
0.004822785 -2.1684043e-19 -0.018892366
-0.012056963 -0.0010160001 -0.021545801
-0.004822785 -2.1684043e-19 -0.0034541984
-0.012298102 -2.1684043e-19 -0.021545801
-0.012298102 -0.00025400001 -0.021545801
-0.012298102 -0.00050800003 -0.021545801
-0.012298102 -0.00076199998 -0.021545801
-0.0050639245 0.00025400001 -0.0034541984
-0.012298102 -0.0010160001 -0.021545801
-0.0050639245 -0.00025400001 -0.0034541984
0.017603165 0.00025400001 -0.0065900763
0.017844304 -2.1684043e-19 -0.0065900763
0.017844304 0.00025400001 -0.0065900763
-0.0053050634 -0.00025400001 -0.023475572
-0.0053050634 -2.1684043e-19 -0.023475572
-0.012539241 0.00025400001 -0.021545801
-0.0026525317 0.00025400001 -0.0034541984
-0.010368988 -2.1684043e-19 -0.021545801
-0.010368988 -0.00025400001 -0.021545801
-0.010368988 -0.00050800003 -0.021545801
-0.0024113925 0.00025400001 -0.0034541984
-0.0024113925 -2.1684043e-19 -0.0034541984
-0.0024113925 -0.00025400001 -0.0034541984
0.015191773 -0.00025400001 -0.0065900763
0.015191773 -2.1684043e-19 -0.0065900763
0.015191773 0.00025400001 -0.0065900763
-0.0026525317 -2.1684043e-19 -0.0034541984
-0.0026525317 -0.00025400001 -0.0034541984
0.015432912 -2.1684043e-19 -0.0065900763
0.015432912 0.00025400001 -0.0065900763
0.0053050634 0.00025400001 -0.018892366
0.0053050634 -2.1684043e-19 -0.018892366
0.0053050634 -0.00025400001 -0.018892366
-0.015432912 -2.1684043e-19 -0.0063488549
-0.013021519 -0.00050800003 -0.021545801
0.0024113925 0.00025400001 -0.018892366
0.0024113925 -2.1684043e-19 -0.018892366
0.0024113925 -0.00025400001 -0.018892366
-0.013503798 -0.00076199998 -0.021545801
-0.007475317 0.00025400001 -0.0034541984
-0.007475317 -2.1684043e-19 -0.0034541984
-0.007475317 -0.00025400001 -0.0034541984
-0.015432912 -0.00025400001 -0.0063488549
0.0026525317 -0.00025400001 -0.018892366
-0.007716456 0.00025400001 -0.0034541984
-0.007716456 -2.1684043e-19 -0.0034541984
-0.007716456 -0.00025400001 -0.0034541984
-0.015191773 -0.00025400001 -0.0063488549
-0.015191773 -2.1684043e-19 -0.0063488549
-0.015191773 0.00025400001 -0.0063488549
0.00024113925 0.00025400001 -0.018892366
0.00024113925 -2.1684043e-19 -0.018892366
-0.017844304 0.00025400001 -0.0063488549
-0.012539241 -0.00050800003 -0.021545801
-0.012539241 -0.00076199998 -0.021545801
-0.017844304 -0.00025400001 -0.0063488549
-0.0050639245 -0.00025400001 -0.023475572
-0.0050639245 0.00025400001 -0.023475572
-0.017844304 -2.1684043e-19 -0.0063488549
-0.0053050634 -2.1684043e-19 -0.0034541984
-0.010368988 0.00025400001 -0.021545801
-0.01278038 0.00050800003 -0.021545801
-0.004822785 -2.1684043e-19 -0.023475572
-0.01278038 0.00025400001 -0.021545801
-0.01278038 -0.00050800003 -0.021545801
0.0026525317 0.00025400001 -0.018892366
0.0026525317 -2.1684043e-19 -0.018892366
0.012539241 -2.1684043e-19 -0.018892366
-0.010127849 0.00025400001 -0.023475572
-0.0081987344 -0.0010160001 -0.021545801
-0.0084398743 -0.00076199998 -0.021545801
0.01278038 0.00025400001 -0.018892366
0.01278038 -2.1684043e-19 -0.018892366
0.01278038 -0.00025400001 -0.018892366
-0.0084398743 -0.0010160001 -0.021545801
0.012539241 0.00025400001 -0.018892366
-0.010127849 -0.00025400001 -0.023475572
0.012539241 -0.00025400001 -0.018892366
-0.0086810132 -0.00076199998 -0.021545801
0.00024113925 0.00025400001 -0.0034541984
0.00024113925 -2.1684043e-19 -0.0034541984
0.00024113925 -0.00025400001 -0.0034541984
0.012539241 -0.00025400001 -0.0065900763
0.012539241 -2.1684043e-19 -0.0065900763
-0.0089221522 -0.00076199998 -0.021545801
0 0.00025400001 -0.0034541984
-0.0079575954 -0.00076199998 -0.021545801
0.015432912 -2.1684043e-19 -0.018892366
0.015432912 -0.00025400001 -0.018892366
-0.0079575954 0.00025400001 -0.021545801
-0.0079575954 -2.1684043e-19 -0.021545801
-0.0079575954 -0.00025400001 -0.021545801
0.015191773 0.00025400001 -0.018892366
0.015191773 -0.00025400001 -0.018892366
-0.0079575954 -0.00050800003 -0.021545801
0.010127849 -0.00025400001 -0.0065900763
-0.010368988 -0.00025400001 -0.023475572
-0.010368988 -2.1684043e-19 -0.023475572
0.010127849 0.00025400001 -0.0065900763
0.010368988 -2.1684043e-19 -0.0065900763
0.010368988 0.00025400001 -0.0065900763
-0.0081987344 -0.00076199998 -0.021545801
0.007716456 0.00025400001 -0.018892366
0.007716456 -0.00025400001 -0.018892366
-0.007716456 -0.00025400001 -0.023475572
-0.007716456 -2.1684043e-19 -0.023475572
-0.007716456 0.00025400001 -0.023475572
0.007716456 -0.00050800003 -0.018892366
0.007475317 0.00025400001 -0.018892366
0.007475317 -0.00025400001 -0.018892366
-0.010127849 -0.00076199998 -0.021545801
-0.007475317 -0.00025400001 -0.023475572
-0.007475317 -2.1684043e-19 -0.023475572
-0.007475317 0.00025400001 -0.023475572
-0.010368988 0.00050800003 -0.021545801
0.010127849 -0.00050800003 -0.018892366
0 -0.00025400001 -0.0034541984
0.010368988 0.00025400001 -0.018892366
0.010368988 -2.1684043e-19 -0.018892366
-0.00024113925 0.00025400001 -0.0034541984
-0.00024113925 -2.1684043e-19 -0.0034541984
-0.00024113925 -0.00025400001 -0.0034541984
-0.007716456 -0.00025400001 -0.018651145
0.009886709 0.00025400001 -0.018892366
0.009886709 -2.1684043e-19 -0.018892366
0.01278038 -0.00025400001 -0.0065900763
0.01278038 -2.1684043e-19 -0.0065900763
-0.009886709 0.00025400001 -0.021545801
-0.009886709 -0.00025400001 -0.021545801
0.0053050634 -2.1684043e-19 -0.018651145
0.0024113925 -0.00025400001 -0.0068312977
0.0024113925 -2.1684043e-19 -0.0068312977
0.0024113925 0.00025400001 -0.0068312977
0.0026525317 -0.00025400001 -0.0068312977
0.0026525317 -2.1684043e-19 -0.0068312977
0.0026525317 0.00025400001 -0.0068312977
0.0016879748 0.00076199998 -0.021545801
-0.004822785 -2.1684043e-19 -0.003212977
0.0053050634 0.00025400001 -0.018651145
0.001929114 -2.1684043e-19 -0.021545801
0.0053050634 -0.00025400001 -0.018651145
0.0014468355 0.00050800003 -0.021545801
-0.0050639245 0.00025400001 -0.003212977
0.0050639245 0.00025400001 -0.018651145
-0.0050639245 -0.00025400001 -0.003212977
0.0014468355 0.00025400001 -0.021545801
0.0050639245 -0.00025400001 -0.018651145
0.007716456 -0.00025400001 -0.018651145
0.0021702533 0.00076199998 -0.021545801
0.01278038 -0.00025400001 -0.023716792
0.01278038 -2.1684043e-19 -0.023716792
0.01278038 0.00025400001 -0.023716792
0.0021702533 0.00050800003 -0.021545801
0.007716456 0.00025400001 -0.018651145
0.007716456 -2.1684043e-19 -0.018651145
0.0021702533 0.00025400001 -0.021545801
0.0021702533 -2.1684043e-19 -0.021545801
-0.0053050634 -2.1684043e-19 -0.003212977
0.007716456 -0.00050800003 -0.018651145
0.0021702533 -0.00025400001 -0.021545801
0.007475317 0.00025400001 -0.018651145
0.007475317 -2.1684043e-19 -0.018651145
0.007475317 -0.00025400001 -0.018651145
0.001929114 0.00076199998 -0.021545801
0.001929114 0.00050800003 -0.021545801
0.001929114 0.00025400001 -0.021545801
0.015191773 0.00025400001 -0.023716792
0.0024113925 0.00025400001 -0.018651145
0.0024113925 -2.1684043e-19 -0.018651145
0.00072341773 -0.00050800003 -0.021545801
0.0024113925 -0.00025400001 -0.018651145
-0.007475317 0.00025400001 -0.003212977
-0.007475317 -2.1684043e-19 -0.003212977
-0.007475317 -0.00025400001 -0.003212977
0.015191773 -0.00025400001 -0.023716792
0.015191773 -2.1684043e-19 -0.023716792
0.00072341773 -0.00025400001 -0.021545801
0.0004822785 0.00050800003 -0.021545801
0.0004822785 0.00025400001 -0.021545801
0.0004822785 -2.1684043e-19 -0.021545801
0.0004822785 -0.00025400001 -0.021545801
0.0004822785 -0.00050800003 -0.021545801
0.0004822785 -0.00076199998 -0.021545801
0.007716456 -0.00025400001 -0.0068312977
0.015432912 -2.1684043e-19 -0.023716792
0.000964557 -0.00050800003 -0.021545801
0.004822785 -2.1684043e-19 -0.0068312977
0.0050639245 -0.00025400001 -0.0068312977
0.0050639245 0.00025400001 -0.0068312977
0.0053050634 -2.1684043e-19 -0.0068312977
0.0053050634 0.00025400001 -0.0068312977
0.000964557 0.00025400001 -0.021545801
0.000964557 -2.1684043e-19 -0.021545801
0.000964557 -0.00025400001 -0.021545801
0.0021702533 0.0010160001 -0.021545801
0.0026525317 0.00025400001 -0.018651145
0.0026525317 -2.1684043e-19 -0.018651145
0.0026525317 -0.00025400001 -0.018651145
0.00072341773 0.00025400001 -0.021545801
0.007475317 -0.00025400001 -0.0068312977
0.007475317 -2.1684043e-19 -0.0068312977
0.007475317 0.00025400001 -0.0068312977
0.00072341773 -2.1684043e-19 -0.021545801
0.0031348104 0.00050800003 -0.021545801
0.0033759496 0.00050800003 -0.021545801
-0.00024113925 0.00025400001 -0.003212977
-0.00024113925 -2.1684043e-19 -0.003212977
-0.00024113925 -0.00025400001 -0.003212977
-0.0050639245 0.00025400001 -0.0068312977
0.0033759496 0.00025400001 -0.021545801
-0.004822785 -2.1684043e-19 -0.0068312977
0.0031348104 0.00076199998 -0.021545801
0.0033759496 0.00076199998 -0.021545801
0.0031348104 0.00025400001 -0.021545801
-0.0026525317 -0.00025400001 -0.0068312977
-0.0026525317 -2.1684043e-19 -0.0068312977
-0.0026525317 0.00025400001 -0.0068312977
-0.0024113925 -0.00025400001 -0.0068312977
-0.0024113925 -2.1684043e-19 -0.0068312977
-0.0024113925 0.00025400001 -0.0068312977
0.0028936709 0.00076199998 -0.021545801
0.0028936709 0.00050800003 -0.021545801
0.01278038 -2.1684043e-19 -0.018651145
0.010127849 0.00025400001 -0.023716792
0.00024113925 -2.1684043e-19 -0.003212977
0.00024113925 -0.00025400001 -0.003212977
0.010368988 -2.1684043e-19 -0.023716792
0.010368988 0.00025400001 -0.023716792
-0.0053050634 -0.00025400001 -0.0068312977
-0.0053050634 -2.1684043e-19 -0.0068312977
0.01278038 0.00025400001 -0.018651145
0.0028936709 0.00025400001 -0.021545801
0.01278038 -0.00025400001 -0.018651145
0 0.00025400001 -0.003212977
0 -0.00025400001 -0.003212977
-0.0050639245 -0.00025400001 -0.0068312977
0.012539241 0.00025400001 -0.018651145
0.012539241 -2.1684043e-19 -0.018651145
0.012539241 -0.00025400001 -0.018651145
-0.0026525317 -0.00025400001 -0.003212977
0 0.00025400001 -0.0068312977
0.0026525317 -0.00050800003 -0.021545801
0.00024113925 -0.00025400001 -0.0068312977
0.00024113925 -2.1684043e-19 -0.0068312977
0.00024113925 0.00025400001 -0.0068312977
-0.0026525317 0.00025400001 -0.003212977
0.0024113925 0.00076199998 -0.021545801
-0.0026525317 -2.1684043e-19 -0.003212977
0 -0.00025400001 -0.0068312977
0.0024113925 0.00050800003 -0.021545801
0.012539241 -0.00025400001 -0.023716792
0.012539241 -2.1684043e-19 -0.023716792
0.012539241 0.00025400001 -0.023716792
0.0024113925 -0.00050800003 -0.021545801
-0.00024113925 -0.00025400001 -0.0068312977
0.0028936709 -2.1684043e-19 -0.021545801
0.010368988 0.00025400001 -0.018651145
0.010368988 -2.1684043e-19 -0.018651145
0.0028936709 -0.00025400001 -0.021545801
0.010127849 0.00025400001 -0.018651145
0.010127849 -0.00025400001 -0.018651145
0.0026525317 0.00076199998 -0.021545801
0.015432912 0.00025400001 -0.023716792
-0.00024113925 -2.1684043e-19 -0.0068312977
-0.00024113925 0.00025400001 -0.0068312977
-0.0024113925 0.00025400001 -0.003212977
-0.0024113925 -2.1684043e-19 -0.003212977
-0.0024113925 -0.00025400001 -0.003212977
-0.017844304 -2.1684043e-19 -0.003212977
-0.015432912 0.00025400001 -0.003212977
-0.015432912 -2.1684043e-19 -0.003212977
-0.015432912 -0.00025400001 -0.003212977
-0.004822785 -2.1684043e-19 -0.018651145
-0.015191773 -2.1684043e-19 -0.0065900763
-0.001929114 -2.1684043e-19 -0.021545801
-0.015191773 0.00025400001 -0.0065900763
-0.0050639245 0.00025400001 -0.018651145
-0.017844304 0.00025400001 -0.003212977
-0.015191773 -0.00025400001 -0.003212977
-0.017844304 -0.00025400001 -0.003212977
0.017844304 0.00025400001 -0.0034541984
0.017844304 -2.1684043e-19 -0.0034541984
-0.0053050634 -2.1684043e-19 -0.018651145
-0.0053050634 -0.00025400001 -0.018651145
-0.0021702533 -2.1684043e-19 -0.021545801
-0.0021702533 -0.00025400001 -0.021545801
0.017844304 -2.1684043e-19 -0.0068312977
0.017844304 -0.00025400001 -0.023716792
0.017844304 -2.1684043e-19 -0.023716792
0.017844304 0.00025400001 -0.023716792
-0.012539241 -2.1684043e-19 -0.003212977
-0.012539241 -0.00025400001 -0.003212977
-0.000964557 0.00025400001 -0.021545801
-0.01278038 0.00025400001 -0.003212977
-0.01278038 -2.1684043e-19 -0.003212977
-0.01278038 -0.00025400001 -0.003212977
-0.0021702533 -0.00050800003 -0.021545801
0.017844304 0.00025400001 -0.0068312977
-0.0012056963 0.00025400001 -0.021545801
-0.017844304 -0.00025400001 -0.0065900763
-0.017844304 -2.1684043e-19 -0.0065900763
-0.015432912 -0.00025400001 -0.0065900763
-0.015432912 -2.1684043e-19 -0.0065900763
-0.015191773 0.00025400001 -0.003212977
-0.015191773 -2.1684043e-19 -0.003212977
-0.017603165 -0.00025400001 -0.023475572
-0.017844304 -2.1684043e-19 -0.023475572
-0.017844304 0.00025400001 -0.023475572
-0.0026525317 -0.00050800003 -0.021545801
-0.010368988 -0.00025400001 -0.0065900763
-0.007475317 0.00025400001 -0.018651145
-0.007475317 -2.1684043e-19 -0.018651145
-0.017844304 -0.00025400001 -0.023475572
-0.017603165 -2.1684043e-19 -0.023475572
-0.007475317 -0.00025400001 -0.018651145
-0.010368988 -2.1684043e-19 -0.0065900763
-0.0028936709 0.00025400001 -0.021545801
-0.0028936709 -2.1684043e-19 -0.021545801
-0.0028936709 -0.00025400001 -0.021545801
-0.007716456 0.00025400001 -0.018651145
-0.007716456 -2.1684043e-19 -0.018651145
-0.0021702533 -0.00076199998 -0.021545801
0.015432912 0.00025400001 -0.0034541984
0.015432912 -2.1684043e-19 -0.0034541984
-0.01278038 -0.00025400001 -0.0065900763
-0.01278038 -2.1684043e-19 -0.0065900763
0.015191773 0.00025400001 -0.0034541984
0.015191773 -2.1684043e-19 -0.0034541984
0.015191773 -0.00025400001 -0.0034541984
-0.01278038 0.00025400001 -0.0065900763
-0.012539241 0.00025400001 -0.003212977
-0.0024113925 -0.00050800003 -0.021545801
-0.0024113925 -0.00076199998 -0.021545801
-0.012539241 -0.00025400001 -0.0065900763
-0.012539241 -2.1684043e-19 -0.0065900763
-0.012539241 0.00025400001 -0.0065900763
-0.0026525317 0.00050800003 -0.021545801
0.00024113925 0.00025400001 -0.018651145
0.00024113925 -2.1684043e-19 -0.018651145
0.00024113925 -0.00025400001 -0.018651145
0 0.00050800003 -0.018651145
0 -0.00050800003 -0.018651145
0.010368988 -2.1684043e-19 -0.0068312977
-0.00024113925 0.00025400001 -0.018651145
-0.00024113925 -2.1684043e-19 -0.018651145
-0.00024113925 -0.00025400001 -0.018651145
0 -0.00076199998 -0.021545801
0 -0.0010160001 -0.021545801
0.007716456 -2.1684043e-19 -0.0068312977
0.007716456 0.00025400001 -0.0068312977
-0.007716456 0.00025400001 -0.003212977
-0.007716456 -2.1684043e-19 -0.003212977
-0.007716456 -0.00025400001 -0.003212977
0.00024113925 0.00076199998 -0.021545801
0.00024113925 0.00050800003 -0.021545801
-0.00024113925 0.0010160001 -0.021545801
0.00024113925 -0.00050800003 -0.021545801
0.00024113925 -0.00076199998 -0.021545801
0.00024113925 -0.0010160001 -0.021545801
0 0.0010160001 -0.021545801
0.010127849 -0.00025400001 -0.0068312977
0 0.00076199998 -0.021545801
0.010127849 0.00025400001 -0.0068312977
-0.00072341773 0.00025400001 -0.021545801
-0.0024113925 -2.1684043e-19 -0.018651145
-0.0024113925 -0.00025400001 -0.018651145
-0.0004822785 -2.1684043e-19 -0.021545801
-0.0004822785 -0.00025400001 -0.021545801
-0.0026525317 0.00025400001 -0.018651145
-0.0026525317 -2.1684043e-19 -0.018651145
-0.0026525317 -0.00025400001 -0.018651145
