# .PCD v0.7 - Point Cloud Data file format
VERSION 0.7
FIELDS x y z
SIZE 4 4 4
TYPE F F F
COUNT 1 1 1
WIDTH 1196
HEIGHT 1
VIEWPOINT 0 0 0 1 0 0 0
POINTS 1196
DATA ascii
0.020230448 0.00015874984 -0.0047410252
0.020230448 0.00015874981 -0.0043102568
0.020230448 0.0012699995 -0.0021564104
0.023222275 0.0012700006 -0.00072051305
0.026783973 0.0012700006 -0.0017256411
0.027211379 0.0012700004 -0.0022999998
0.025786698 0.0012700006 -0.0017256406
0.0076932688 -0.00031749965 0.0011461535
0.005128846 0.00015874961 0.0011461535
0.0048439098 0.00015875066 0.0017205128
0.0051288456 0.00015874943 0.0017205128
0.007408333 -0.00031749945 0.0017205128
0.0018520833 0.0012699997 -0.0021564104
0.0022794865 0.00015875054 -0.0031615384
0.0022794874 0.00074083358 -0.0022521368
0.001852083 0.00079375034 -0.0021564099
0.010257692 0.0012700005 -0.00028974423
0.010257692 0.0012700006 -0.0011512823
0.011254969 0.0012700004 -0.0002897433
0.010685096 0.0012699997 -0.0002897433
0.009260416 0.0012700006 -0.00072051305
0.0076932693 0.0001587501 0.0011461531
0.0042740381 0.0012699999 -0.0017256406
0.0038466342 0.0012700004 -0.0017256406
0.0099727558 0.00015875022 0.0022948724
-0.034762178 0.0012699995 -0.00028974377
-0.035616986 0.00015874938 0.0017205118
-0.032767627 -3.7107384e-10 0.0022948715
-0.030488141 -2.8012437e-10 0.0030128206
-0.030488141 -0.00031750064 0.0027256408
-0.030488141 -5.6024874e-10 0.0027256417
-0.033052564 -0.00031750044 0.00071538519
-0.033764903 -0.00079375028 -0.0002897433
-0.033764906 -0.00031749991 -0.00028974423
-0.034334771 -0.00079374987 -0.00028974377
-0.034334771 -0.0012699999 -0.00028974377
-0.001282212 0.0012700001 -0.011776924
-0.00071234023 0.0012700005 -0.012207692
-0.0018520834 0.0012699999 -0.012207692
-0.0012822115 0.00127 -0.012207692
-0.00028493593 0.00015875019 -0.010341026
0.0038466337 0.0012700001 -0.010771795
0.003276763 0.0012699994 -0.010771796
0.0032767626 0.0001587501 -0.010341026
0.0038466342 0.00015874987 -0.010341026
0.005128846 0.00015875028 -0.015223078
0.005128846 -0.00031750029 -0.014648719
0.0051288456 0.00015875004 -0.014648719
0.0051288456 -0.00031750026 -0.015223077
0.002279487 0.00015874961 -0.015797436
0.0025644237 -0.0003175 -0.015223077
0.0022794874 0.00015874996 -0.015223077
-0.020515384 -0.00031749994 -0.01378718
-0.020230448 -0.00031750047 -0.014217949
-0.020515384 -0.00031749936 -0.014217949
-0.020515384 0.00015875057 -0.014217949
-0.017761005 -0.00031750023 -0.013164958
-0.017238621 -0.00127 -0.012207692
-0.017238621 -0.00079375011 -0.012207692
-0.012679647 0.0012700005 -0.011346154
-0.012252243 0.0012700006 -0.012207692
-0.01524407 0.0012699995 -0.011346154
-0.01524407 0.0012699995 -0.010197436
-0.015861431 0.0012700007 -0.011250428
-0.0066959937 0.0012699997 -0.012207692
-0.0066959932 0.00079375063 -0.012207692
-0.0076932702 0.00015874955 -0.01378718
-0.0074083339 4.6566129e-10 -0.01378718
-0.0072658658 0.00079375011 -0.012207692
-0.042740382 0.00079375011 -0.00028974377
-0.033147544 0.00010583321 -0.0051717944
-0.033052564 -0.00031750064 -0.0047410261
-0.034334771 0.0012699994 -0.0021564099
-0.034334775 0.00079375005 -0.0021564108
-0.033764906 0.0012699993 -0.0021564104
-0.033147544 0.00010583376 -0.0031615391
-0.033195034 0.0012700001 -0.0021564104
-0.032767627 -2.401066e-10 -0.0037358981
-0.033147544 0.0001058331 -0.0037358976
-0.038751282 -0.0012699997 -0.00072051305
-0.028208653 4.802132e-10 0.0022948715
-0.027923716 0.00015874993 0.0027256408
-0.027923716 0.00015875004 0.0022948715
-0.027923716 -2.582965e-10 0.0030128197
-0.027923716 -0.00031749965 0.0027256408
-0.030488141 0.00015875034 0.0017205118
-0.030488141 -0.00031749974 0.0017205128
-0.031770349 0.00079375046 -0.0002897433
-0.03120048 0.00079374958 -0.00028974377
-0.030488141 0.00015874961 0.00071538473
-0.027211377 -0.00031749994 -0.0023000003
-0.027923716 -0.00031750041 -0.0031615382
-0.026783973 -0.0007937504 -0.0023000003
-0.02564423 -0.00031749945 -0.0030179487
-0.027923716 0.00015874961 -0.0037358978
-0.032767627 0.0012700005 -0.0021564099
-0.031770349 0.0012700005 -0.0021564104
-0.033764906 0.0012699997 -0.0017256406
-0.033195034 0.0012699997 -0.0017256406
-0.036756728 -0.0012700004 -0.010484615
-0.03533205 -0.0003174998 -0.0099102566
-0.034762178 -0.00074083306 -0.010388889
-0.035189584 -0.0012699997 -0.010484615
-0.038323879 -0.0012700002 -0.0017256406
-0.037754007 -0.0012699993 -0.0017256415
-0.035759456 -0.0012700005 -0.0021564099
-0.035616986 -0.00031749977 -0.0037358976
-0.036756728 -0.0012700007 -0.00072051352
-0.036329329 -0.0012700004 -0.0017256406
-0.034334771 0.0012700002 -0.010484615
-0.03533205 0.00015875007 -0.0097666662
-0.034762178 0.0012699997 -0.010484615
-0.03533205 -6.1481842e-10 -0.0071820514
-0.035616986 -0.00031750047 -0.0067512821
-0.03533205 0.00015874949 -0.0067512826
-0.035616986 0.00015875013 -0.0067512821
-0.035616986 -0.0003174998 -0.007182051
-0.038181409 -0.0003175 -0.0057461541
-0.034334775 0.00015875057 -0.010341025
-0.034334771 -0.00031749942 -0.010341026
-0.03533205 -4.8748916e-10 -0.0091923084
-0.040460896 0.0001587506 -0.014648719
-0.039748557 0.0012700004 -0.010771795
-0.039226174 0.00021166619 -0.012207691
-0.040318429 0.0012700004 -0.010197436
-0.039131194 0.0012700005 -0.01038889
-0.039178684 -0.00079375051 -0.010341024
-0.043167785 0.0001587501 -0.012351283
-0.044165064 -0.00063499989 -0.011633334
-0.044165064 0.00015875036 -0.011202564
-0.043025319 -0.00095250033 -0.011346154
-0.043737657 -0.0003174998 -0.012207692
-0.04231298 -0.00031750012 -0.012207692
-0.041173235 -0.00031750021 -0.012207692
-0.040745832 -0.00063500012 -0.011920514
-0.040460896 0.00015875007 -0.017233334
-0.040745832 -0.00031750026 -0.016228206
0.037754007 0.0012700007 -0.00072051259
0.036756728 0.0012700006 -0.0017256406
0.037184134 0.00127 -0.0017256415
0.038751282 0.0012700006 -0.0011512828
0.041173235 0.00079375063 -0.0021564108
0.040745832 0.00015874981 -0.0027307696
0.041173235 0.0012699995 -0.0021564108
0.029205929 -0.00031749974 -0.0021564099
0.029205929 0.0001587497 -0.0021564099
0.029804293 0.00012700012 -0.002213846
0.030345675 -0.0012699993 -0.0023000003
0.030773075 -0.0012699997 -0.0021564099
0.030773075 -0.00079374947 -0.0023000003
0.030345673 -0.0012700002 -0.0017256411
0.03120048 -0.0012700002 -0.0021564104
0.038181409 -0.00031750032 -0.0031615384
0.037896473 -3.4924597e-10 -0.0037358969
0.038323879 0.0012700002 -0.010341026
-0.019233173 -0.00031749957 -0.012207692
-0.0186633 -0.00031750047 -0.012207692
-0.019233173 -0.0012699997 -0.011202564
-0.035616986 -0.00031749951 0.0022948715
-0.035616986 -0.00031750018 0.0017205137
-0.040745832 -0.00074083341 -0.0022521373
-0.040318429 -0.00079375028 -0.0021564104
-0.040745832 -0.00031749936 -0.0031615386
-0.042740382 -0.0012700001 -0.0011512823
-0.043167785 -0.00031750038 -0.0051717954
-0.043167785 2.1827873e-11 -0.0047410252
-0.043167785 -0.00031750032 -0.0037358976
-0.043167785 6.1118044e-10 -0.0043102568
-0.043167785 -0.00031749977 -0.0043102568
-0.04231298 -0.00031749983 -0.0021564104
-0.041743107 -0.0003174998 -0.0021564099
-0.043167785 2.3646862e-10 -0.0063205129
-0.043167785 -0.00031749971 -0.0067512821
-0.041173235 -0.0012699998 -0.0021564104
-0.044165064 -0.00031749939 -0.010771795
-0.042740382 0.00079374958 -0.0021564099
-0.04231298 0.0012699995 -0.0021564099
-0.04231298 0.00079374952 -0.0021564104
-0.01666875 -0.0003175005 -0.00028974377
-0.016241346 -0.0012699997 -0.0017256411
-0.014246794 -0.0012699999 -0.0021564099
-0.014721688 -0.00079374999 -0.0022521368
-0.015813941 -0.0012700004 -0.0017256411
-0.014246793 -0.00031750041 -0.0021564099
-0.017761005 -0.00031749948 -0.0057940176
-0.01524407 -0.00031749989 -0.0051717944
-0.016241346 -0.00031749977 -0.0021564099
-0.017286109 -0.0003175005 -0.0022521368
-0.017808495 0.00015874952 -0.0063205129
-0.01524407 0.00015875013 -0.0067512826
-0.01524407 0.00015875036 -0.0087615382
-0.014674198 0.0012699993 -0.010197436
-0.020515384 -0.00031750006 -0.0067512817
-0.020230448 -0.00031749989 -0.0067512826
0.00014246744 -0.00031750018 -0.017807692
-0.0012822113 -0.0012700007 -0.011776923
-0.0018520838 -0.0012699994 -0.012207692
-0.002279487 -0.0012700006 -0.012207692
-0.0012822113 -0.0012700002 -0.012207692
-0.00028493651 0.00015874952 -0.017233334
-0.0025644237 0.00015875016 -0.017233334
-0.005128846 -0.00031749945 -0.017807694
-0.0048439098 -2.5465852e-11 -0.018238463
-0.010257693 0.00015874949 -0.017233333
-0.0099727558 1.0913936e-10 -0.017233334
-0.0076932684 0.00015874996 -0.017233333
-0.0076932693 -0.00031749991 -0.017233334
-0.0076932693 0.00015874938 -0.016658975
-0.01524407 -0.0003175005 -0.017807692
-0.01529156 0.000105833 -0.018238463
-0.01524407 0.00015874964 -0.017807692
-0.01666875 0.00079375017 -0.012207692
-0.01666875 0.00015874958 -0.012207692
-0.010257692 0.0001587497 -0.013212821
-0.010257692 0.00074083288 -0.012303419
-0.0086905453 0.00079374935 -0.012207692
-0.0082631409 0.00079375046 -0.012207692
-0.0076932693 -0.0003175005 -0.013212821
-0.0086905444 -0.00031750061 -0.012207692
0.0012822109 -0.0012699999 -0.00028974423
0.0007123393 -0.00079374993 -0.00028974377
-0.0022794879 -0.0012699995 -0.0017256411
-0.0018520838 -0.0012700002 -0.0011512823
-0.0022794879 -0.0012699998 -0.0011512819
-0.0012822113 -0.0012700002 -0.0002897433
-0.0018520836 -0.0012699999 -0.00028974423
-0.001282211 -0.0012700005 -0.00072051259
-0.0022794874 -0.0012700004 -0.00072051259
-0.011824839 -0.00127 -0.0002897433
-0.010257692 -0.0012700005 -0.00028974377
-0.010257691 -0.00031750035 0.001146154
-0.013249519 -0.00079375063 -0.0002897433
-0.013819389 -0.00079375017 -0.00028974377
-0.012679649 -0.0012699999 -0.0011512828
-0.012252243 -0.0012700002 -0.0011512828
-0.01182484 -0.00127 -0.0017256406
-0.011824839 -0.0012699995 -0.0011512828
-0.0086905435 -0.00079375022 -0.0021564099
-0.0092604151 -0.0012699997 -0.0021564108
-0.0086905444 -0.0012699997 -0.0021564099
-0.010257692 -0.00031750018 0.0022948715
-0.0099727558 -0.00031750003 0.0022948715
0.00071233918 0.0012699994 -0.011776923
0.00071233988 0.0012699998 -0.012207692
0.0025644237 0.00015875036 -0.015797436
0.0025644235 0.00015875022 -0.015223078
0.0022794879 0.0001587501 -0.016228205
0.0025644233 0.00015875007 -0.016658975
0.0022794867 0.0001587494 -0.016658975
0.005128846 0.00015874984 -0.016658975
0.0086905444 -0.00079374935 -0.012207692
0.0076932688 -0.00031749965 -0.013212821
0.0082631418 -0.00079375046 -0.012207692
-0.018235898 0.0012700006 -0.00028974377
-0.025786698 0.0012700005 -0.0011512823
-0.025216827 0.0012699999 -0.0011512819
-0.025216825 0.0012699999 -0.00072051352
-0.02421955 0.0012699998 -0.0017256411
-0.026783973 0.00084666687 -0.00033760676
-0.02635657 0.00015874949 -0.00028974423
-0.026783973 0.00015874952 -0.00028974423
-0.027211379 0.00015875045 -0.00028974377
-0.027211377 0.00084666652 -0.00033760676
-0.025359293 -0.00031749939 0.0011461535
-0.025359293 0.00015874946 0.0022948706
-0.021797596 0.0012700004 -0.0017256406
-0.035759453 0.0012699997 -0.0011512819
-0.042740382 0.0012700001 -0.0017256411
-0.03533205 3.6379788e-12 -0.017807692
-0.035616986 -0.00031749994 -0.017807692
-0.037896473 -3.8198777e-10 -0.016658975
-0.038181409 -0.00031750053 -0.016228206
-0.038751282 -0.0012699997 -0.012207692
-0.038181409 -0.0003175005 -0.013212821
-0.038181409 -0.00031749933 -0.01378718
-0.037184134 -0.0012699997 -0.012207692
-0.035759456 -0.0012700004 -0.010484615
-0.034334775 -0.00074083282 -0.010388889
-0.037754007 -0.0012699999 -0.010771795
-0.037754007 -0.0012699997 -0.010484615
-0.038751282 -0.00095250038 -0.011202564
-0.030393165 0.00010583386 -0.017233333
-0.030488141 -0.0003175 -0.017233334
-0.030431155 0.00012700024 -0.016630257
-0.027923716 0.00015875054 -0.017233333
-0.034334771 0.0012700005 -0.010771796
-0.033195034 0.0012700005 -0.012207692
-0.033764906 0.00127 -0.012207692
-0.034334771 0.0012700006 -0.012207692
-0.030431155 0.00012700027 -0.013758464
-0.030345675 0.0012699995 -0.012207692
-0.030773077 0.0012699999 -0.012207692
-0.030345675 0.0012700005 -0.010341026
-0.0297758 0.0012700002 -0.012207692
-0.029775798 0.0012700001 -0.010341026
-0.040745832 -2.582965e-10 -0.018525641
-0.024646955 0.0012699997 -0.0021564099
-0.02421955 0.00127 -0.00072051352
-0.014674198 0.0012700004 -0.011346154
-0.012679649 0.00015874949 -0.013212822
-0.013819392 -0.00031750018 -0.012207692
-0.013819391 0.00015874938 -0.012207692
-0.014674199 0.00079375051 -0.012207692
-0.014246794 0.00079374952 -0.012207692
-0.028351121 0.0012700004 -0.00072051305
-0.028351121 0.0012700001 -0.0011512819
-0.028778525 0.0012699997 -0.00028974423
-0.027760895 0.00077107141 -0.002279487
-0.027781248 0.0012699998 -0.0017256411
-0.027211379 0.0012700004 -0.0011512823
0.04231298 0.0012700002 -0.011776924
0.030488141 0.00015875048 -0.017233334
0.032767627 4.3655746e-11 -0.017807692
0.02564423 2.7648639e-10 -0.015797436
0.02564423 6.184564e-11 -0.016228205
0.027923716 -0.00031749974 -0.016228205
0.030488141 -0.00031749986 -0.015797436
0.030488141 -0.00031750021 -0.015223077
0.030773075 -3.8198777e-10 -0.015223077
0.030488141 0.0001587494 -0.015797436
0.030488141 -0.00031749951 -0.016228205
0.027923716 -0.00031750041 -0.015223077
0.03533205 2.0008883e-10 -0.017233334
0.038181409 -0.00031749951 -0.016228205
0.038181409 0.00015875057 -0.016228205
-0.041743107 0.0001587497 -0.012207692
-0.041743111 0.00015875039 -0.011776923
-0.04231298 -0.00063499942 -0.011920512
-0.042740382 -0.0006350003 -0.011920514
-0.040745832 -0.00031749986 -0.01378718
-0.04231298 -0.00079375034 -0.010341026
-0.041743111 -0.00079375034 -0.010341027
-0.038181409 -0.00031750021 -0.0083307698
-0.037896473 -2.910383e-10 -0.0087615401
-0.038181409 -0.00031749951 -0.0087615401
-0.035616986 0.00015874978 -0.0063205129
-0.035759456 0.0012700004 -0.010771796
-0.035759456 0.0012700004 -0.010341026
-0.035189584 0.0012699995 -0.010484615
-0.035616986 0.00015875013 -0.0037358978
-0.02564423 -0.00031749965 0.0022948715
-0.025359293 -0.00031749959 0.0017205128
-0.019803043 -0.0012699998 -0.0023000007
-0.0186633 -0.00079374952 -0.0021564108
-0.020230448 -0.00031750003 -0.0063205129
-0.020230448 0.00015874935 -0.0063205133
-0.022794871 0.0001587499 -0.0057461536
-0.022794871 0.0001587506 -0.0051717954
-0.022794871 -0.00031749962 -0.0051717958
-0.023222275 0.0012700001 -0.0022999998
-0.022699893 -0.0012700005 -0.0022521373
-0.022794871 -0.00031750047 -0.0037358976
-0.021797596 -0.00079374999 -0.0022521373
-0.02421955 -0.0008466671 -0.0022521373
-0.02421955 -0.0012699994 -0.0022999998
-0.023079807 0.00010583392 -0.0031136749
-0.025359293 0.00015874967 -0.0031615386
-0.025196474 0.00077107101 -0.0022794879
-0.020515384 0.00015875036 -0.0047410261
-0.020515384 -0.00031750044 -0.0041666664
-0.022794871 -0.00031750038 -0.0047410261
-0.017808493 0.00015874993 -0.0047410256
-0.020230448 -0.00031750047 -0.0047410261
-0.020230448 -0.00031750044 -0.0043102577
-0.020230448 -0.00031749936 -0.0037358971
-0.020230448 0.00015875063 -0.0043102573
-0.022652403 -0.00127 -0.011202564
-0.0186633 -0.0012699994 -0.0017256406
-0.023792148 -0.0007937504 -0.0002897433
-0.020515384 -0.0003174998 -0.0027307686
-0.020230448 -0.00031750009 0.0022948706
-0.021797597 -0.0012699994 -0.00028974377
-0.021227725 -0.0007937497 -0.00028974377
-0.0186633 -0.0012700006 -0.011202564
-0.017808493 -0.0012699998 -0.011776924
-0.017808493 -0.0012699998 -0.00028974377
-0.017238621 -0.0012699994 -0.00072051352
-0.020657852 -0.0012699999 -0.0017256411
-0.021227721 -0.0012699998 -0.0011512828
-0.021797597 -0.0012699998 -0.0011512823
-0.03533205 2.6193447e-10 -0.0051717949
-0.03533205 -1.4551915e-10 -0.0047410256
-0.033052564 -0.00031750029 -0.0051717954
-0.033147544 0.00010583399 -0.0057461541
-0.033052564 -0.00031750038 -0.0037358976
-0.022225 -0.00074083335 -0.0022521373
-0.042740382 -0.0012699997 -0.0002897433
-0.032340221 -0.0012700002 -0.0002897433
-0.032340221 -0.0012700006 -0.00072051305
-0.033195034 -0.0012700004 -0.00028974377
-0.032767627 -0.00127 -0.0002897433
-0.031770349 -0.0012700004 -0.00072051352
-0.031770349 -0.0012699998 -0.0002897433
-0.03120048 -0.0012699995 -0.0002897433
-0.033764906 -0.0012699997 -0.00028974377
-0.036756728 -0.00079374935 -0.0002897433
-0.036329329 -0.00079375057 -0.0002897433
-0.036756728 -0.0012699999 -0.00028974377
-0.036329329 -0.0012699997 -0.00028974423
-0.034762178 -0.0012700004 -0.0002897433
-0.035189584 -0.0012699997 -0.0002897433
0.038323879 -0.0012700005 -0.00072051352
0.038323879 -0.00127 -0.00028974377
-0.038323879 -0.00127 -0.00072051259
-0.038323879 -0.0012699995 -0.0011512828
-0.028778525 -0.0012700005 -0.00028974423
-0.028778525 -0.00079375046 -0.00028974423
-0.029205929 -0.0012700005 -0.00028974377
-0.012679648 0.00015875045 -0.0087615382
-0.01324952 0.00015874943 -0.010341027
-0.023079807 0.00015874958 -0.0047410256
-0.022794871 -0.00031749983 -0.0043102568
-0.028778525 -0.00079374958 -0.0021564108
-0.028208653 4.292815e-10 -0.0031615386
-0.028208653 -5.5661076e-10 -0.0037358978
-0.029177437 -0.00082550006 -0.0022138469
-0.029205929 -0.00031750058 -0.0021564108
-0.025786698 -0.0012699994 -0.0017256411
-0.025216825 -0.00127 -0.0021564104
-0.025739208 -0.0012700001 -0.0022521373
-0.025216827 -0.00127 -0.0017256415
-0.020230448 0.0007408337 -0.012303419
-0.020230448 0.0001587497 -0.013212821
-0.020515384 0.00015874978 -0.013212821
-0.020629358 0.00076200056 -0.012265129
-0.021227721 0.00079375017 -0.012207692
-0.020657852 0.0012700007 -0.012207692
-0.02564423 -2.7648639e-10 -0.017807692
-0.025359293 0.00015875034 -0.017233333
-0.02564423 -2.2191671e-10 -0.016658975
-0.025359293 0.00015875025 -0.016658977
-0.02564423 -5.0204108e-10 -0.017233334
-0.025359293 -0.00031750006 -0.016658977
-0.031770349 0.0012700001 -0.012207692
-0.031770349 0.0012699995 -0.010484615
-0.032340221 0.0012700006 -0.012207692
-0.032482691 0.0012699995 -0.011920512
-0.031770349 0.00079375057 -0.012207692
-0.02564423 2.6921043e-10 -0.014217949
-0.02564423 7.2759576e-12 -0.01378718
-0.025359293 0.00015875013 -0.016228205
-0.020515384 -0.00031750067 -0.017233334
-0.020230448 -0.00031750064 -0.014648719
-0.020230448 0.00015874935 -0.014648719
-0.020230448 0.00015874972 -0.014217949
-0.020515384 0.00015874955 -0.014648719
-0.022794871 -0.00031750021 -0.013212821
-0.020515384 0.00015875048 -0.018238463
-0.022794871 -0.00031749971 -0.018238463
-0.022794871 0.00015875045 -0.018238464
-0.022794871 -2.5465852e-10 -0.018525641
-0.022794871 0.00015874993 -0.017807692
-0.023792148 -0.0012700007 -0.00028974377
-0.019233173 -0.0003175005 -0.00028974377
-0.019233173 0.00084666722 -0.00033760676
-0.0186633 -0.00031750064 -0.00028974377
-0.01666875 0.0001587506 -0.0021564104
-0.017238621 0.00079374964 -0.0021564108
-0.0186633 0.00015875013 -0.0021564099
-0.017808493 0.0012700006 -0.0017256406
-0.020230448 0.00127 -0.0021564099
-0.020230448 0.00127 -0.0011512828
-0.0186633 0.0012699994 -0.0011512819
-0.0099727558 -0.0003175 -0.0063205129
-0.0099727549 -0.00031750041 -0.0067512821
-0.010257691 -0.0012699995 -0.0023000007
-0.010685095 -0.0012700006 -0.0021564108
-0.0098302877 -0.0012699998 -0.0017256415
-0.0098302877 -0.0012699994 -0.0022999998
-0.010685096 -0.0012700006 -0.00072051305
-0.010257692 -0.0012700004 -0.00072051305
-0.0098302895 -0.0012700006 -0.00028974423
-0.014246793 -0.0012699995 -0.0017256415
0.0048439102 0.0001587494 -0.016658975
0.0051288456 -0.00031750006 -0.016658975
-0.010257693 0.00015874958 -0.0047410252
-0.010257692 -0.00031750047 -0.0051717949
-0.010257692 0.00015875013 -0.0051717949
-0.011254968 -0.0012700005 -0.0017256411
-0.011254968 -0.0012699999 -0.0011512819
-0.010257692 0.00015874946 -0.0071820514
-0.010257692 -0.00031750015 -0.007182051
-0.014246794 0.00127 -0.010197436
-0.010257692 -0.00031750038 -0.0067512826
-0.0099727567 -0.00031749959 -0.007182051
-0.011824839 -0.00079374941 -0.0021564108
-0.01182484 -0.0003175 -0.0021564104
-0.011254968 -0.00079374947 -0.0021564108
-0.0098302886 -0.0012700002 -0.0011512823
-0.010257692 -0.0012699998 -0.0017256415
-0.010257691 -0.0012700002 -0.0011512828
-0.011824839 -0.0012700005 -0.00072051305
-0.01524407 0.00127 -0.0017256406
-0.014674199 0.0012700006 -0.00072051259
-0.01524407 0.0012700001 -0.00072051352
-0.01524407 0.0012699994 -0.0011512823
-0.014674198 0.0012700001 -0.0017256411
-0.014674198 0.00079375017 -0.0021564108
-0.014674198 0.0012699998 -0.0021564104
0.041743107 -0.00031750047 -0.0002897433
0.04231298 0.0012699994 -0.0011512828
0.04231298 0.0012700005 -0.00072051352
0.041743111 0.00015875036 -0.00028974423
0.037896473 -2.9467628e-10 -0.0047410256
0.036756728 0.0012700004 -0.0023000003
0.038323879 0.0012700001 -0.0021564104
0.037754007 0.0012699998 -0.0021564104
0.035616986 -0.00031750006 -0.0030179496
0.035759456 -0.0012699999 -0.0022999998
0.036376819 -0.0012700002 -0.0022521364
0.036376819 -0.00079374964 -0.0022521364
0.036756728 -0.00084666646 -0.0022521368
0.039748557 0.0012699993 -0.00028974377
-0.038181409 0.00015874955 0.0022948715
-0.038181409 0.00015874999 0.0017205128
-0.039748557 0.0012700005 -0.00072051305
-0.040318429 0.0012700005 -0.0017256411
-0.040745832 0.0012699999 -0.0011512823
-0.040745832 0.0012699993 -0.0017256415
-0.043167785 0.0012700004 -0.00072051305
-0.041743107 0.0012699995 -0.0002897433
-0.04231298 0.0012699999 -0.00072051305
-0.043167785 0.00127 -0.0017256406
-0.039748557 0.0012699998 -0.0002897433
-0.039748561 0.00079375011 -0.00028974423
0.026783973 -0.00031749965 -0.0002897433
0.039748557 0.0012700002 -0.00072051259
0.040318429 0.0012699999 -0.0011512819
-0.026783973 0.00127 -0.00028974377
-0.024646955 0.00127 -0.00072051259
-0.030773077 0.0012700002 -0.0011512828
-0.031770349 0.0012700001 -0.00072051352
-0.03120048 0.0012699998 -0.0011512828
-0.030773077 0.0012699999 -0.00028974423
-0.030345675 0.0012699997 -0.0011512828
-0.029205929 0.0012699999 -0.00072051352
-0.029205929 0.0012699993 -0.0002897433
-0.029205929 0.00079375005 -0.00028974377
-0.028778525 0.00084666681 -0.00033760676
-0.026783973 0.00079375051 -0.0021564104
-0.038181409 0.00015874981 -0.0031615377
-0.038181409 0.00015875019 -0.0037358971
-0.037184134 0.00079374941 -0.0021564099
-0.034762178 0.00079374964 -0.0021564108
-0.034762178 0.0012699998 -0.0021564104
-0.034762178 0.0012699998 -0.0011512828
-0.034334771 0.0012699994 -0.0011512819
-0.036329329 0.0012700005 -0.0011512828
-0.037184134 0.00127 -0.0021564108
-0.037754007 0.0012700001 -0.0011512823
-0.036756728 0.0012699994 -0.0021564104
-0.040745832 -0.0012699995 -0.00072051305
-0.040745832 -0.0012699997 -0.0002897433
0.044165064 0.00079375057 -0.0011512823
0.043167785 0.0012699994 -0.00072051352
0.043167785 0.0012699999 -0.0011512828
0.043595191 0.0012700001 -0.0021564099
0.043595191 0.0012700001 -0.0011512819
-0.039748557 -0.00079375063 -0.0021564108
-0.04313929 0.00069850043 -0.010312309
0.043737657 -0.0009525005 -0.012207692
0.043737661 -0.00084666605 -0.00033760676
-0.0099727558 8.0035534e-11 -0.0057461536
-0.0099727558 -2.5465852e-11 -0.0051717954
-0.0018520834 0.0012699997 -0.0017256406
0.039748557 0.0012699997 -0.012207692
0.039178684 0.00079374964 -0.012207692
0.039178684 0.0012700001 -0.011776923
0.027923716 0.00015875004 -0.017233336
0.02786673 0.00012700009 -0.017836412
0.025359293 0.00015874958 -0.016228205
0.025359293 0.00015875004 -0.014648721
0.025359293 -0.00031750041 -0.01378718
0.025216825 -0.0012700005 -0.012207692
0.025786698 -0.0012700001 -0.012207692
0.024646955 -0.0012699995 -0.012207692
0.025359293 -0.00031750021 -0.01421795
0.025359293 0.00015875031 -0.01421795
0.025359293 -0.0003174998 -0.016228205
0.023079807 -0.00031749977 -0.017807694
0.025359293 -0.00031750023 -0.018238463
0.025359293 4.802132e-10 -0.018525641
0.025359293 0.00015875025 -0.018238463
0.022794871 0.00015875022 -0.013212821
0.022680897 0.00076200045 -0.012265128
0.023079807 0.00015875034 -0.013212821
0.030298183 0.0012700005 -0.0022521368
0.030488141 0.00015874972 -0.0037358981
0.029775798 0.0012699994 -0.0023000007
0.030488141 0.00015874975 -0.0043102568
0.030488141 -0.00031750018 -0.0043102568
0.030488141 -0.00031749939 -0.0047410252
0.035616986 2.2919266e-10 0.0030128206
0.035616986 0.0001587506 0.0027256408
0.035616986 -0.00031749933 0.0022948715
0.03533205 -3.2014214e-10 0.0022948715
0.021227721 0.0012699995 -0.011202564
0.020657852 0.0012699997 -0.011776922
0.022652403 0.00127 -0.010771795
0.022225 0.0012699997 -0.011202564
0.02421955 0.0012699995 -0.011776924
0.028778525 0.0012700005 -0.011202564
0.027211379 0.0012700001 -0.011776922
0.027781248 0.0012700002 -0.012207692
0.027211377 0.0012699994 -0.012207692
0.02635657 0.0012700005 -0.012207692
0.02564423 -2.401066e-10 -0.013212821
0.033195034 0.0012700005 -0.011202564
0.032767627 0.0012700002 -0.011776922
0.034334771 0.0012699998 -0.011202564
0.034762178 0.0012699998 -0.011776924
0.032767627 0.0012700004 -0.012207692
0.032340221 0.0012700002 -0.012207692
0.029205929 -0.00031750012 -0.012207692
0.0297758 0.00015874964 -0.012207692
0.0297758 -0.00031750015 -0.012207692
0.030488141 -0.00031750026 -0.013212821
0.02635657 0.0012700001 -0.010771794
0.0297758 0.00127 -0.010771794
0.029775798 0.0012699997 -0.010341026
0.030345675 0.0012699995 -0.010341026
0.028778525 -0.0012700001 -0.0017256406
-0.0098302877 0.00079375057 -0.012207692
-0.0086905444 0.00015875045 -0.012207692
-0.0078072418 0.00076200051 -0.012265129
-0.00071233918 0.0012699997 -0.0017256411
-0.00028493535 0.0012699999 -0.0017256411
0.00014246767 -0.00031750006 -0.0063205138
-0.00028493593 0.00015874952 -0.0067512821
-0.00028493558 0.0001587501 -0.0063205129
-0.00028493651 0.00015875031 -0.0057461541
9.4978255e-05 0.00010583319 -0.0063205129
-0.0002849357 0.00015875063 -0.0047410252
9.4978372e-05 0.00010583287 -0.0043102559
9.4978139e-05 0.00010583341 -0.0047410252
-0.00071233965 -0.0012699997 -0.011776922
-0.00071234012 -0.00127 -0.011202564
-0.00028493605 -0.0012700002 -0.011776923
-0.0012822115 -0.0012700006 -0.011202564
-0.0012822117 -0.0012700006 -0.010771796
-0.0048439098 -0.00031749968 -0.0056025647
-0.0048439102 5.0931703e-10 -0.0057461536
-0.0048439102 -4.4019544e-10 -0.0051717954
0.00071233982 -0.0012699997 -0.0021564099
0.0012822114 -0.0012699995 -0.0021564104
0.038181409 2.5102054e-10 -0.0031615386
0.038751282 0.00015874978 -0.0023000003
0.037754007 -0.00079375028 -0.0021564104
0.038181409 -1.2369128e-10 -0.0037358976
0.038181409 -0.00031750053 -0.0043102568
0.02630908 -0.0012700004 -0.0022521373
0.026783973 -0.00127 -0.0021564104
0.027211377 -0.0012699995 -0.0021564099
0.027923716 -0.00031749971 -0.0031615389
0.017238621 -0.00079375057 -0.0021564099
0.040460896 -0.00031749962 -0.0057461536
0.036329329 -0.0012699997 -0.0002897433
0.035616986 -0.00031750026 0.0011461535
0.035759456 -0.0012700006 -0.00028974377
0.035616986 -0.00031750018 0.00071538473
0.034762178 -0.00079374952 -0.00028974423
0.034762178 -0.0012700007 -0.00028974377
0.031770349 -0.00079375057 -0.00028974423
0.03120048 -0.00079374964 -0.0002897433
0.028778525 -0.0012699994 -0.0002897433
0.028778525 -0.0008466671 -0.00033760676
0.025359293 0.00015874943 0.0011461535
0.025359293 -0.00031749939 0.0011461531
0.02564423 -1.200533e-10 0.0011461535
0.02564423 -2.9467628e-10 0.00071538519
0.02421955 -0.00031750009 -0.00028974423
0.024646955 -0.00079375028 -0.00028974377
0.024646955 -0.0012699997 -0.00028974377
0.033764906 -0.0012699998 -0.00028974423
0.029205929 0.00079375011 -0.0022999998
0.028778525 0.00021166677 -0.0022521368
0.028778525 0.00079375057 -0.0022999998
0.029755445 0.00081642804 -0.0022794874
0.029205929 -0.0012699999 -0.0021564108
0.033764903 -0.00079375028 -0.0002897433
0.034334771 -0.0012699994 -0.00028974377
-0.033147544 0.00010583386 0.0017205128
-0.033147544 0.00010583287 0.0011461535
-0.032767627 4.802132e-10 0.0011461531
-0.032340225 0.00127 -0.00028974377
-0.0051288456 2.7284841e-10 0.0030128206
-0.005128846 0.00015875054 0.0027256398
-0.0048439102 4.5838533e-10 0.0027256408
-0.015813941 0.0012700002 -0.00028974423
-0.015813941 0.00084666634 -0.00033760723
0.0076932684 0.00015875051 0.0027256408
-0.0099727567 1.6734703e-10 0.0022948715
-0.0099727558 2.8376235e-10 0.0017205128
0.0092604179 -0.0012700001 -0.0011512819
0.0098302886 -0.0012699997 -0.0011512823
0.0086905444 -0.00079374987 -0.00028974377
0.00071233977 -0.0012700001 -0.0017256415
0.00071233953 -0.0012699994 -0.0011512828
0.0012822109 -0.00079375057 -0.0021564104
-0.00071234 -0.00127 -0.0011512819
0.0025644223 0.00015875016 0.0017205128
0.0025644237 -0.00031749965 0.0022948706
0.0025644228 0.00015875031 0.0022948706
0.0078357374 -0.0012699999 -0.00072051352
0.010257692 -0.0012699997 -0.0017256415
0.0025644233 0.00015874975 0.0027256408
0.005128846 -0.00031750038 0.00071538473
0.0058411863 -0.00079375057 -0.00028974377
0.0047014421 -0.0012699995 -0.00028974377
0.0042740377 -0.00079375022 -0.0002897433
0.0062685893 -0.0012699997 -0.00072051259
0.0052713137 -0.0012699995 -0.0002897433
0.040460896 6.3300831e-10 -0.0031615384
0.041173235 -0.00079375057 -0.0002897433
0.038181409 -6.2573235e-10 0.0030128206
0.038181409 3.4197001e-10 0.0027256408
0.038181409 -0.00031750018 0.0027256417
0.035616986 -0.00031750064 0.0017205128
0.035616986 0.0001587501 0.0022948715
0.035616986 0.00015874938 0.0017205128
0.038295384 0.00076200027 -0.002213846
0.037754007 0.00079375051 -0.0021564108
0.037184134 0.00079375022 -0.0021564108
0.039748557 -0.00031750044 -0.0021564099
0.039748557 0.00015874972 -0.0021564108
0.039748557 -0.0007937504 -0.0021564099
0.036756728 -0.0007937497 -0.0002897433
0.036756728 -0.0012699999 -0.00028974423
0.04231298 -0.00079374982 -0.0021564104
0.041743107 -0.00079374999 -0.0021564099
0.041743107 0.00015875048 -0.0021564104
0.041173235 0.00079375063 -0.00028974377
0.044165064 -0.00031750021 -0.011776924
0.044165064 -0.00079374999 -0.011202564
0.043737657 -0.00031750009 -0.0021564099
0.042740382 -0.0012699994 -0.011776923
0.04231298 -0.0012700002 -0.012207692
0.039748557 0.0012700004 -0.0021564099
0.040318429 0.0012700004 -0.0017256406
0.040745832 0.0012700002 -0.012207692
0.040745832 -0.00031749968 -0.00273077
0.040318429 -0.00079374964 -0.0021564108
0.04231298 -0.00079374935 -0.010341026
0.042740382 -0.0012700005 -0.010341026
0.04231298 -0.0012699994 -0.010341026
0.043167785 0.00015874987 -0.0091923075
0.040460896 -6.4756023e-10 -0.007182051
0.040460896 -1.9281288e-10 -0.0077564102
0.040745832 0.00015874999 -0.0071820519
0.040460896 -0.00031749994 -0.0073256413
0.040745832 -0.00031750041 -0.007182051
0.040745832 0.00015875039 -0.0067512826
0.038181409 0.00010583364 -0.0062726499
0.037896473 5.7843863e-10 -0.0063205133
0.038181409 -0.00031749951 -0.0063205129
0.029205929 0.0012700006 -0.0017256415
0.0297758 0.0012699997 -0.0017256406
0.030488141 0.0001587506 -0.0031615393
0.033052564 -0.00031750055 -0.0043102568
0.032767627 -6.6575012e-10 -0.0047410261
0.033052564 -0.00031750047 -0.0047410252
0.039748557 -0.00031750064 -0.00028974423
0.037184134 -0.0012699998 -0.0021564104
0.037896473 -0.00031749989 -0.0063205129
0.037754007 0.0012700005 -0.010341026
0.038181409 0.0001587501 -0.0091923084
0.038181409 0.00015875048 -0.0087615391
0.038323879 -0.0012699994 -0.0017256411
0.038751282 -0.0012700006 -0.0021564104
0.039748557 -0.00127 -0.0011512828
0.037184134 -0.0012699995 -0.0002897433
0.037896473 -0.00031749983 0.00071538473
0.037896473 -5.5297278e-10 0.0011461535
0.037896473 -0.00031749962 0.0017205118
0.037184134 -0.00079375046 -0.00028974377
0.038181409 -0.00031749962 -0.0077564102
0.038181409 0.00015875048 -0.0077564102
0.038181409 0.00015874952 -0.007182051
0.040460896 -0.00031750044 -0.0077564111
0.039178684 0.00079374982 -0.010341026
0.039178684 0.00015875042 -0.010341026
0.035616986 0.00015875034 -0.0083307689
0.035616986 -0.00031750053 -0.0077564102
0.035616986 -0.00031750023 -0.0083307698
0.035616986 0.00015875057 -0.0077564106
0.035616986 0.00015875057 -0.0087615391
0.038181409 0.00010583386 -0.0043581193
0.037896473 -5.6388672e-10 -0.0043102568
0.040745832 -0.00031749977 -0.014648721
0.040745832 0.00015875066 -0.014648719
0.037184134 0.0012700005 -0.011202564
0.04231298 -0.0012700004 -0.011202564
0.04231298 -0.0012699995 -0.010771795
0.041743107 -0.00079374941 -0.012207692
0.041743107 -0.00031750006 -0.012207692
0.040460896 0.00010583305 -0.014600854
0.040460896 2.910383e-10 -0.01378718
0.040745832 0.00015874972 -0.01378718
0.040460896 -0.00031750006 -0.015366668
0.021797596 -0.0012699995 -0.010771795
0.029205929 0.0012700005 -0.0011512819
0.028351121 0.0012700001 -0.00072051305
0.027781248 0.0012700006 -0.00028974377
0.028351121 0.0012699999 -0.00028974423
0.026356569 0.0012699998 -0.0023000003
0.01778814 0.00013607088 -0.0071615386
0.017950961 -0.00031749942 -0.0071820514
0.01524407 -0.00031749989 -0.0071820519
0.017238621 -0.0012699997 -0.00028974423
0.017808493 -0.00031749977 0.00071538426
0.017238621 -0.0012699994 -0.0017256415
0.022652403 -0.0012699997 -0.00072051259
0.015813941 -0.0012700001 -0.0021564108
0.016241346 -0.0012699994 -0.0021564099
0.016241346 -0.00079375028 -0.0021564108
0.01524407 -0.0012700001 -0.00072051305
0.015813941 -0.0012699994 -0.00028974377
0.015813941 -0.00079375034 -0.0002897433
0.01666875 0.00079374964 -0.0021564108
0.01666875 0.00015874946 -0.0021564104
0.017286109 0.0001587501 -0.0022521373
0.015244071 -0.00031749936 -0.0051717949
0.01524407 0.00015875013 -0.0051717954
0.01524407 -0.00031750032 -0.0047410252
0.012679649 -0.00031750064 -0.0043102568
0.016241346 -0.00031750035 -0.0021564099
0.01524407 -0.00031750055 -0.0043102568
0.01524407 0.00015875031 -0.0043102559
0.01524407 0.00015875004 -0.0037358978
0.01524407 0.0001587497 -0.0097666662
0.015813941 0.00015874999 -0.010341026
0.012679648 0.00015874949 -0.01378718
0.018235898 0.0012699997 -0.012207692
0.0186633 -0.0012699997 -0.011202564
0.018235898 -0.0012699998 -0.011776923
0.016241346 0.00079375011 -0.012207692
0.01524407 0.00015875019 -0.013212821
0.01524407 0.00015875048 -0.01378718
0.015244071 0.00015874938 -0.01421795
0.015813941 0.00079375046 -0.012207692
0.025359293 -0.00031750029 -0.014648719
0.023079807 0.00015874972 -0.014648719
0.023079807 0.00015874935 -0.015223077
0.023079807 -0.00031750006 -0.015797436
0.023079807 0.00015874949 -0.015797436
0.022794871 0.00015875042 -0.015797436
0.023079807 0.00015875063 -0.016228205
0.020230448 0.0012699999 -0.012207692
0.020230448 -0.00031749974 -0.015797436
0.01524407 -0.0003175 -0.014217949
0.020515384 -0.00031749989 -0.017807692
0.020515384 -0.00031750053 -0.016658975
0.020515384 -0.00031750015 -0.017233334
0.020230448 -0.00031750047 -0.016658975
0.020230448 -0.00031750009 -0.017233334
0.017808493 -0.0012699999 -0.012207692
0.017238621 -0.0012700001 -0.012207692
0.017808493 -0.00031749962 -0.013212821
0.017808493 -0.0012700006 -0.011776923
0.023222275 -0.0012700005 -0.012207692
0.023792148 -0.0012700006 -0.012207692
0.023222275 -0.0012699999 -0.011776923
0.022652403 -0.00127 -0.011776924
0.023079807 0.00010583383 -0.017281197
0.023079807 -0.00031749986 -0.017233334
0.022794871 -0.00031750021 -0.017807692
0.017238621 -0.0012700002 -0.011202564
0.01666875 -0.0012700001 -0.011202564
0.019803043 -0.0012700005 -0.012207692
0.020230448 -0.0012699997 -0.012207692
0.020657852 -0.00127 -0.012207692
0.020230448 -0.00031749942 -0.01378718
0.01524407 -0.0012699995 -0.011202564
0.01524407 -0.0012699999 -0.011776922
0.016241346 -0.00031750029 -0.012207692
0.015813941 -0.00079375046 -0.012207692
0.016241346 0.0001587506 -0.010341026
0.025245318 0.00076199969 -0.012265129
0.033052564 -0.00031749939 -0.0091923084
0.033764906 -0.0012700002 -0.010341026
0.033764906 -0.00084666605 -0.010388889
0.035759456 -0.0012700005 -0.0017256411
0.034762178 -0.00127 -0.0021564104
0.035189584 -0.0012699999 -0.0017256406
0.034762178 -0.0012700002 -0.0017256406
0.034334771 -0.0012700005 -0.0017256415
0.034762178 -0.0012699999 -0.0011512823
0.034334771 -0.0012699994 -0.0011512819
0.033717416 -0.0012700006 -0.0022521368
0.029205929 -0.0012700005 -0.00072051352
0.0297758 -0.0012700004 -0.0011512823
0.02421955 -0.0012700005 -0.011202564
0.023792148 -0.0012700004 -0.010771796
0.024646955 -0.0012700002 -0.010197436
0.024646955 -0.0012700004 -0.010771796
0.023222275 -0.0012700001 -0.010771794
0.023222275 -0.00095250027 -0.010197436
0.023792148 -0.00095250027 -0.010197436
0.023079807 -0.00031749954 -0.0091923084
0.021227723 -0.0012699998 -0.0011512828
0.021797596 -0.0012700005 -0.0011512823
0.022225 -0.0012699998 -0.0011512828
0.021227723 -0.0012699999 -0.00028974423
0.020657852 -0.0012699999 -0.0017256406
0.028778525 -0.0012700006 -0.011776923
0.029205929 -0.0012699995 -0.012207692
0.028778525 -0.0012699999 -0.012207692
0.0297758 -0.0012700005 -0.012207692
0.030345673 -0.0012700006 -0.011776922
0.030345673 -0.0012699999 -0.012207692
0.0297758 -0.0012699999 -0.011776922
0.030773075 -0.0012700006 -0.012207692
0.030488141 0.00015875025 -0.0077564111
0.030488141 -0.00031749948 -0.0077564111
0.028303631 -0.0012699997 -0.0022521373
0.027923716 -0.00031750029 -0.0037358971
0.030488141 -0.00031749965 -0.0057461536
0.030488141 0.0001587494 -0.0057461546
0.030773075 -6.184564e-10 -0.0057461546
0.032340221 0.0012700005 -0.010341026
0.033195034 0.0012700006 -0.010771794
0.033764906 0.0012700006 -0.010341026
0.034762178 0.0012700001 -0.010341026
0.034334771 0.0012700005 -0.010341026
0.032340221 0.0012700006 -0.0017256411
0.032767627 0.0012700002 -0.0021564104
0.03120048 0.0012700007 -0.0021564108
0.032292735 0.0012700002 -0.0022521364
0.031770349 0.0012699998 -0.0021564099
0.031770349 0.0012699994 -0.0017256406
0.010685095 -0.0012699995 -0.010484615
0.010257692 -0.0012699995 -0.010484615
0.012679648 -0.00031750035 -0.0083307698
0.012679647 -0.00031749968 -0.0077564097
0.012679649 0.00015875057 -0.0077564106
0.012679648 0.00015875013 -0.0083307698
0.016241346 -0.0012699998 -0.010197436
0.010257692 -0.00031750029 -0.0097666662
0.011254967 -0.0003174998 -0.010341027
0.012679647 -0.00031749997 -0.0091923084
0.011824839 -0.00031749951 -0.010341026
0.013819392 0.0012700002 -0.010484615
0.012252242 -0.0012699994 -0.012207692
0.012679648 -0.00127 -0.012207692
0.010685096 -0.0012699994 -0.011202564
0.010685096 -0.0012699998 -0.011776924
0.010257692 -0.00031749959 -0.016658975
0.010257692 0.0001587501 -0.016658977
0.010257692 0.00015875019 -0.016228206
0.0099727558 0.00015874975 -0.016228205
0.0082631409 0.0012700004 -0.012207692
0.0082631418 0.0012699994 -0.011776922
0.0086905453 0.00127 -0.011776923
0.0082631409 0.0007937504 -0.012207692
0.012679648 0.00015874964 -0.016658975
0.010257692 0.00015874964 -0.015797436
0.014674198 0.0012700006 -0.012207692
0.010257692 0.00015875048 -0.017233334
0.010257691 -0.00031750038 -0.017233336
0.0076932693 0.00015875007 -0.016228206
0.0074083335 0.00010583319 -0.01718547
0.0074083325 -0.00031750038 -0.016658975
0.0098302877 -0.0012699993 -0.011776924
-0.0066959946 0.00015874943 -0.010341026
-0.0062685893 0.00127 -0.010484615
-0.0062685893 0.00015874999 -0.010341027
-0.0074083321 3.8926373e-10 -0.0091923084
-0.0032767626 0.0012700005 -0.011058975
-0.0038466346 0.0012700005 -0.010771796
-0.0038466342 0.0012700001 -0.010484615
-0.0042740386 0.0012699995 -0.010771794
-0.0042740377 0.0012699995 -0.010484615
-0.0082631409 0.0012700002 -0.011776922
-0.0086905444 0.0012699994 -0.011346154
-0.009260417 0.0012700001 -0.012207692
-0.009260417 0.00079374935 -0.012207692
-0.009260416 0.0012699994 -0.011346154
-0.0058411863 0.00015875016 -0.010341026
-0.0058411853 0.0012699997 -0.010484615
-0.005128846 0.00015875025 -0.0091923084
-0.0042740381 0.00015874958 -0.010341027
-0.0048439107 0.00010583361 -0.0098145306
-0.0052713142 0.00127 -0.011776924
-0.005128846 0.0012699997 -0.011058975
0.020230448 0.0012699999 -0.011202564
0.020515384 0.00015874952 -0.0097666662
-0.014246793 0.0012700007 -0.0021564104
-0.012679647 0.0012700006 -0.0011512819
-0.012679648 0.0012700004 -0.0021564099
-0.013249517 0.0012700002 -0.0021564108
-0.010685096 0.0012700002 -0.0021564108
-0.009260416 0.0012700004 -0.0017256415
-0.010257693 0.0012700006 -0.0011512819
-0.0098302877 0.0012700001 -0.0023000003
-0.0098302877 0.0012699997 -0.0017256406
-0.010257692 0.0012699998 -0.0022999998
-0.014674198 0.0012699994 -0.0011512823
-0.010257692 -0.00031750015 -0.0037358976
-0.010257692 -0.00031749933 -0.0031615382
-0.012252243 0.0012700001 -0.0023000007
-0.011254968 0.00127 -0.0021564108
-0.012679648 0.00079374999 -0.0023000007
-0.011254969 0.0012700002 -0.0011512819
-0.012699999 0.00013607086 -0.0037153848
0.0025644233 -0.00031750015 -0.0037358976
0.0027068907 -0.00127 -0.0021564108
0.0032767621 -0.0012700002 -0.0021564099
0.0086905444 -0.00079374982 -0.0021564104
0.0086905453 -0.0012699994 -0.0021564104
0.007408333 -0.00031750047 -0.0063205133
0.0076932693 -0.00031750038 -0.0057461546
0.0074083325 -0.00031749954 -0.0057461541
0.015813943 0.0012699995 -0.011202564
0.018235898 0.0012700001 -0.011202564
0.019233173 0.0012700004 -0.011776922
0.0032767626 -0.00079374958 -0.00028974377
0.0038466342 -0.00079375057 -0.00028974377
0.0012822112 -0.00031750053 -0.0021564104
0.001282212 0.00015875004 -0.0021564099
0.011254968 -0.00079374982 -0.00028974377
0.011254968 0.00084666692 -0.00033760676
0.012679648 0.0012699998 -0.00072051259
0.013249518 0.00127 -0.00072051305
0.0066959928 -0.00079375017 -0.00028974423
0.013249519 -0.0012699994 -0.0017256415
0.012679648 -0.0012699993 -0.0017256411
0.012632158 -0.0012699995 -0.0022521364
0.013819391 -0.00031749933 -0.0021564099
0.01320203 0.00015874955 -0.0022521364
0.013819391 0.0001587501 -0.0021564104
0.0098302877 0.0012699999 -0.00072051259
0.0098302877 0.0012699997 -0.0011512828
0.0092604179 -0.00079375005 -0.0021564099
0.010257691 0.0001587501 0.00071538426
0.0099727549 0.00015874993 0.00071538473
0.01381939 0.00127 -0.0011512819
0.013249518 0.0012699994 -0.0011512823
0.0098302886 0.0012700006 -0.0017256415
0.011254967 0.0012700006 -0.0021564108
0.010257692 -0.00031749939 -0.0051717949
0.010257691 -0.00031749945 -0.005746155
0.0099727558 -0.00031749948 -0.0056025642
0.016241346 -0.00079374982 -0.00028974423
0.015244071 -0.0012700005 -0.0017256406
0.014674199 -0.0012699999 -0.0017256406
0.014246794 -0.0012700002 -0.0011512819
0.014674199 -0.0012699999 -0.0011512823
0.020230448 0.00015874981 -0.017233334
0.022794871 0.00015875054 -0.017807694
0.023079807 0.00010583275 -0.016611112
0.023079807 -0.00031750023 -0.016658977
0.020230448 0.00015874975 -0.016658975
0.020515384 0.00015875022 -0.016658975
0.01524407 0.00015875051 -0.015797436
0.021227723 0.0012699999 -0.012207692
0.020515384 -0.00031749977 -0.013212821
0.020515384 -0.00031750055 -0.01378718
0.020230448 -0.00031749991 -0.014217949
0.021797596 -0.0007937504 -0.012207692
0.021797596 -0.0012700004 -0.012207692
0.011254968 -0.00079375046 -0.012207692
0.011824839 -0.00127 -0.012207692
0.011254968 -0.0012700001 -0.011776922
0.0082631409 -0.0012700002 -0.012207692
0.0058411849 -0.0012700005 -0.011776923
0.0047014416 -0.0012700004 -0.010771794
0.0072658653 -0.00127 -0.011202564
0.0078357365 -0.0012700002 -0.011776924
0.0072658653 -0.0012699994 -0.011776922
0.0074083325 -0.00031749942 -0.013212821
0.0076932688 -0.00031750061 -0.01378718
0.0076932693 -0.00031750047 -0.017807694
0.0058411849 -0.0012700002 -0.010771796
0.009260416 -0.0012699998 -0.011202564
0.0078357365 -0.0012699999 -0.010484615
0.0086905444 -0.0012699998 -0.010484615
0.009260416 -0.0012699998 -0.010484615
0.0047014426 -0.0012699999 -0.00072051305
0.0052713137 -0.0012700004 -0.0011512828
0.0051288456 -0.00031750003 -0.0051717949
0.005128846 -0.00031750064 -0.0047410261
0.0048439102 0.00015874946 -0.0051717958
0.0052713137 -0.0012699998 -0.0021564104
0.0058411849 -0.0012699997 -0.0017256411
0.0058411849 -0.0012699994 -0.0021564108
0.0074083325 -0.00031749939 -0.0077564111
0.0076932693 -0.00031750018 -0.0083307708
0.0076932693 -0.00031749948 -0.0077564102
0.0051288456 -0.00031749989 -0.0057461541
0.0025644233 0.00015874938 -0.0083307708
0.0022794874 0.00015875063 -0.0083307698
0.0025644235 0.00015875022 -0.0077564102
0.0042740377 -0.0012700004 -0.010771796
0.0042740377 -0.00031749997 -0.010341026
0.013819391 -0.00031750041 -0.012207692
0.01381939 -0.0007937497 -0.012207692
0.0047014416 0.0012699995 -0.011776922
0.0048439107 0.00015875051 -0.015797436
0.005128846 0.00015874946 -0.015797436
0.005128846 0.0001587494 -0.014217949
0.005128846 -0.00031749989 -0.01421795
0.0047014416 0.0012700005 -0.012207692
0.0042740381 0.0012699998 -0.012207692
0.0042740386 0.0012699999 -0.011776924
0.0038466342 0.0012700002 -0.011776922
0.0052238242 0.00127 -0.011250428
0.0058411849 0.0012700005 -0.011346154
0.007408333 -0.00031750006 -0.015797436
0.013819392 0.00015874975 -0.00028974423
0.0186633 -0.0012700005 -0.0017256406
0.0186633 -0.0012700001 -0.0021564104
0.0186633 -0.0012699994 -0.0011512819
0.020230448 0.00015874946 -0.0037358978
0.016241346 0.0012700004 -0.0021564108
0.01524407 0.00015875031 -0.0031615382
0.014246793 0.00015874996 -0.0021564099
0.01778 0.00076200004 -0.0022138464
0.017808493 -0.00031749997 -0.0063205129
0.01524407 -0.00031749954 -0.0057461536
0.01524407 0.0001587497 -0.0047410256
0.020515384 0.00015874987 -0.0043102568
0.01666875 -0.0007937504 -0.0021564099
0.019233173 -0.00079374999 -0.0021564104
0.019233173 -0.00031749994 -0.0021564099
0.0186633 -0.00031750023 -0.0021564104
0.014246795 0.0012700001 -0.0002897433
0.014674198 0.0012700004 -0.0002897433
0.01666875 0.00015875054 -0.0002897433
0.016241346 0.00015874949 -0.00028974423
0.017808493 0.00015874958 0.00071538473
0.016668752 0.00084666617 -0.00033760676
0.020230448 -0.00031750041 0.0022948715
0.020657852 -0.0012699994 -0.00028974377
0.019803043 -0.0012700001 -0.0011512823
0.021227721 -0.00031750009 -0.0002897433
0.021227725 0.00015874996 -0.0002897433
0.030488141 -0.00031749989 0.0011461531
0.028778525 -0.0012700001 -0.00072051259
0.026783973 -0.0012699997 -0.00072051259
0.025786698 -0.0012700002 -0.0011512828
0.025359293 -0.00031750058 0.0022948715
0.010257692 0.00015875045 0.0027256408
0.0098302877 -0.0012699998 -0.00072051305
0.019803043 0.0012699993 -0.0011512828
0.019233173 0.0012699995 -0.0011512823
0.020230448 0.0012699999 -0.0011512823
0.019803043 0.0012699994 -0.00072051352
0.022225 -0.0012699997 -0.0021564099
0.021797596 -0.00127 -0.0021564104
0.022225 -0.00079374964 -0.0021564104
0.022794871 -0.00031749959 -0.0031615384
0.023222275 0.0012699995 -0.010197436
0.023079807 0.00015875048 -0.0091923084
0.020230448 0.00015875022 0.0011461535
0.023079807 -0.00031749933 0.00071538473
0.023792148 -0.00079374935 -0.00028974423
0.023079807 -0.00031749986 0.0022948706
0.022794871 -0.00031750006 0.0011461535
0.021227723 -0.0012699997 -0.00072051259
0.017808493 0.00015874958 0.0017205137
0.017808493 0.00015875034 0.0022948724
0.020515384 -0.0003175 0.0017205128
0.020230448 -0.00031750038 0.0011461535
0.021227723 0.0012699994 -0.0011512823
0.022225 0.0012700005 -0.00072051305
0.022225 0.0012699999 -0.0021564104
0.022652403 0.0012699997 -0.0021564099
0.022632049 0.00077107182 -0.0022794874
0.023222275 0.0012700006 -0.0021564099
0.020230448 0.00015874961 -0.0063205138
0.020230448 0.00015874938 -0.0067512817
0.020515384 0.00015875019 -0.0067512826
0.025216825 0.0012699997 -0.0021564104
0.024646953 0.0012700002 -0.0017256406
0.024646953 0.0012700005 -0.0022999998
0.025216825 0.0012700004 -0.0017256415
0.027781248 0.0012700005 -0.0021564104
0.0076932693 -0.00031749959 0.00071538519
0.0076932684 0.0001587499 0.00071538473
0.0074083325 0.00015875013 0.001146154
0.007408333 0.0001587494 0.0017205128
0.0072658658 0.0012699993 -0.00028974377
0.0022794877 0.00015875007 -0.0063205138
0.0022794867 0.00015874935 -0.0057461541
0.002564423 -0.00031750053 -0.0063205133
0.00071234012 0.0012699999 -0.0017256411
0.010257693 0.0012699998 -0.00072051352
0.0027068907 0.0012700006 -0.0017256411
0.0027068916 0.0012700007 -0.00072051305
0.0027068909 0.0012699999 -0.0021564099
0.0018520833 0.0012700007 -0.0017256406
0.0086905444 0.0012700001 -0.00028974377
0.0082631409 0.0012700007 -0.00028974377
0.0038466337 -0.00031749957 -0.00028974423
0.0025644235 -0.00031750003 0.00071538473
0.0025644237 0.00015875051 0.00071538473
