# .PCD v0.7 - Point Cloud Data file format
VERSION 0.7
FIELDS x y z
SIZE 4 4 4
TYPE F F F
COUNT 1 1 1
WIDTH 1194
HEIGHT 1
VIEWPOINT 0 0 0 1 0 0 0
POINTS 1194
DATA ascii
0.016668757 -0.00012699557 -0.026265148
0.01643062 -0.0001270035 -0.02722273
0.016351255 -8.4673127e-05 -0.026743941
0.016351251 -8.4670974e-05 -0.02578637
0.016668752 -0.00012700079 -0.025786364
0.016430628 1.3023964e-09 0.0030606017
0.016430626 -0.00012700541 0.0027015191
0.011668128 -0.00012699938 0.0022227243
-0.0012699983 0.0002540033 0.0026616203
0.0082153166 -0.00050800439 -0.019322719
0.008215311 -0.0012700034 -0.020400003
0.008691567 -0.0012700004 -0.020400003
0.011668125 0.00025400482 0.001743935
0.019152056 -0.00010886187 0.0026844209
0.019050002 -5.1804818e-09 0.0030606007
0.018811872 -0.00012699347 0.0025818236
0.019169062 -0.00012699632 0.0022227215
0.018811872 -8.4666157e-05 0.0022626286
0.016668746 0.00025400516 -0.0078318147
0.016668754 -0.00012700257 -0.0073530343
0.016668754 -0.0001270061 -0.0078318231
0.016382992 -0.00010160524 -0.0073769717
0.019169064 -0.001143005 -0.020280303
0.018692818 -0.0011853324 -0.019841414
0.019169057 -0.00012700055 -0.0073530246
0.018811874 3.5215635e-09 -0.0073530306
0.019169057 -0.00012700072 -0.0078318119
0.016668752 -0.00012700151 -0.013816672
0.016668746 -0.0001269956 -0.014295452
0.016311565 -0.00012699566 -0.013816662
0.01632857 -0.00010885847 -0.01431255
0.014049381 -0.00012699397 -0.0083106048
0.014049372 0.00025400563 -0.0083105993
0.014049378 0.00025400176 -0.0087893978
0.014049377 -0.00012700539 -0.0087893903
0.017303752 -0.0011429976 -0.0022858595
0.016668752 -0.00012699736 -0.0032833386
0.017740319 -0.0011430063 -0.0023257528
0.014049375 -0.00012700201 -0.010225759
0.014049375 -0.00012700279 -0.009746966
0.014049376 0.00025400508 -0.0097469697
0.01632857 -0.00010885583 -0.011166231
0.01632857 -0.00010885485 -0.010721643
0.016668748 -0.0001270052 -0.011183333
0.016311554 -0.00012700571 -0.010225762
0.021431252 0.00025400263 -0.011183334
0.021669375 0.00025399844 -0.011662127
0.021669371 0.00025399643 -0.011183328
0.024169691 0.00025399495 -0.012859087
0.024169682 -0.00012699387 -0.012859091
0.024169682 0.00025400397 -0.012260602
0.024169683 -0.00012700268 -0.012260607
0.0040481314 0.00025399693 -0.010704542
0.0040481305 0.00025400205 -0.010225753
0.0036909392 0.00025400185 -0.010704544
-0.019050002 0.00025399573 -0.013337876
-0.018811872 -8.4668849e-05 -0.013297984
-0.019050002 0.00025400092 -0.012859086
-0.016668752 0.00025400578 -0.013816667
-0.01666875 -0.00012699686 -0.013816664
-0.016668754 -0.00012700255 -0.014295455
-0.016430624 0.0002539937 -0.01381666
-0.016430624 0.00025400403 -0.014295452
-0.030194255 -0.00060959981 -0.019801509
-0.030220231 -0.00011546076 -0.019333605
-0.030122809 -0.0010160039 -0.019322725
-0.0088106263 -0.00012700623 0.00270152
-0.0040481226 -0.00012699507 0.0022227252
-0.0037306282 -0.0001269952 0.0026616147
-0.0040481249 -8.4672574e-05 0.0026616147
-0.018216565 0.00063499802 -0.0023257546
-0.018709825 0.0011611384 -0.0023086639
-0.018192749 0.0011176058 -0.0022539459
-0.016430618 0.00025400083 -0.011662121
-0.016668756 0.00025400112 -0.012260605
-0.016668748 0.00025400467 -0.011662122
-0.0072628055 0.0012700013 -0.019681821
-0.0072628087 0.0011429952 -0.020759095
-0.0046434412 0.001270002 -0.019681815
-0.0046434356 0.0012699992 -0.020399999
-0.0041671828 0.0012699944 -0.020399991
-0.0012699992 0.0012699977 -0.019362632
-0.0022621877 0.0012699985 -0.01944242
-0.016430622 -0.00012700011 -0.013816664
-0.014049374 0.00025399707 -0.014295459
-0.01381125 0.00025399518 -0.014175756
-0.01404937 0.00025399792 -0.013816669
-0.016430629 -0.00012699515 -0.014295459
-0.014049372 0.00025400645 -0.016689388
-0.013811243 0.00025400287 -0.017048484
-0.013811252 0.00025399908 -0.016330298
-0.016668744 0.00025399629 -0.012859093
0.029170318 0.00025399923 -0.0032833302
0.029646555 0.00059266668 -0.0022858568
0.030122813 0.001015996 -0.0018469645
0.029646561 0.0010159985 -0.0018469691
0.028694058 0.0011430029 -0.00065000169
0.028193995 0.0011683948 -0.00024303608
0.02917031 0.0010160045 -0.020759095
0.02917031 0.0010159987 -0.020280307
0.029646557 0.0010159955 -0.020280298
0.029170308 0.00025399952 -0.01285909
0.02917031 -0.00012699889 -0.012260607
0.02917031 0.00025400336 -0.012260611
0.02667 0.00025399821 -0.012859088
0.026669996 0.00025400176 -0.013337879
0.02674938 -8.4664338e-05 -0.013337873
0.029170316 0.00025400636 -0.011183331
0.029170312 -0.00012700303 -0.011183329
0.029170308 -0.00012699662 -0.011662122
0.025836557 0.00063500076 -0.021237876
0.025836557 0.001142998 -0.021237884
0.025241256 0.0011430025 -0.021237882
0.025836555 0.001143006 -0.00064999424
0.026312811 0.0011429945 -0.00017121434
0.025836557 0.0011429965 -0.00017121527
0.024169693 0.00025400668 -0.011662117
0.026431875 0.00025400351 -0.013218186
0.030122811 0.00063499488 -0.00029090606
0.030241873 -0.00012700436 -0.00065000262
-0.026789067 0.00025400583 0.0012651552
-0.026749374 -8.4660045e-05 0.00078636687
-0.027741566 0.00025399422 -0.00017121527
-0.02674938 0.00025399483 0.00074646156
-0.026789056 0.0011429964 -0.00017121341
-0.027265305 0.0011429947 -0.0001712162
-0.029170314 -0.00012700359 0.00078636035
-0.029170312 -0.00012700187 0.0022227336
-0.02928937 0.00025399899 0.0025818236
-0.029170314 -8.4670886e-05 0.0026616119
-0.026789062 0.00025400418 0.0017439397
-0.026431881 0.00025400476 0.0012651524
-0.028694069 0.0011430017 -0.0018469663
-0.028694062 0.0011429997 -0.0022060554
-0.028217819 0.00025399856 -0.00017120689
-0.028217806 0.00063499605 -0.00029090699
-0.029130625 0.0010160018 -0.00021111686
-0.026670005 0.00025400321 -0.010704548
-0.026749372 -8.4667932e-05 -0.010704548
-0.026749372 -8.4661544e-05 -0.010225754
-0.026670003 0.00025399786 -0.010225759
0.011668121 0.00025400202 0.0025818115
0.006667499 0.00025399445 0.0017439369
0.0066675036 -5.8062142e-09 0.0012651505
0.0066675036 4.2091415e-09 0.0022227224
0.00095249433 2.3283064e-09 0.0025818171
0.0013096861 -0.0001270052 0.0022227252
-0.028241629 0.0011684048 -0.019394547
-0.028217817 0.0012700042 -0.019801512
-0.026312815 0.0012699959 -0.020160612
0.028217807 0.0002540054 -0.019322731
0.027741561 0.00063500227 -0.019322729
0.028217809 0.00063500181 -0.019322727
0.028217806 0.0011429938 -0.019322723
-0.019169062 -0.00012700066 0.0022227205
-0.019169057 0.00025399699 0.0022227289
-0.019169066 0.00025399707 0.0017439397
-0.018811872 -0.00012699557 0.0022227233
-0.021669373 -0.00012699723 0.0022227271
-0.016430629 0.00025399527 0.0027015153
-0.016430618 1.0477379e-09 0.0030606035
-0.016668756 0.00025399704 0.0025818218
-0.024169685 0.00025399687 0.0022227271
-0.024169682 0.00025400176 0.001743936
-0.02416968 -0.00012700255 0.0017439434
-0.016668746 0.00025399469 -0.027222723
-0.01643062 0.00025399821 -0.02722273
-0.016668744 5.1586539e-09 -0.027581818
-0.019050002 0.00025400586 -0.027581822
-0.018811874 -8.4669591e-05 -0.027182825
-0.01905 -0.00012699368 -0.027581818
-0.013811249 5.493348e-09 -0.027581818
-0.014049379 0.00025400275 -0.027222734
-0.01381125 0.00025400199 -0.02722273
-0.016430629 0.00025400377 -0.026265148
-0.016430618 0.00025399536 -0.025786364
-0.016430629 -0.00012700082 -0.026265154
-0.016668752 0.00025400153 -0.026743945
-0.016430626 0.00025399507 -0.026743934
-0.0032146871 -0.0011430028 -0.021237882
-0.0036909329 -0.0011430065 -0.020759087
-0.0032146918 -0.0011430043 -0.020759091
-0.0036909424 -0.0011429995 -0.021237876
-0.0036909375 -0.0012700052 -0.020280305
-0.0033337548 -0.000635 -0.021596972
-0.0027384355 -0.0011429943 -0.021237884
-0.0027384406 -0.00063500297 -0.021237873
-0.0036909403 0.00025399413 -0.026743934
-0.0036909431 -0.00012699813 -0.027222734
-0.0036909408 -0.00012700331 -0.026743937
-0.018811878 -0.00012700104 -0.026743939
-0.016668748 -0.00012699566 -0.02722273
-0.01643062 -0.00012699893 -0.027581822
-0.0058340593 -0.00050799653 -0.019322731
-0.0017859342 -0.0012700056 -0.020280302
-0.00083343213 -0.0012700063 -0.019442426
-0.0027384346 -0.0012700027 -0.01944243
-0.001785941 -0.0012700028 -0.01944242
0.0013096896 -0.0011430023 -0.0022060573
0.0009525019 -4.7184585e-09 -0.0092681879
0.00095249515 3.1541276e-09 -0.0087893913
0.0013096877 -0.00012700564 -0.0087893959
0.0013096842 -0.00012699641 -0.009268187
-0.00035719099 -0.001143002 -0.0022858577
-0.00095249998 -0.00012700468 -0.0047197035
-0.0013096873 -0.00012699424 -0.0042409161
-0.00095249858 -0.00012700458 -0.004240904
0.0009524973 -3.0195224e-10 -0.024828788
-0.0013096817 -0.00012699488 -0.027222726
-0.0013096887 0.00025399408 -0.026743943
-0.0013096859 0.00025400554 -0.026265148
-0.0013096924 -0.00012699919 -0.025786359
-0.0013096824 0.00025400039 -0.025786364
-0.00095250184 -0.00012699438 -0.025786357
-0.0027384371 -0.0012700028 -0.020280305
0.0013096861 -0.0012699944 -0.020878781
0.00083343824 -0.0011429938 -0.020878788
0.0013096896 -0.001270002 -0.020160608
0.014644686 -0.0011430015 -0.021237876
-0.00083343184 -0.0012700041 -0.019801514
0.0017859326 -0.0012700057 -0.020160612
0.0017859428 -0.0012699999 -0.01980151
0.0040481309 -0.00012700396 -0.026265152
0.0036909336 -0.00012700651 -0.026743937
0.0041671921 -0.0012699957 -0.019801514
0.0032146855 -0.0011429994 -0.021237873
0.0036909329 -0.0011430061 -0.021237882
0.002738442 -0.0011429966 -0.021237884
0.0022621837 -0.0011429985 -0.021237876
0.0022621849 -0.00063499773 -0.021237884
0.0040481258 0.00025400598 -0.024349995
0.0036909308 0.00025399376 -0.024349991
-0.0011906268 -0.00050800102 -0.022195462
-0.0011906307 -0.00050799729 -0.02267424
-0.0009524966 -0.00012700557 -0.023153028
-0.0013096933 0.00025400208 -0.022674244
-0.0013096842 0.00025399472 -0.023153029
-0.0009525037 -0.00012700405 -0.022674238
0.00095250108 0.00025399466 -0.023153029
0.00095250574 0.00025399734 -0.022674242
0.00095250428 1.6771082e-09 -0.023153029
7.9371996e-05 -8.4665633e-05 -0.021596972
0.00095250277 4.2164174e-09 -0.025786368
0.0013096861 -0.00012700514 -0.025786366
-0.0040481212 0.00025400319 -0.024828793
-0.0017859438 0.0012699959 -0.020280305
-0.0036909392 0.0011430067 -0.020878784
-0.0032146869 0.0011430047 -0.02123788
-0.0032146818 0.001142996 -0.020878796
-0.0041671898 0.0011430017 -0.021237878
-0.0041671921 0.001143 -0.020878784
-0.011310936 0.0002539976 -0.026743934
-0.011668129 0.00025399809 -0.026743934
-0.011430005 0.00025400167 -0.027222723
-0.0052387458 0.00063500111 -0.021237873
-0.0064293747 0.00050799496 -0.022674248
-0.006310313 0.0002540038 -0.022674238
-0.0046434421 0.00063500507 -0.02123788
-0.0046434347 0.0011429942 -0.02123788
-0.0046434361 0.0011853395 -0.020798989
0.0077390647 -0.0012699959 -0.020400003
0.0088106273 -0.00050800538 -0.018963637
0.0066674999 0.00025399996 -0.015253026
0.0066674971 4.0781742e-09 -0.015731823
0.0066674938 0.00025399978 -0.015731813
0.00023812096 -0.0011429983 -0.020878796
0.00083343702 -0.0012700037 -0.019801516
0.0013096884 -0.0012699959 -0.019203026
0.00083343801 -0.0012699994 -0.019203026
0.02143125 0.00025400415 -0.011662127
0.021431243 -0.00012699803 -0.011183331
0.021431249 -0.00012700267 -0.011662115
0.025241256 0.0011430033 -0.020759095
0.0013096929 -0.00012700386 -0.017646965
0.0013096861 -0.00012699563 -0.018245453
0.0013096882 0.00025400045 -0.027222723
0.0013096917 -0.0001270052 -0.02722273
0.0013096887 0.00025399477 -0.025786363
0.028217815 0.001143002 -0.019801518
0.027741557 0.0011430017 -0.020759096
0.027741557 0.0011430009 -0.020280298
0.0040481281 0.00025400659 -0.02722273
-0.01821656 0.001015997 -0.019322731
-0.017740315 0.0011430032 -0.019921217
-0.017740319 0.0010159957 -0.019322725
-0.018216556 0.0011429947 -0.01992121
0.02024062 -0.00063500594 -0.021237886
0.02021898 -0.0011314483 -0.021226995
0.016328566 -0.00010886362 -0.024811689
0.016668756 -0.0001269982 -0.024350002
0.016668748 -0.00012700577 -0.024828784
0.016430622 0.00025399678 -0.02722273
0.013811246 -4.3182808e-09 -0.027581815
0.013811246 0.00025399777 -0.027222723
0.0072628101 -0.0011430065 -0.02123788
0.0072628153 -0.0012700011 -0.020399999
0.0067865662 -0.00127 -0.020399995
0.0064293761 -0.00050799811 -0.018843945
0.0072628162 -0.00050800294 -0.019322727
0.0090487441 2.8849172e-09 -0.027581818
0.0088106273 0.00025400097 -0.027581815
0.0090487543 0.00025399908 -0.02722273
0.0088106273 -0.00012700439 -0.027581818
0.0090487506 -0.00012699368 -0.027222734
0.011327947 -0.00010885732 -0.027205631
0.011430005 -4.2455213e-09 -0.027581822
0.011430001 0.00025400022 -0.027581818
0.0058340672 -0.0011429964 -0.021237878
0.0052387486 -0.0011429979 -0.021237884
0.014644694 -0.0012699938 -0.019921206
0.013692183 -0.0011430054 -0.02123788
0.014168439 -0.001143005 -0.02123788
0.013215939 -0.001142999 -0.020759095
0.013215941 -0.001142999 -0.021237876
0.014644693 -0.0011430058 -0.020759083
0.021431247 0.00025400048 -0.027222734
0.02166938 0.00025399943 -0.02722273
0.021669371 0.00025400051 -0.026743945
0.021669377 9.0221874e-10 -0.027581818
0.021431243 -0.00012700153 -0.027222726
0.029170318 -0.00012699627 0.0022227261
0.013811244 -8.4672822e-05 -0.0061161579
0.014049373 -0.00012700468 -0.0056772782
0.014049378 -0.00012700625 -0.0061560646
-0.011310943 -0.00012700641 -0.010225761
-0.011668125 -0.00012699442 -0.010225763
-0.011668131 -0.00012699887 -0.010704539
-0.018216563 -0.0011430063 -0.00017120689
-0.01881187 -8.4671381e-05 0.00082626194
-0.018216563 -0.00067733362 -0.00021111593
0.010834686 -0.001143005 -0.00017120875
0.011310935 -0.0011430044 -0.00017120782
-0.01966913 -0.00066039659 -0.0022539441
-0.019628299 -0.0011611489 -0.0023086537
-0.02024062 -0.0011429947 -0.0023257537
-0.019645317 -0.0011430007 -0.0012484817
-0.018692818 -0.0011853344 -0.0022858577
-0.019645317 -0.0011429939 -0.0018469673
-0.019049995 0.00025400397 -0.0087893996
-0.01881187 -6.4064807e-09 -0.0083106104
-0.019129373 0.000254001 -0.0083505064
-0.018811869 -8.4660089e-05 -0.0087494962
0.026431872 0.00025399931 -0.023871213
-0.02869406 -0.00063499837 -0.02123788
-0.030122805 -0.0010160027 -0.019801516
-0.030122807 -0.0010160025 -0.020759093
-0.030241873 -0.00063500041 -0.0012484891
-0.029527495 -0.00025399405 -0.018963631
-0.030194249 0.00025400659 -0.019346667
-0.030241879 0.0005080041 -0.019442424
-0.030241871 0.00025400252 -0.019801512
-0.030122813 0.0010159991 -0.01944242
0.029527495 5.6388672e-09 -0.018963629
0.029646566 -0.00063500297 -0.019322732
0.030241877 0.00025399597 -0.020280302
0.029170316 0.00025399876 -0.026743937
0.029170316 -0.00012699403 -0.026743945
0.026772056 -0.00010886126 -0.025324676
0.026670005 0.00025399844 -0.024828784
0.026749367 -8.4663086e-05 -0.02482878
0.026431879 -0.00012699609 -0.024828792
0.026772048 -0.00010885934 -0.02576926
0.02667 0.00025400348 -0.025786366
0.030220224 0.00062345917 -0.019790638
0.02917031 -0.00012699622 -0.0032833293
0.030122807 -0.000635006 -0.0022060592
0.029646557 -0.00063500466 -0.0022060545
-0.0052387528 -0.001142994 -0.020759095
-0.026312809 0.001185331 -0.019761622
-0.025836561 0.0012699973 -0.02016061
-0.025836566 0.0011853393 -0.019801509
-0.025836566 0.0011006647 -0.019362625
-0.026789056 0.00025399626 -0.026743937
-0.026749365 -8.4668587e-05 -0.027222726
-0.026749371 0.0002540019 -0.027182829
0.026789065 -0.001142999 -0.019442432
0.027765375 -0.001117599 -0.019394545
0.028217813 -0.00063499971 -0.019322723
0.028217813 -0.001100669 -0.01936263
0.027741568 -0.00012699775 -0.021237873
0.026789064 -0.00012699766 -0.022195457
0.028217806 -0.00012700407 -0.021237876
0.027741557 -0.00059266394 -0.021197977
0.02726531 -0.00063500117 -0.021237878
0.027741563 -0.0011429962 -0.019801516
0.028217807 -0.001143004 -0.019801516
0.028694063 -0.0011429954 -0.019442424
0.027741559 -0.001143002 -0.020280305
-0.00087312504 0.0012699951 -0.020240407
-0.0052387523 0.001269996 -0.019442419
-0.0013096856 -0.0011429974 -0.0018469756
-0.0003571813 -0.0011430026 -0.0012484873
-0.00035719151 -0.0011430006 -0.00065000635
0.00083343324 -0.0011429967 -0.0012484863
0.0013096821 -0.001142999 -0.0012484826
0.00083343859 -0.0011429936 -0.00065000262
0.0022621849 -0.0011430016 -0.0018469691
0.0027384383 -0.0011429961 -0.0023257602
0.0017859326 -0.0011430038 -0.0012484808
0.0017859333 -0.0011430013 -0.0018469756
0.025836563 -0.0011429957 -0.020759087
0.025241254 -0.001142996 -0.020759093
0.025836563 -0.001143001 -0.020280302
0.025836565 -0.0011429948 -0.021118186
0.026312808 -0.0011430066 -0.021118185
0.024169691 -0.000126995 -0.026743937
0.02726531 -0.0011430001 -0.021237878
0.027265305 -0.0011429953 -0.020759098
0.026670005 0.00025400097 -0.022674246
0.026806071 0.0011248604 -0.021220777
0.029170318 -0.00012699922 -0.023153026
0.029170316 -0.00012699708 -0.022195451
0.028217819 -0.0011429995 -0.00065000448
0.00095250615 0.00025400502 -0.026743939
0.00095250254 0.00025400388 -0.024350002
0.0013096866 0.00025400176 -0.02375152
0.0013096852 0.00025399757 -0.024350002
0.00095250015 0.00025399771 -0.023751512
0.0013096868 0.00025399617 -0.024828784
0.00095250609 -5.1913958e-09 -0.024350002
-0.0013096849 0.00025399899 -0.025307572
0.0013096854 0.00025400412 -0.022195451
0.0013096824 0.00025400426 -0.022674236
0.0013096847 -0.0012699999 -0.019801512
0.0027384413 -0.0011853342 -0.020798985
0.0041671889 -0.0011853398 -0.020798989
0.004167187 -0.0011429999 -0.021237876
0.019169062 -0.00012700526 -0.026743941
0.016668748 -0.00012699536 -0.026743934
0.017264064 -0.0006349996 -0.02123788
0.016668748 -0.00050799851 -0.021596966
0.017264068 -0.0011430004 -0.021237876
0.019169064 0.0002540001 -0.02267424
0.018811874 -0.00012699385 -0.022674244
0.019169057 0.00025400613 -0.023153029
0.011310937 -0.00012700341 -0.015731812
0.011310933 0.00025399862 -0.015253025
0.0090487506 -0.0001269966 -0.015253029
0.0087312497 -8.4671788e-05 -0.015731819
0.0090487506 -0.00012699398 -0.015731819
0.0087312516 -8.4662825e-05 -0.01525303
0.011310942 -0.00012699551 -0.014774246
0.011668119 0.00025399664 -0.014774241
0.0032146834 -0.0012699965 -0.019322727
0.0022621921 -0.0012700025 -0.019442424
0.006667498 3.8780854e-09 -0.013696969
0.0066674985 0.00025400316 -0.013816671
0.0066675004 0.00025399952 -0.014295458
-0.027741568 -0.0011430022 -0.019801514
-0.027741561 -0.0011430014 -0.019322734
-0.028217804 -0.0011429945 -0.019322727
0.0027384441 -0.001142998 -0.00017121807
0.0032146885 -0.0011430002 -0.00017121248
0.0036909315 -0.0011430031 -0.00017120969
0.0041671842 -0.0011429978 -0.00065000542
0.0041671884 -0.0011430028 -0.00017121527
0.0040481281 -0.00012700523 0.0012651542
0.0046434337 -0.0011430049 -0.00017121062
0.0036909343 -0.0011429967 -0.00065000076
0.0090487534 -0.00012699746 0.0022227261
0.0090487506 0.00025400304 0.0022227205
0.0090487497 -0.00012700027 0.001743936
0.0090487478 0.00025399507 0.0025818218
0.014049368 -0.00012700137 0.0027015097
0.014049368 -0.00012700092 0.0022227215
0.014049372 0.00025400278 0.0022227271
0.011310939 -0.000126998 0.0022227224
0.0090487516 -8.4670159e-05 0.0026616137
0.013811252 -8.4672356e-05 0.0026616091
0.018216558 -0.0011430051 -0.0012484854
0.018692806 -0.0011429946 -0.0012484817
0.018692814 -0.0011430016 -0.00065000635
0.018216563 -0.0011430028 -0.00065000355
0.017264068 -0.0011429971 -0.00017121341
0.017264059 -0.0011429967 -0.0006499961
0.01678781 -0.0011430063 -0.00017121341
0.0090487488 -0.00012700506 0.00078636222
0.010239376 -0.00067733083 -0.00021110754
0.009644066 -0.00067733967 -0.00021110475
0.01023938 -0.00012699515 -0.00017121155
0.010834682 0.0011430049 -0.0023257639
0.01023938 0.0011430002 -0.0023257565
0.010239381 0.00063499896 -0.0023257602
0.0022791929 -0.0011248545 -0.002308663
0.002755441 -0.00065314531 -0.0023086555
0.0022859967 -0.00066040322 -0.0022539338
0.00083343429 0.0011429959 -0.00065000542
0.00083343149 0.0011429997 -0.0001712162
0.000238122 0.0011430053 -0.0001712162
-0.00083343853 -0.0011429933 -0.00065000169
-0.0038100025 -5.9262675e-09 0.0030606054
-0.0037306221 0.00025400572 0.0026616156
0.004048124 -0.00012700402 0.00078636594
0.0052387523 -0.0011429986 -0.00017121062
0.0036909431 -0.0001270053 0.00078636874
0.003690941 -0.00012700471 0.0012651505
0.0040481309 -0.00012700437 0.0017439397
0.0066675022 1.6807462e-09 0.00066666584
0.0063103135 -0.00012699593 0.00078636594
0.0067865667 -0.0011430044 -0.00017121434
0.0072628078 -0.0011429961 -0.00017120875
0.0077390601 -0.0011430025 -0.00017121714
0.010239379 -0.0011430014 -0.00017121155
0.0086915623 -0.0011429986 -0.020759091
0.0091678118 -0.0011430047 -0.020759095
0.0092075029 -0.0011853272 -0.020399999
0.0066674957 9.4951247e-10 -0.015253026
0.0063103177 0.000254004 -0.014774245
0.0063103084 0.00025399376 -0.015253026
0.011310943 0.00025400604 0.0012651542
0.010834692 0.0011429987 -0.00017120596
0.011310943 0.001142999 -0.00017121714
0.013811246 3.4488039e-09 0.0022227326
0.014049379 0.00025399355 0.0017439369
-0.0040481258 0.00025400615 0.0017439425
-0.0040481263 -0.00012700469 0.001743936
0.016430618 0.00025399827 0.0025818227
0.016787814 -0.001143 -0.00065000076
0.016668744 0.00025399588 0.0022227252
0.019129373 0.00025399943 0.0026616175
0.019169062 -0.00012700468 0.0017439397
0.018811872 3.8198777e-09 0.0017439434
0.01869281 -0.0011429962 -0.00017120596
0.019169059 -0.00012699438 0.001265157
0.019169061 -0.0011430028 -0.00017120875
0.019645315 -0.0011429944 -0.00017120875
0.019169062 -0.00012700098 0.00078636408
0.020240625 -0.0011430047 -0.000171219
0.021748753 -8.4668893e-05 0.0022227271
0.02166938 -0.00012699619 0.0027015153
0.021669379 0.00025399611 0.0025818199
0.01083469 0.00063499733 -0.002325763
0.016668748 0.00025400199 -0.0073530278
0.016430626 0.00025400546 -0.0073530297
0.016668754 -0.00012700277 -0.008310603
0.016351257 -0.00012700334 -0.008749499
0.01404938 0.00025400275 -0.0061560627
0.014049374 0.00025399699 -0.0092681758
0.014049377 -0.00012699474 -0.0092681851
0.017740307 -0.0011430031 -0.0018469729
0.018240368 -0.0011683956 -0.0022539338
0.019169059 -0.0011430063 -0.00065000542
0.019645307 -0.001143006 -0.00065000355
0.018216565 -0.0011429979 -0.00017121248
0.017740311 -0.0011430049 -0.00017121807
0.017264061 -0.001143006 -0.0012484863
0.018692806 -0.0011430023 -0.020280296
0.018216558 -0.0011853342 -0.019841414
0.018216567 -0.0011429938 -0.021237873
0.017740317 -0.0011430021 -0.02123788
0.017859373 -0.001015996 -0.019203033
0.0177233 -0.0011611374 -0.019818619
0.016311567 -0.00012699439 -0.014774241
0.016668748 -0.00012699669 -0.013337872
0.016328566 -0.00010885668 -0.013320774
0.014049375 -0.00012700177 -0.013337881
0.014049377 0.0002540006 -0.013816661
0.014049368 -0.00012699736 -0.013816666
0.016328577 -0.00010885164 -0.011679219
0.019169062 0.00025399544 -0.012859091
0.019169059 -0.00012699344 -0.01226061
0.019169059 -0.00012700415 -0.012859092
0.018811876 1.196895e-09 -0.012260601
0.01881187 -7.7488949e-10 -0.012859095
0.019169059 0.00025399352 -0.013337872
0.016351249 -0.00012700335 -0.0097469706
0.016668756 -0.00012700343 -0.0092681758
0.016668744 -0.00012699758 -0.010225757
0.021748753 -8.4670857e-05 -0.011183335
0.024169687 -0.00012700078 -0.011662127
0.026431875 -0.00012699743 -0.01333788
0.026431877 -8.4670581e-05 -0.012898994
0.024645932 -0.0011429971 -0.020759095
0.025241256 -0.0011611389 -0.01940823
0.024645941 -0.0011430008 -0.020280309
-0.029170318 0.0010160005 -0.0022060657
-0.029209998 0.00025400586 -0.0032434333
0.0013096877 0.00025400374 -0.011662115
0.00095249922 0.0002539962 -0.011662116
0.00095249788 0.00025400461 -0.01118333
0.0013096922 0.00025400595 -0.012260609
0.00095250161 0.00025399993 -0.012260604
-0.014049378 -0.00012700158 -0.0073530287
-0.014049369 0.00025400083 -0.0078318231
-0.014049369 -0.00012700072 -0.0078318231
-0.014049379 0.00025400106 -0.014774247
-0.013811256 -0.00012699656 -0.014774244
-0.015835315 0.0010160024 -0.019322734
-0.014644691 0.0010160024 -0.019203033
-0.015954372 0.0011430018 -0.01992121
-0.015478129 0.0010159987 -0.019322721
-0.019129381 0.00025399594 -0.01385656
-0.019169062 -0.00012700434 -0.01333788
-0.016748121 0.0010160017 -0.019362625
-0.016787807 0.0011430026 -0.019921206
-0.01631156 0.0010159962 -0.019322723
-0.017264061 0.001016003 -0.019322731
-0.017264068 0.001143 -0.019921215
-0.016430618 0.00025399472 -0.01525303
-0.016668754 0.00025400662 -0.015253024
-0.01643062 0.00025399495 -0.015731819
-0.016430618 -0.00012700225 -0.01525303
-0.016430626 -0.00012700431 -0.015731812
-0.0063103177 -0.0001269987 0.0027015144
-0.006667499 -0.0001270036 0.0025818124
-0.0064293761 3.7034624e-09 0.0030606054
-0.0017859372 -0.0011429951 -0.00017121155
-0.0017859342 -0.001142998 -0.00064999796
-0.0013096842 -0.0011430051 -0.00017121714
-0.0022621856 -0.0011430014 -0.00065000076
-0.0077390624 0.00025400633 -0.00017120689
-0.0066675064 -0.0001270049 0.00078636315
-0.0072628143 0.0002540006 -0.00017120596
-0.007262812 0.0011430006 -0.00017120875
-0.016430622 0.00025399678 -0.012260609
-0.0077787554 0.0012700054 -0.019761611
-0.0076199933 0.0010159949 -0.019203037
-0.012263436 0.0011430023 -0.021237873
-0.012263439 0.00127 -0.019921213
-0.011787187 0.0011430066 -0.021237873
-0.011310941 0.0012699934 -0.019921217
-0.011310942 0.0011429993 -0.021237878
-0.011668127 0.00025400592 -0.011662114
-0.011668131 0.00025400272 -0.012260607
-0.011310939 0.00025399879 -0.011662118
-0.018692814 0.0011430003 -0.019921215
-0.018216562 0.001185333 -0.021197978
-0.014168439 0.0010160006 -0.019681811
-0.014287493 0.001016002 -0.01920303
-0.013573124 0.0010159977 -0.019203033
-0.013096872 0.001269994 -0.01992121
-0.013215942 0.0010159941 -0.019203035
-0.019049995 0.00025399722 -0.025307577
-0.018811876 -0.0001270052 -0.024828784
-0.018811874 -0.00012700571 -0.025307577
-0.018811876 -0.00012699481 -0.025786359
-0.019169064 -0.00012699985 -0.025786366
-0.019169068 -0.00012699893 -0.026265146
-0.019169061 -0.00012699922 -0.026743937
-0.014049376 0.0002540031 -0.01621061
-0.016430629 0.00025399704 -0.017646967
-0.016430622 0.00025399911 -0.01824546
-0.016668752 0.00025400551 -0.018245451
-0.018811876 -8.4665167e-05 -0.012898986
0.030194245 -0.00010159581 -0.0022060676
0.030122813 0.0010159942 -0.0012484901
0.029170308 0.0010160034 -0.0006499989
0.029646566 0.0010159953 -0.019801514
0.02917031 0.00025399568 -0.011662117
0.025836561 0.0011429964 -0.020280302
0.02524125 0.0011429993 -0.020280302
0.02524125 0.0011430037 -0.019801516
0.025836555 0.0011429989 -0.019801509
0.024669746 0.0011683998 -0.0022539357
0.023193376 0.0011684046 -0.0022539394
0.024169682 0.0011430024 -0.0012484835
0.024169687 0.0011429996 -0.0006499989
0.026789058 0.0011430023 -0.000171219
0.027265305 0.0011430064 -0.00064999424
0.027265312 0.0011430011 -0.00017121434
-0.027717749 0.0011176015 -0.00024303701
-0.026431872 0.00025400353 0.002581818
-0.026669994 5.1331881e-09 0.0030606026
-0.026669998 0.00025400642 0.0027015219
-0.026431877 5.6461431e-09 0.0025818143
-0.026431873 0.00025399704 0.00078636967
-0.026312813 0.001142998 -0.00017121248
-0.025241248 0.00066674879 -0.00023105741
-0.025241248 0.00025400531 -0.00017121062
-0.025836559 0.00067733711 -0.00021110941
-0.029170316 -0.00012699721 0.0012651579
-0.026789064 0.0002540006 0.0022227298
-0.026789064 -0.00012700148 0.0022227289
-0.029646562 0.0010160012 -0.0018469691
-0.027741559 -0.00012700411 -0.00017120596
-0.027741559 -0.00067733257 -0.00021111686
-0.028200805 -0.00014514357 -0.00018830877
-0.026431881 1.5788828e-09 -0.01034546
-0.023693442 -0.0011430026 -0.0022060592
-0.02416968 -0.0001270061 -0.0032833358
-0.023217179 -0.0011430046 -0.0022060592
-0.023717254 -0.00060960546 -0.0022539441
0.019169057 0.00025399408 -0.006156065
0.018811874 1.9026629e-09 -0.005677274
0.01881188 3.1286618e-10 -0.0061560576
0.019169064 0.00025399728 -0.0056772702
0.01632857 -0.00010885952 -0.0061389594
0.016430626 0.00025400426 -0.0061560613
0.016430629 0.00025399498 -0.006754539
0.014049373 0.00025399611 -0.0067545478
0.019169057 -0.00012699761 -0.0061560567
0.01666875 -0.00012700549 -0.0056772749
0.016668748 -0.00012699621 -0.0061560576
0.016383002 -0.00015239365 -0.0056533311
0.006310307 -0.00012699472 0.0012651458
0.0063103111 0.00025399929 0.00078636408
0.0058340677 -0.0011429965 -0.000171219
0.0063103116 -0.0011429993 -0.00017120689
0.0063103074 0.00025400598 0.0012651542
-0.010239368 -0.0011430001 -0.00017121155
-0.010834681 -0.00067733385 -0.00021110754
-0.010239373 -0.00067732693 -0.00021111406
-0.01131094 -0.00012700577 0.00078636128
-0.010239369 -0.00012700583 -0.0001712162
0.00095249864 0.00025400025 0.0025818171
0.00095250044 0.00025400484 0.002222728
-0.029209999 0.0002539987 -0.0078717209
-0.029170314 -0.00012700005 -0.0078318138
-0.029170312 0.00025400083 -0.008310602
-0.029170318 -0.00012700236 -0.0083106067
-0.029170318 0.00025399981 -0.0087893941
-0.026749378 -8.4668005e-05 -0.0078318128
-0.026670005 0.00025399475 -0.0083106123
-0.02674938 -8.4672618e-05 -0.0083106011
-0.026670007 0.00025399998 -0.0097469725
-0.029170318 -0.00012700626 -0.015731819
-0.029170314 -0.00012699915 -0.016210606
-0.029170314 0.00025400243 -0.016210601
-0.030162495 -0.00062088569 -0.019336032
-0.029170316 -0.00012699624 -0.016689388
-0.029646566 0.00050800061 -0.021118186
-0.029170314 0.00025400476 -0.021716669
-0.029170306 0.00050799642 -0.021118185
-0.027741559 0.0011429969 -0.019442424
-0.027265312 0.0011430026 -0.019442424
-0.02676525 0.0011175984 -0.01939455
-0.026431881 0.00025400164 -0.012859093
-0.026431881 0.00025399544 -0.013337879
-0.026670001 0.00025399771 -0.013337882
-0.025275266 0.0011248539 -0.019408226
-0.026312817 0.0011006732 -0.019362632
-0.025241246 0.0011429938 -0.019801516
0.027265318 0.0011429972 -0.020280309
0.027741559 -0.00059266877 -0.01936263
0.027741566 0.00025399905 -0.019322732
0.028694067 0.0011430023 -0.019801512
-0.019169059 -0.00012700562 0.001743935
-0.019169057 -0.00012699592 0.0012651477
-0.019169062 0.00025400353 0.0012651449
-0.019169068 -0.00012699628 0.00078636035
-0.024129996 0.00025399952 0.0026616193
-0.024050619 5.2168616e-09 0.0030606044
-0.024152678 -0.00010885319 0.0026844172
-0.016430626 0.00025399873 0.0022227326
-0.01881187 -4.6056812e-09 0.0027015191
-0.019129375 0.00025400001 0.0026616156
-0.01905 3.2378011e-10 0.0030606082
-0.019152053 -0.0001088525 0.0026844172
-0.026312819 0.0011429976 -0.0022060666
-0.026312811 0.0011430031 -0.0018469729
-0.026789065 0.0011430046 -0.0022060554
-0.025853576 0.001161149 -0.00018831342
-0.021431243 0.0002539962 0.0027015163
-0.024169691 -0.00012700034 0.002222728
-0.01881187 -8.4661835e-05 0.0012252508
-0.017740313 -0.0011430053 -0.00017120689
-0.019169059 0.00025400045 0.0007863678
-0.018811869 0.00025400423 0.00018788129
-0.018692816 0.0011430037 -0.00017121714
-0.026669994 3.3105607e-10 -0.027581815
-0.026431872 -4.642061e-09 -0.02722273
-0.026431881 0.00025399399 -0.027222723
-0.024169682 0.00025399349 -0.027222723
-0.024050621 -2.2118911e-09 -0.027581818
-0.024169691 -0.00012699391 -0.027222726
-0.014049373 -6.4901542e-09 -0.027581815
-0.01381125 -0.00012700545 -0.027222723
-0.01643062 -0.0001270034 -0.026743937
-0.01643062 -0.00012699983 -0.024828782
-0.01666875 -0.00012700014 -0.024828782
-0.016430628 -0.0001269989 -0.024349995
-0.016668748 -0.00012699515 -0.024350002
-0.016430629 0.00025400013 -0.024350004
-0.016430624 0.00025399891 -0.024828782
-0.01666875 0.00025400371 -0.025307573
-0.016668748 0.00025399963 -0.025786357
-0.01643062 0.0002539985 -0.025307581
-0.01666875 -0.00012699707 -0.02530757
-0.016668746 -0.00012700369 -0.025786368
-0.016668748 0.00025399996 -0.02626515
-0.0022224989 -0.0012700032 -0.019841418
-0.0022621881 -0.0012699966 -0.020280298
-0.0022621891 -0.0012699936 -0.01944243
-0.0017859419 -0.0011430002 -0.021237876
-0.0017859323 -0.0011430038 -0.020878784
-0.0036909357 -0.0012700058 -0.019442432
-0.0036909347 -0.0012699945 -0.019921206
-0.0032146936 -0.0012699999 -0.01944243
-0.0032146908 -0.0012699955 -0.019921206
-0.0040481202 -0.00050799362 -0.018963633
-0.0013096889 -0.0012700012 -0.019442424
-0.0011906307 -0.00050800462 -0.017766673
-0.0022621911 -0.0011429948 -0.021237884
-0.0027384434 -0.0011429965 -0.020759091
-0.0066674962 -0.00012700127 -0.024828782
-0.0063103153 -0.00012700376 -0.025307577
-0.0063103125 -0.00012699838 -0.02482879
-0.0036909333 0.0011430003 -0.02123788
-0.0036909431 0.00025400403 -0.022674236
-0.0037306275 0.0005080002 -0.021676768
-0.0036909324 0.00025399917 -0.024828784
-0.0052387519 -0.00012699566 -0.019322721
-0.0052387514 0.000254004 -0.019322731
-0.0063103056 0.00025400252 -0.018245451
-0.0040481235 -0.00010160352 -0.018293332
-0.011668128 0.00025400103 -0.010704551
-0.0082153063 -0.0011429978 -0.00065000542
-0.0086915568 -0.0011429978 -0.0006499989
-0.0086915605 -0.0011430058 -0.00017120782
-0.011310944 -0.00012699417 -0.010704541
-0.0090487525 0.00025399716 -0.0092681795
-0.0090487488 -0.00012700232 -0.0087893903
-0.0090487525 -0.00012699817 -0.0092681851
-0.0046434379 -0.00050799816 -0.019322721
0.00095250231 0.00025400094 -0.012859096
-0.0017859323 0.0012699949 -0.019322731
0.0017859421 -0.0011429994 -0.002206061
0.0013096919 -0.0011429936 -0.0018469738
0.001309687 -0.00012699424 -0.009746966
0.0013096891 0.0002540006 -0.0097469734
0.0013096866 -0.00012700538 -0.010225758
-0.0008334397 -0.0011429952 -0.002206062
-0.0097631263 0.0010160004 -0.01944243
-0.0067865672 -0.0011430013 -0.020759089
-0.0092868721 0.0011429944 -0.020399999
-0.0013096919 -0.00012699589 -0.026743935
-0.0011906256 -0.00050799659 -0.023153029
-0.017740313 -0.0011429964 -0.02123788
-0.017740313 -0.00063500297 -0.02123788
-0.016668744 -0.00012700638 -0.022195458
-0.0041671875 -0.001142994 -0.021237876
-0.0032146941 -0.0012700038 -0.020280305
-0.00087312999 -0.0012699955 -0.020240407
0.00083343161 -0.0012699987 -0.020160604
-0.0036909359 -0.00012700228 -0.026265156
-0.006667499 -0.0001270037 -0.027222723
-0.0063103121 0.00025400621 -0.027222723
-0.0063500009 -8.4664905e-05 -0.027581815
-0.0063103088 -0.00012700647 -0.027222723
-0.0063103135 -0.00012700059 -0.026743947
-0.0040481281 -0.00012699763 -0.026265156
-0.0040481235 -0.00012700255 -0.026743935
0.0040481305 -0.00012700006 -0.025786363
0.0036909385 -0.00012699969 -0.025786359
0.0036909431 -0.00012699986 -0.026265156
0.0063103102 -0.00012700009 -0.025307577
0.006310313 0.00025400086 -0.025786363
0.0063103172 0.00025400621 -0.025307577
0.0064293784 -0.00050799869 -0.022075754
0.0052387537 -0.000635 -0.021237884
0.0017859384 -0.0011430003 -0.021237876
0.0013096877 -0.00012700463 -0.02375152
0.0013096933 -0.00012700575 -0.023153026
0.0036909438 0.00025399483 -0.02375152
-0.0013096929 0.00025399477 -0.022195451
-0.00083344372 0.0011429983 -0.021237882
-0.00035718578 0.0011430065 -0.021237873
-0.001309691 -0.0001269936 -0.02267424
-0.0013096898 -0.00012699881 -0.022195451
-0.00095250277 -0.00050799927 -0.021596972
-0.0013096833 -0.0011429954 -0.020878784
-0.0022621872 0.0012699977 -0.020280298
-0.0023812465 0.0011429987 -0.020878786
-0.0022621837 -0.00063499965 -0.02123788
-0.002738432 0.00063499797 -0.021237884
-0.0027384367 0.0011430029 -0.021237884
-0.0022621842 0.00063499447 -0.021237878
-0.0027384409 0.0011430045 -0.020878788
-0.0063103149 0.00025399553 -0.026265146
-0.0063103135 -0.00012700005 -0.026265156
-0.0063103181 -0.00012700068 -0.02578637
-0.0063103153 0.00025399699 -0.026743935
-0.0090487543 -0.0001270013 -0.026265159
-0.008731246 -8.4662242e-05 -0.026265148
-0.0087312516 -8.46685e-05 -0.026743937
-0.0036909343 -0.00012699605 -0.024350008
-0.0040481249 -0.00012700062 -0.024350001
-0.0040481216 -0.00012699976 -0.02375152
-0.0040481184 0.00025400304 -0.023871206
-0.003690935 0.00025400028 -0.024350001
0.0088106198 0.00025400505 -0.015731819
0.0088106217 0.00025400028 -0.015253029
0.0087312488 -8.4670159e-05 -0.016210604
-0.00047624821 -0.0012700042 -0.019442424
0.00023811954 -0.0012699969 -0.019203033
-0.00035718546 -0.0012700021 -0.019801509
-0.00039686964 0.0012699937 -0.019282823
0.00023812603 0.0012700001 -0.020160601
0.00083343138 0.001270004 -0.01920303
0.00023812335 0.001269996 -0.01920303
0.029170318 -0.001015998 -0.0022060564
0.019169068 -0.00012700092 -0.011662127
0.018811869 6.1991159e-09 -0.011662126
0.018811878 8.8402885e-10 -0.011183335
0.024169683 0.00025399571 0.0012651552
0.023217186 0.00067732763 -0.000211115
0.023217192 0.0011430017 -0.0001712162
0.02274094 0.0011429966 -0.00017120596
0.0017859363 -0.00050799694 -0.019322727
0.0022621872 -0.00050799979 -0.019322727
0.0013096905 0.00025399448 -0.018245455
0.0013096882 0.00025400569 -0.017646968
0.0016668686 0.00025399466 -0.021596964
-0.00083343423 0.0012699936 -0.019322727
0.000952498 0.00025400062 -0.026265156
0.00095250603 0.00025399748 -0.025786363
0.0013096868 0.00025400156 -0.025307579
0.011668123 0.00025399623 -0.027222726
0.021669379 0.00025399937 -0.010704542
0.024169691 -0.00012699944 -0.01118333
0.024169689 0.0002540061 -0.011183329
0.0066675018 0.00025400406 -0.01333788
0.0063103163 0.00025400228 -0.01381666
0.0040481277 0.00025400054 -0.02375151
0.0066675036 0.0002540001 -0.026265152
0.0066674952 0.00025400237 -0.025786363
0.0088106291 0.00025399416 -0.026265156
0.0087312525 -8.4667801e-05 -0.026743934
0.0088106263 0.00025399768 -0.026743937
0.024645934 0.0011429978 -0.020280305
0.024645934 0.0011430006 -0.019801516
0.024685621 0.0011430042 -0.019362625
0.024645934 0.0011430039 -0.020759085
0.0077390582 -0.00050799747 -0.019322721
0.025241256 0.0011430052 -0.0012484835
0.025241248 0.001142998 -0.0006499961
0.024169687 0.0011430029 -0.001846971
0.023693435 0.001143 -0.001248491
0.027741557 0.001143005 -0.019801509
0.027265307 0.0011430025 -0.019801509
0.027741564 0.0011430042 -0.019322731
0.0036909392 0.00025399987 -0.027222723
0.016668744 -0.00012699972 -0.022195453
0.01632857 -0.00010886206 -0.025324671
0.016668754 -0.00012700388 -0.02530757
0.016668752 0.00025399754 -0.02722273
0.016668752 -4.5474735e-09 -0.027581822
0.014168439 -0.0011429981 -0.020759087
0.0096440557 -0.0011429961 -0.021237884
0.010239371 -0.0011853389 -0.020320207
0.01023937 -0.001143006 -0.02123788
0.010834684 -0.0011853399 -0.020320196
0.010834691 -0.0011429936 -0.021237884
0.008691567 -0.0011429989 -0.021237882
0.008215311 -0.0011429989 -0.021237874
0.01023937 -0.0011430052 -0.020759083
0.0077390564 -0.0011429964 -0.021237876
0.0067865555 -0.0011429967 -0.02123788
0.0063103116 -0.0012699962 -0.020400003
0.0063103153 -0.00050800206 -0.019322731
0.016430618 -1.7353159e-09 -0.027581818
0.011310936 -0.00012700545 -0.026743941
0.011310935 0.00025400502 -0.026743945
0.0090487543 0.00025399413 -0.026743935
0.0087312479 -8.4669227e-05 -0.027222726
0.011310938 -0.0011430003 -0.020759091
0.011310942 -0.0011429948 -0.021237873
0.012739683 -0.0011430044 -0.02123788
0.012263437 -0.0011430047 -0.021237873
0.012263441 -0.0011430063 -0.020759096
0.012263441 -0.0011853349 -0.020320199
0.019169057 0.0011430037 -0.019801512
0.018692812 0.0011430036 -0.019801516
0.019169057 0.0011430061 -0.020280303
0.015239994 -0.00012700162 -0.021237876
0.016311558 -0.00012699926 -0.022195447
0.01404938 -0.00012699439 -0.022674248
0.014049372 -0.00050800294 -0.02159697
0.016351253 -8.4671876e-05 -0.024350006
0.019158244 -0.00011545503 -0.023729751
0.018811872 -0.00010160226 -0.023799395
0.019169061 -0.00012699873 -0.024350004
0.019169064 0.00025399396 -0.023751516
0.016668746 0.00025400243 -0.025307577
0.027741559 0.00025399902 -0.00017120689
0.027741566 -0.00012699388 -0.00017120969
0.029170312 0.00025399821 0.0017439341
0.029170308 -0.00012699932 0.0017439388
0.026669998 0.00025400653 0.0012651505
0.021669373 0.00025400022 0.0022227298
0.027741564 0.00063500012 -0.0022060676
0.026670005 0.00025399672 -0.0032833358
0.027717756 0.0011684016 -0.0022539441
0.027265312 0.00063499931 -0.0022060573
0.014049377 -0.00012699563 -0.0047196927
0.014049374 0.00025400007 -0.0042409101
0.014049374 -0.00012700142 -0.0042409068
0.021669375 2.5647751e-09 0.0030606035
0.021431249 0.00025399358 0.0025818227
0.021431247 -8.4670566e-05 0.00266161
-0.021669377 -0.00012700414 -0.010225753
-0.02143125 -0.0001269996 -0.0097469622
-0.021669369 -0.00012700034 -0.0097469697
-0.021431254 -0.00012700004 -0.010225755
-0.01666875 -0.00012699912 -0.014774244
-0.01666875 -0.00012699912 -0.015253033
-0.011668123 -0.00012700452 -0.0097469725
-0.011310932 -0.00012700391 -0.009746966
-0.010239379 -0.0011429939 -0.0023257621
-0.010239368 -0.0011430033 -0.0018469738
-0.010834688 -0.0011429946 -0.0023257565
-0.0096440669 -0.0011430049 -0.0023257518
-0.010834683 -0.001143004 -0.00017121248
-0.011310937 -0.0011430043 -0.00017121155
-0.0090487478 -8.4662242e-05 0.002661611
-0.0096440557 -0.0011430053 -0.0018469663
-0.0096440632 -0.0011430028 -0.0012484817
-0.0091678156 -0.0011430013 -0.0023257528
-0.0091678137 -0.0011429937 -0.0018469738
-0.0091678146 -0.0011429957 -0.0012484891
0.023693444 -0.0011429968 -0.00017121248
0.024169685 -0.00012699512 0.00078636315
0.024169685 -0.0011430042 -0.00017121248
0.023217192 -0.0011430037 -0.0012484835
0.023217192 -0.0011430028 -0.001846971
0.022757944 -0.001161146 -0.0023086546
0.023693439 -0.0011430029 -0.0012484863
0.020835942 -0.0011429985 -0.00065000542
0.021312181 -0.001143004 -0.0001712162
0.020835934 -0.0011430038 -0.0001712162
0.021431254 -0.00012700252 0.0022227317
-0.021431247 0.00025400403 -0.008310602
-0.021431243 -0.00012700203 -0.0087893903
-0.021431252 0.00025399527 -0.0087893903
-0.021431249 -0.00012699806 -0.0083106048
-0.021669377 0.00025400129 -0.0087894006
-0.019169064 -0.00012700478 -0.0042409119
-0.019169064 0.00025400636 -0.0047197035
-0.019169057 -0.00012699714 -0.0047196937
-0.021431247 0.00025400065 -0.0092681758
-0.021431252 0.00025400647 -0.0097469632
-0.020240625 -0.0011429955 -0.0012484873
-0.019645317 -0.0011430067 -0.00064999796
-0.021669373 -0.00012699784 -0.010704549
-0.021669373 0.00025399524 -0.010225752
-0.021431243 -0.00012700631 -0.010704543
-0.022740936 0.00025400441 -0.0022060676
-0.02416968 0.00025400572 -0.0032833368
-0.019049998 0.00025399707 -0.0092681851
-0.018811869 -0.00012700468 -0.0093878806
-0.018811869 -9.5678843e-10 -0.0097469706
0.026670003 0.00025399544 -0.025307572
0.02643187 0.00025399719 -0.024709091
0.026431879 0.00025399367 -0.025906058
0.026669996 0.00025400604 -0.026265148
0.024169691 -0.0001269947 -0.025786366
0.024169689 0.0002539971 -0.025786363
0.024169687 0.00025399897 -0.026265156
-0.029170318 -0.00012699583 -0.0037621246
-0.029170318 -0.0011429995 -0.0022060573
-0.029170314 -0.00012699681 -0.005198482
-0.02928937 0.00025400647 -0.0051984782
-0.029170314 -0.00012700328 -0.004719696
-0.029289374 0.00025399466 -0.005677267
-0.029646562 -0.0011429966 -0.0018469747
-0.028193993 -0.0011684021 -0.0022539459
-0.030241869 -0.00012700577 -0.0202803
-0.026431872 0.0002540019 -0.01381667
-0.026669998 0.00025399425 -0.013816671
-0.029170314 -0.00012699973 -0.012859087
-0.029170316 -0.00012699464 -0.013337879
-0.029170316 0.00025400569 -0.013337884
0.029170312 0.00025400068 -0.017168177
0.029170316 -0.00012699472 -0.01668939
0.029170308 0.00025400263 -0.016689388
0.029170308 0.00025399707 -0.018245447
0.02913063 0.0010160003 -0.019362625
0.029527504 0.00025399844 -0.018963631
0.029194126 -0.0010668035 -0.020256363
0.029170319 -0.00012699619 -0.026265157
0.029170305 0.0002540031 -0.026265159
0.030194249 0.00060960121 -0.01944242
-0.0066675018 -0.00012699512 -0.014295461
-0.0063103121 0.00025400563 -0.013816664
-0.006667499 -0.00012699398 -0.013816663
-0.0063103116 0.00025400237 -0.014295455
-0.025241248 0.0011006634 -0.020240404
-0.026789065 0.0011429933 -0.019801512
-0.027248297 0.001161146 -0.019818615
-0.029170314 -0.00012700101 -0.026265156
-0.02928937 0.00025400409 -0.026265156
-0.029170318 0.0010159943 -0.020160612
-0.028694063 0.00050800212 -0.02123788
0.027741559 0.00063499436 -0.021237873
-0.011787184 0.0011430052 -0.0023257528
-0.011310939 0.001143002 -0.0023257621
-0.011310939 0.0011429999 -0.0018469729
-0.01083469 0.0011430024 -0.0023257518
-0.010834689 0.0011429936 -0.0018469756
-0.010239369 0.0011430046 -0.001846971
-0.011310941 -0.00012699449 -0.0083106086
-0.01131094 -0.00012699573 -0.0078318203
-0.011310935 0.00025400487 -0.0083105993
-0.011310933 -0.00012699727 -0.008789395
-0.0088106245 0.00025400365 -0.0087893978
-0.0087312534 -8.4672458e-05 -0.0092681851
-0.0088106291 0.00025399993 -0.0092681861
-0.0090487534 -0.00012699589 -0.010704549
-0.0087629948 -0.00010160285 -0.010201821
-0.0087085674 -0.00010885604 -0.011200433
-0.0087312469 -8.4671556e-05 -0.010704538
-0.009048745 -0.00012700583 -0.011183329
-0.0088106301 0.0002540017 -0.01070455
-0.0088106263 0.00025400068 -0.010225752
-0.0013096875 0.0002540047 -0.004240911
-0.0013096912 0.0002539964 -0.0047196914
-0.0013096901 -0.00012699663 -0.0037621278
-0.0013096828 0.00025400659 -0.0037621162
-0.0090487525 -0.00012700063 -0.0083106048
-0.0087312544 -8.4667117e-05 -0.0083106002
-0.0052387496 0.0012699976 -0.019681819
-0.0088106291 0.00025400435 -0.009746965
-0.0087629985 -0.00010159772 -0.0097709056
-0.0090487441 0.00025399492 -0.010225752
-0.0041671931 0.0012700026 -0.019442424
-0.0046434342 0.0011430036 -0.00017121527
-0.0040481305 0.00025399946 0.0012651496
-0.0041671908 0.0011429975 -0.00017121062
-0.004167194 0.0011430023 -0.00065000448
-0.0046434347 0.0011429969 -0.00064999703
-0.011787193 0.0011430059 -0.0018469691
-0.00035718686 -0.0011429953 -0.00017120596
0.00023813054 -0.0011430028 -0.00017121714
0.0013096875 -0.0011429993 -0.00065000076
0.00083343126 -0.0011429988 -0.00017121807
0.0017859391 0.0011429942 -0.00065000355
0.0017859344 0.0011429957 -0.00017121248
0.0022621872 0.0011429969 -0.00064999983
0.025241252 -0.0011430026 -0.02123788
0.025241246 -0.00063500414 -0.021237884
0.024645938 -0.0011429947 -0.021237873
0.026431873 -8.4671337e-05 -0.027182829
0.024169687 -0.00012699651 -0.022195451
0.024130002 -0.00050800515 -0.021676771
0.024169691 0.00025399707 -0.02375151
0.02416968 -0.00012699762 -0.02375151
0.024169685 -0.00012700231 -0.024349997
0.026312819 0.0011429965 -0.020759091
0.026312813 0.0011429952 -0.021237884
0.02680607 -0.0011248615 -0.021220772
0.026312815 -0.0011430016 -0.020759093
0.026312819 -0.001142998 -0.019801516
0.026312817 -0.0011429951 -0.019442422
0.025836557 -0.0011429943 -0.019801516
0.026789067 -0.0011429972 -0.01980152
0.026789058 -0.0011429986 -0.020280302
0.026669996 0.0002539948 -0.023153028
0.026717627 -0.00010159507 -0.022650303
0.026431879 0.00025400025 -0.022195455
0.02881312 -4.638423e-09 -0.021596968
0.028217809 -0.00063500402 -0.021197977
0.027741564 -0.001143002 -0.00029091351
0.027265312 -0.0011429967 -0.00029090233
0.027265312 -0.001142999 -0.00064999517
0.028217813 -0.0011430023 -0.0012484873
0.027741564 -0.0011430028 -0.0012484817
0.0013096847 -0.00012699398 -0.02626515
0.00095249462 1.4806574e-09 -0.027103029
0.00095250155 -2.921297e-09 -0.026743941
0.0013096808 0.00025399544 -0.023153033
0.00095249648 0.00025400336 -0.024828788
-0.0013096891 0.00025399588 -0.024828782
-0.0013096938 0.00025399614 -0.024350002
-0.0036909357 -0.00012700647 -0.024828795
0.00095249573 0.00025400246 -0.022195458
0.0012700048 0.00059266639 -0.021596972
0.00083343132 0.0011429983 -0.021237882
-0.00035719346 0.0012699945 -0.020160601
0.0017859361 0.0011430025 -0.021237878
0.015874999 -0.0011853279 -0.019921213
0.016311558 -0.001142999 -0.020280302
0.017264066 -0.0011430011 -0.020280305
0.01524 -0.0011430037 -0.020759093
0.015240005 -0.0011429953 -0.020280296
0.0023018818 -0.0011853317 -0.020878792
0.0036909343 -0.001185328 -0.020798991
0.016668746 -0.00012699405 -0.027222734
0.01881188 -0.00012699938 -0.026743941
0.018811876 -0.00012699435 -0.026265152
0.017740313 -0.00063500647 -0.021237874
0.019169068 -0.00012699649 -0.026265148
0.0090487516 0.00025399754 -0.01525303
0.009048745 0.00025399739 -0.015731817
0.0090487469 -0.00012699816 -0.014774249
0.0087312553 -8.4665429e-05 -0.01477424
0.0036909354 -0.00012700226 -0.011183331
0.003690942 -0.00012700066 -0.010704545
0.0036909415 0.00025400033 -0.011183339
0.0036909326 -0.00012699627 -0.012859086
0.0036909352 0.00025399993 -0.0122606
0.0036909345 0.00025399725 -0.012859089
0.0087630041 -0.0001015983 -0.014319392
0.0090487543 -0.00012699665 -0.013816672
0.0090487534 -0.0001270043 -0.014295449
