# .PCD v0.7 - Point Cloud Data file format
VERSION 0.7
FIELDS x y z
SIZE 4 4 4
TYPE F F F
COUNT 1 1 1
WIDTH 1169
HEIGHT 1
VIEWPOINT 0 0 0 1 0 0 0
POINTS 1169
DATA ascii
-0.0032589361 0.0034999999 -0.0010219696
-0.0024921277 0.0034999999 -0.0004446969
-0.0031630851 0.0034999999 -0.00073333329
-0.0023962765 0.0034999999 -0.0032348484
0.0040257447 -0.0034041095 -0.0088151516
0.0039298935 0.0034999999 -0.0088151516
-0.0023004254 0.0034999999 -0.0064098481
-0.0020128724 0.0034999999 -0.0031386362
0.0030672341 0.0034999999 -0.00063712115
-0.0019170212 0.0034999999 -0.0086227274
-0.0040257447 0.0034041095 -0.0065060603
-0.0013419149 0.0034999999 -0.0061212122
0.0017253191 0.0034999999 -0.0085265152
0.0045050001 0.0027328767 -0.005351515
-0.0031630851 0.0034999999 -0.0050628786
0.0033547871 -0.0034999999 -0.0021765151
-0.0023962765 0.0034999999 -0.0004446969
-0.0045050001 -0.0028287671 -0.0070833331
0.0045050001 0.0028287671 -0.0071795452
0.0045050001 0.0029246574 -0.0071795452
0.0045050001 0.0030205478 -0.0071795452
0.0045050001 0.0031164382 -0.0071795452
0.0045050001 0.0032123288 -0.0071795452
-0.001533617 0.0034999999 -0.0061212122
-0.0031630851 0.0034999999 -0.0019840908
-0.0042174468 -0.0034999999 -0.0040045455
-0.0018211702 0.0034999999 -0.0041969698
-0.001533617 0.0034999999 -0.00092575751
-0.0045050001 -0.0032123288 -0.0070833331
-0.0045050001 -0.0031164382 -0.0070833331
-0.0045050001 -0.0030205478 -0.0070833331
-0.0045050001 -0.0029246574 -0.0070833331
0.0045050001 0.0027328767 -0.0071795452
-0.0045050001 -0.0027328767 -0.0070833331
0.0030672341 0.0034999999 -0.0054477272
0.0035464892 0.0034999999 -0.0088151516
-0.0045050001 -0.0026369863 -0.0070833331
-0.0045050001 -0.0025410957 -0.0070833331
-0.0045050001 -0.0024452053 -0.0070833331
-0.0045050001 -0.002349315 -0.0070833331
-0.0045050001 -0.0022534246 -0.0070833331
-0.0042174468 -0.0034999999 -0.0065060603
0.0027796808 0.0034999999 -0.00063712115
-0.0043132976 0.0034041095 -0.0065060603
-0.0020128724 0.0034999999 -0.0064098481
-0.0017253191 0.0034999999 -0.0031386362
0.0037381914 0.0034999999 -0.0043893936
0.0039298935 -0.0034041095 -0.0082378788
-0.0018211702 0.0034999999 -0.0086227274
0.0033547871 -0.0034999999 -0.0063136364
-0.0027796808 0.0034999999 -0.0084303031
0.0045050001 -0.0032123288 -0.0071795452
0.0045050001 -0.0031164382 -0.0071795452
0.0045050001 -0.0030205478 -0.0071795452
-0.0014377659 0.0034999999 -0.0061212122
-0.0032589361 0.0034999999 -0.0050628786
-0.0032589361 0.0034999999 -0.0019840908
-0.0016294681 0.0034999999 -0.00092575751
-0.0019170212 0.0034999999 -0.0041969698
0.0039298935 -0.0034041095 -0.0018878788
0.0029713828 0.0034999999 -0.0054477272
0.0028755318 0.0034999999 -0.00063712115
0.0035464892 -0.0034999999 -0.0021765151
-0.0021087234 0.0034999999 -0.0064098481
0.0036423404 0.0034999999 -0.0088151516
0.0039298935 -0.0034041095 -0.0043893936
-0.0018211702 0.0034999999 -0.0031386362
0.0038340425 0.0034999999 -0.0043893936
0.0016294681 0.0034999999 -0.0027537877
-0.0017253191 0.0034999999 -0.0086227274
-0.0026838297 0.0034999999 -0.0032348484
0.0045050001 0.0022534246 -0.0071795452
-0.0021087234 0.0034999999 -0.0004446969
0.0045050001 0.002349315 -0.0071795452
0.0045050001 0.0024452053 -0.0071795452
0.0045050001 0.0025410957 -0.0071795452
0.0045050001 0.0026369863 -0.0071795452
0.0045050001 -0.0031164382 -0.005351515
-0.0021087234 0.0034999999 -0.0032348484
0.0038340425 0.0034999999 -0.0071795452
0.0039298935 -0.0034041095 -0.0071795452
-0.0045050001 -0.0022534246 -0.0042931815
-0.0045050001 -0.002349315 -0.0042931815
-0.0045050001 -0.0024452053 -0.0042931815
-0.0045050001 -0.0025410957 -0.0042931815
-0.0028755318 0.0034999999 -0.0004446969
-0.0045050001 -0.0026369863 -0.0042931815
-0.0045050001 -0.0027328767 -0.0042931815
-0.0045050001 -0.0028287671 -0.0042931815
-0.0045050001 -0.0029246574 -0.0042931815
0.0037381914 0.0034999999 -0.0041007577
0.0045050001 -0.0032123288 -0.005351515
-0.0029713828 0.0034999999 -0.0010219696
0.0034506381 -0.0034999999 -0.0074681817
0.0033547871 0.0034999999 -0.0074681817
0.0044091488 -0.0033082191 -0.0088151516
-0.0024921277 0.0034999999 -0.0052553029
-0.0018211702 0.0034999999 -0.0084303031
-0.0029713828 0.0034999999 -0.0073719695
-0.0042174468 0.0034041095 -0.0062174243
0.0045050001 0.0032123288 -0.0043893936
0.0045050001 0.0031164382 -0.0043893936
0.0045050001 0.0030205478 -0.0043893936
0.0045050001 0.0029246574 -0.0043893936
0.0045050001 0.0028287671 -0.0043893936
0.0045050001 0.0027328767 -0.0043893936
0.0045050001 0.0026369863 -0.0043893936
-0.0024921277 0.0034999999 -0.0041969698
0.0045050001 -0.0031164382 -0.0088151516
0.0045050001 -0.0032123288 -0.0088151516
-0.0044091488 -0.0034041095 -0.0062174243
0.0044091488 0.0033082191 -0.0088151516
0.0044091488 0.0032123288 -0.0088151516
0.0044091488 0.0031164382 -0.0088151516
0.0044091488 0.0030205478 -0.0088151516
-0.0045050001 0.0030205478 -0.0073719695
0.0019170212 0.0034999999 -0.0030424241
-0.0023962765 0.0034999999 -0.0086227274
-0.0022045744 0.0034999999 -0.00092575751
-0.0026838297 0.0034999999 -0.0050628786
0.0023962765 0.0034999999 -0.0054477272
-0.0023962765 0.0034999999 -0.0031386362
0.0045050001 0.0025410957 -0.0043893936
-0.0026838297 0.0034999999 -0.0064098481
0.0035464892 -0.0034999999 -0.00063712115
0.0034506381 0.0034999999 -0.00063712115
-0.0023004254 0.0034999999 -0.0086227274
-0.0027796808 0.0034999999 -0.0050628786
-0.0021087234 0.0034999999 -0.00092575751
0.0024921277 0.0034999999 -0.0054477272
0.0044091488 0.0029246574 -0.0088151516
0.0040257447 -0.0034041095 -0.0071795452
-0.0022045744 0.0034999999 -0.0062174243
-0.0030672341 0.0034999999 -0.002946212
0.0013419149 0.0034999999 -0.0041007577
-0.0022045744 0.0034999999 -0.0041969698
0.0044091488 0.0034041095 -0.0043893936
0.0044091488 0.0033082191 -0.0043893936
-0.0030672341 0.0034999999 -0.0010219696
0.0039298935 0.0034999999 -0.0071795452
-0.0021087234 0.0034999999 -0.0031386362
0.0045050001 -0.0030205478 -0.005351515
-0.0022045744 0.0034999999 -0.0032348484
-0.0023962765 0.0034999999 -0.0064098481
-0.0026838297 0.0034999999 -0.0004446969
0.0031630851 0.0034999999 -0.00063712115
0.0035464892 -0.0034999999 -0.0082378788
-0.0020128724 0.0034999999 -0.0086227274
-0.0023004254 0.0034999999 -0.0017916666
-0.0030672341 0.0034999999 -0.0050628786
0.0045050001 0.0022534246 -0.005351515
-0.0018211702 0.0034999999 -0.00092575751
0.0045050001 0.002349315 -0.005351515
0.0027796808 0.0034999999 -0.0054477272
-0.0021087234 0.0034999999 -0.0041969698
-0.0031630851 0.0034999999 -0.0010219696
-0.0020128724 0.0034999999 -0.00092575751
0.0045050001 0.0024452053 -0.0043893936
0.0045050001 0.002349315 -0.0043893936
0.0045050001 0.0022534246 -0.0043893936
-0.0013419149 0.0034999999 -0.006025
0.0034506381 -0.0034999999 -0.0082378788
-0.0023004254 0.0034999999 -0.0031386362
-0.0023962765 0.0034999999 -0.0041969698
0.0037381914 0.0034999999 -0.0030424241
-0.001533617 0.0034999999 -0.0052553029
-0.0025879787 0.0034999999 -0.0064098481
0.0034506381 -0.0034999999 -0.00063712115
0.0033547871 0.0034999999 -0.00063712115
-0.0022045744 0.0034999999 -0.0086227274
-0.0028755318 0.0034999999 -0.0050628786
0.0045050001 0.0028287671 -0.0085265152
0.0025879787 0.0034999999 -0.0054477272
-0.0023004254 0.0034999999 -0.0041969698
-0.0022045744 0.0034999999 -0.0031386362
-0.0024921277 0.0034999999 -0.0064098481
0.0033547871 -0.0034999999 -0.00063712115
0.0032589361 0.0034999999 -0.00063712115
-0.0021087234 0.0034999999 -0.0086227274
-0.0029713828 0.0034999999 -0.0050628786
-0.0019170212 0.0034999999 -0.00092575751
-0.0027796808 0.0034999999 -0.0004446969
0.0045050001 -0.0030205478 -0.0043893936
0.0045050001 -0.0031164382 -0.0043893936
0.0045050001 -0.0032123288 -0.0043893936
0.0026838297 0.0034999999 -0.0054477272
-0.0033547871 -0.0034999999 -0.00092575751
0.0036423404 0.0034999999 -0.0071795452
0.0033547871 -0.0034999999 -0.0039083334
-0.001533617 0.0034999999 -0.0075643938
0.0039298935 -0.0034041095 -0.0021765151
-0.001533617 0.0034999999 -0.006025
-0.0031630851 0.0034999999 -0.0004446969
-0.0037381914 -0.0034999999 -0.0086227274
-0.0039298935 -0.0034999999 -0.00054090901
-0.0045050001 -0.0030205478 -0.0051590907
-0.0045050001 -0.0031164382 -0.0051590907
-0.0019170212 0.0034999999 -0.0032348484
-0.0045050001 -0.0025410957 -0.0039083334
-0.0045050001 -0.0024452053 -0.0039083334
-0.0040257447 0.0034041095 -0.00054090901
-0.0039298935 0.0034041095 -0.0041969698
-0.0044091488 -0.0033082191 -0.0087189395
-0.0038340425 -0.0034999999 -0.0041969698
-0.0045050001 0.0032123288 -0.0087189395
-0.0045050001 -0.0032123288 -0.0073719695
-0.0045050001 -0.0032123288 -0.0051590907
-0.0045050001 -0.0031164382 -0.0073719695
0.0045050001 0.0032123288 -0.0052553029
-0.0045050001 -0.0032123288 -0.0062174243
0.0045050001 0.0031164382 -0.0052553029
-0.0040257447 0.0034041095 -0.0064098481
0.0035464892 0.0034999999 -0.0071795452
0.0044091488 0.0033082191 -0.0085265152
0.0044091488 0.0034041095 -0.0085265152
-0.0045050001 -0.0024452053 -0.0051590907
-0.0039298935 -0.0034999999 -0.0041969698
-0.0038340425 -0.0034999999 -0.00054090901
-0.0045050001 -0.0025410957 -0.0051590907
-0.0045050001 -0.0026369863 -0.0051590907
-0.0045050001 -0.0027328767 -0.0051590907
-0.0039298935 0.0034041095 -0.00054090901
0.0045050001 -0.0030205478 -0.0074681817
0.0045050001 -0.0031164382 -0.0074681817
0.0045050001 0.0030205478 -0.0052553029
0.0045050001 -0.0032123288 -0.0074681817
-0.0045050001 -0.0031164382 -0.0062174243
0.0039298935 -0.0034041095 -0.0020803029
-0.0016294681 0.0034999999 -0.006025
0.0040257447 -0.0034041095 -0.0021765151
0.0040257447 0.0034999999 -0.0083340909
-0.0032589361 0.0034999999 -0.0004446969
-0.0042174468 -0.0034999999 -0.0042931815
-0.0045050001 -0.0028287671 -0.0051590907
-0.0043132976 0.0034041095 -0.0042931815
-0.0043132976 -0.0034041095 -0.0087189395
-0.0045050001 -0.0029246574 -0.0051590907
-0.0044091488 0.0034041095 -0.0087189395
-0.0027796808 0.0034999999 -0.0010219696
-0.0021087234 0.0034999999 -0.0018878788
-0.0040257447 -0.0034999999 -0.00054090901
-0.0041215955 0.0034041095 -0.00054090901
-0.0045050001 -0.0032123288 -0.0087189395
-0.0037381914 -0.0034999999 -0.0041969698
0.0045050001 0.0024452053 -0.0052553029
0.0045050001 0.002349315 -0.0052553029
-0.0014377659 0.0034999999 -0.0075643938
0.0040257447 0.0034999999 -0.0020803029
-0.0014377659 0.0034999999 -0.0050628786
0.0045050001 0.0022534246 -0.0052553029
-0.0024921277 0.0034999999 -0.0030424241
0.0039298935 -0.0034041095 -0.0083340909
-0.001533617 0.0034999999 -0.0063136364
-0.0014377659 0.0034999999 -0.002946212
0.0045050001 -0.0030205478 -0.0052553029
0.0013419149 0.0034999999 -0.0054477272
0.0045050001 -0.0031164382 -0.0052553029
0.0045050001 -0.0032123288 -0.0052553029
0.0044091488 0.0034041095 -0.0052553029
-0.0035464892 -0.0034999999 -0.0086227274
-0.0041215955 -0.0034999999 -0.00054090901
-0.0042174468 0.0034041095 -0.00054090901
-0.0032589361 0.0034999999 -0.00092575751
-0.0036423404 -0.0034999999 -0.0041969698
-0.0013419149 0.0034999999 -0.0075643938
0.0041215955 0.0034999999 -0.0020803029
-0.001533617 0.0034999999 -0.0050628786
-0.0030672341 0.0034999999 -0.0004446969
0.0045050001 0.0029246574 -0.0052553029
-0.0045050001 -0.0030205478 -0.0073719695
0.0045050001 0.0028287671 -0.0052553029
0.0045050001 0.0027328767 -0.0052553029
0.0045050001 0.0026369863 -0.0052553029
0.0045050001 0.0025410957 -0.0052553029
-0.0042174468 0.0034041095 -0.00063712115
-0.0045050001 0.0031164382 -0.0087189395
-0.0045050001 0.0030205478 -0.0087189395
-0.0044091488 0.0034041095 -0.0042931815
-0.0028755318 0.0034999999 -0.0010219696
-0.0020128724 0.0034999999 -0.0032348484
0.0037381914 0.0034999999 -0.0071795452
-0.0045050001 -0.0022534246 -0.0087189395
-0.0026838297 0.0034999999 -0.0010219696
-0.0045050001 -0.002349315 -0.0087189395
-0.0045050001 -0.0024452053 -0.0087189395
-0.0045050001 -0.0025410957 -0.0087189395
-0.0045050001 -0.0026369863 -0.0087189395
-0.0045050001 -0.0027328767 -0.0087189395
-0.0045050001 -0.0028287671 -0.0087189395
-0.0045050001 -0.0029246574 -0.0087189395
0.0040257447 -0.0034041095 -0.0020803029
-0.0039298935 0.0034041095 -0.0064098481
-0.0045050001 -0.0030205478 -0.0087189395
-0.0045050001 -0.0031164382 -0.0087189395
-0.0013419149 0.0034999999 -0.0050628786
0.0040257447 -0.0034041095 -0.0083340909
-0.0036423404 -0.0034999999 -0.0086227274
0.0040257447 -0.0034041095 -0.0072757574
-0.0041215955 -0.0034999999 -0.0064098481
0.0026838297 0.0034999999 -0.0082378788
-0.0030672341 0.0034999999 -0.0065060603
-0.0036423404 -0.0034999999 -0.00054090901
-0.0036423404 -0.0034999999 -0.0004446969
-0.0038340425 -0.0034999999 -0.0087189395
0.0035464892 -0.0034999999 -0.0039083334
-0.0039298935 0.0034041095 -0.0087189395
-0.001533617 0.0034999999 -0.0049666665
-0.0017253191 0.0034999999 -0.0075643938
-0.0035464892 -0.0034999999 -0.00092575751
-0.001533617 0.0034999999 -0.0032348484
-0.0023962765 0.0034999999 -0.0010219696
-0.0019170212 0.0034999999 -0.006025
-0.0039298935 0.0034041095 -0.0042931815
0.0032589361 0.0034999999 -0.0071795452
0.0033547871 -0.0034999999 -0.0071795452
0.0027796808 0.0034999999 -0.0082378788
-0.0035464892 -0.0034999999 -0.0004446969
-0.0039298935 -0.0034999999 -0.0087189395
-0.0040257447 0.0034041095 -0.0086227274
-0.0040257447 0.0034041095 -0.0087189395
-0.0014377659 0.0034999999 -0.0049666665
-0.0031630851 0.0034999999 -0.0065060603
-0.0039298935 -0.0034999999 -0.0086227274
-0.0041215955 0.0034041095 -0.0041969698
-0.0023004254 0.0034999999 -0.0010219696
-0.0041215955 0.0034041095 -0.0041007577
-0.0037381914 -0.0034999999 -0.0004446969
-0.0045050001 -0.0030205478 -0.0039083334
-0.0045050001 -0.0029246574 -0.0039083334
-0.0045050001 0.0031164382 -0.0051590907
0.0044091488 0.0034041095 -0.0021765151
0.0044091488 0.0033082191 -0.0021765151
-0.0014377659 0.0034999999 -0.0032348484
-0.0016294681 0.0034999999 -0.0032348484
-0.0020128724 0.0034999999 -0.006025
0.0045050001 0.0025410957 -0.0074681817
0.0045050001 0.0026369863 -0.0074681817
0.0045050001 0.0027328767 -0.0074681817
0.0040257447 0.0034999999 -0.0072757574
-0.0042174468 0.0034041095 -0.0064098481
-0.0041215955 0.0034041095 -0.0086227274
-0.0040257447 -0.0034999999 -0.0086227274
-0.0042174468 0.0034041095 -0.0041969698
0.0045050001 0.0028287671 -0.0074681817
-0.0041215955 -0.0034999999 -0.0041969698
0.0031630851 0.0034999999 -0.0071795452
0.0029713828 0.0034999999 -0.0082378788
-0.0032589361 0.0034999999 -0.0065060603
-0.0017253191 0.0034999999 -0.0032348484
-0.0040257447 -0.0034999999 -0.0042931815
-0.0041215955 0.0034041095 -0.0042931815
-0.0025879787 0.0034999999 -0.0010219696
0.0045050001 0.0032123288 -0.0074681817
-0.0033547871 -0.0034999999 -0.0004446969
-0.0041215955 -0.0034999999 -0.0087189395
-0.0045050001 -0.002349315 -0.0051590907
-0.0042174468 0.0034041095 -0.0087189395
-0.0017253191 0.0034999999 -0.006025
0.0034506381 0.0034999999 -0.0071795452
0.0035464892 -0.0034999999 -0.0071795452
0.0041215955 0.0034999999 -0.0021765151
0.0040257447 0.0034999999 -0.0021765151
-0.0041215955 -0.0034999999 -0.0042931815
-0.0034506381 -0.0034999999 -0.00092575751
0.0034506381 -0.0034999999 -0.0039083334
-0.0016294681 0.0034999999 -0.0075643938
-0.0039298935 0.0034041095 -0.0086227274
-0.0042174468 0.0034041095 -0.0042931815
-0.0042174468 -0.0034999999 -0.0087189395
-0.0043132976 0.0034041095 -0.0087189395
-0.0018211702 0.0034999999 -0.0032348484
-0.0038340425 -0.0034999999 -0.0086227274
0.0039298935 -0.0034041095 -0.0072757574
-0.0040257447 0.0034041095 -0.0041969698
0.0045050001 0.0030205478 -0.0074681817
-0.0040257447 -0.0034999999 -0.0041969698
-0.0024921277 0.0034999999 -0.0010219696
-0.0040257447 0.0034041095 -0.0042931815
-0.0018211702 0.0034999999 -0.006025
0.0041215955 0.0034999999 -0.0083340909
-0.0034506381 -0.0034999999 -0.0004446969
0.0033547871 0.0034999999 -0.0071795452
-0.0041215955 0.0034041095 -0.0064098481
-0.0040257447 -0.0034999999 -0.0087189395
-0.0037381914 -0.0034999999 -0.00054090901
-0.0040257447 -0.0034999999 -0.0064098481
0.0045050001 0.0029246574 -0.0074681817
-0.0045050001 0.0032123288 -0.0084303031
0.0045050001 0.0031164382 -0.0074681817
-0.0045050001 -0.0028287671 -0.0039083334
-0.0045050001 0.0030205478 -0.0051590907
-0.0025879787 0.0034999999 -0.0030424241
-0.0016294681 0.0034999999 -0.0063136364
-0.0045050001 -0.0027328767 -0.0039083334
-0.0013419149 0.0034999999 -0.002946212
-0.0022045744 0.0034999999 -0.0018878788
-0.0045050001 -0.0022534246 -0.0051590907
-0.0045050001 -0.0026369863 -0.0039083334
-0.0041215955 0.0034041095 -0.0087189395
0.0034506381 -0.0034999999 -0.0071795452
0.0028755318 0.0034999999 -0.0082378788
-0.0013419149 0.0034999999 -0.0049666665
0.0035464892 0.0034999999 -0.0030424241
0.0044091488 0.0034041095 -0.00082954537
0.0041215955 0.0034999999 -0.0052553029
0.0045050001 -0.0032123288 -0.00082954537
0.0039298935 0.0034999999 -0.0041007577
-0.0020128724 0.0034999999 -0.0084303031
0.0044091488 0.0033082191 -0.0020803029
0.0045050001 -0.0031164382 -0.00082954537
0.0044091488 0.0034041095 -0.0020803029
-0.0031630851 0.0034999999 -0.0073719695
-0.0029713828 0.0034999999 -0.00092575751
0.0045050001 -0.0030205478 -0.00082954537
0.0045050001 0.002349315 -0.0088151516
-0.0018211702 0.0034999999 -0.0050628786
0.0040257447 -0.0034041095 -0.00082954537
0.0045050001 0.0026369863 -0.0085265152
0.0045050001 -0.0032123288 -0.0020803029
0.0045050001 -0.0031164382 -0.0020803029
-0.0045050001 0.0030205478 -0.0017916666
0.0045050001 -0.0030205478 -0.0020803029
0.0033547871 -0.0034999999 -0.0072757574
-0.0045050001 0.0031164382 -0.0017916666
0.0020128724 0.0034999999 -0.0030424241
-0.0040257447 -0.0034999999 -0.0040045455
-0.0032589361 0.0034999999 -0.0086227274
0.0037381914 0.0034999999 -0.0074681817
-0.0019170212 0.0034999999 -0.0018878788
0.0045050001 0.0025410957 -0.0063136364
-0.0023004254 0.0034999999 -0.0052553029
0.0045050001 0.0022534246 -0.0085265152
-0.0045050001 -0.0028287671 -0.0073719695
0.0045050001 0.002349315 -0.0085265152
0.0045050001 0.0026369863 -0.0088151516
0.0045050001 0.0025410957 -0.0088151516
0.0045050001 0.0024452053 -0.0088151516
0.0045050001 0.0024452053 -0.0085265152
0.0045050001 0.0025410957 -0.0085265152
0.0040257447 -0.0034041095 -0.0063136364
0.0045050001 -0.0030205478 -0.00063712115
-0.0045050001 -0.0027328767 -0.0073719695
0.0033547871 -0.0034999999 -0.0018878788
0.0034506381 -0.0034999999 -0.0019840908
0.0044091488 0.0033082191 -0.00082954537
0.0045050001 0.0027328767 -0.00063712115
0.0045050001 0.0026369863 -0.00063712115
0.0040257447 -0.0034041095 -0.0041007577
0.0045050001 0.0025410957 -0.00063712115
0.0045050001 0.0024452053 -0.00063712115
0.0045050001 0.002349315 -0.00063712115
0.0045050001 0.0022534246 -0.00063712115
-0.0045050001 -0.002349315 -0.0073719695
-0.0045050001 -0.0022534246 -0.0073719695
0.0045050001 0.0022534246 -0.0063136364
0.0033547871 -0.0034999999 -0.005351515
0.0040257447 -0.0034041095 -0.0052553029
0.0045050001 0.0022534246 -0.0088151516
-0.0014377659 0.0034999999 -0.0052553029
0.0045050001 0.0022534246 -0.0020803029
0.0045050001 0.002349315 -0.0020803029
-0.0020128724 0.0034999999 -0.0030424241
0.0045050001 0.0024452053 -0.0020803029
-0.0044091488 -0.0033082191 -0.0017916666
-0.0045050001 -0.0024452053 -0.0073719695
-0.0024921277 0.0034999999 -0.0040045455
0.0045050001 0.0025410957 -0.0020803029
0.0045050001 0.0026369863 -0.0020803029
0.0045050001 0.0027328767 -0.0020803029
-0.0035464892 -0.0034999999 -0.0084303031
0.0045050001 0.0028287671 -0.0020803029
0.0045050001 0.0029246574 -0.0020803029
0.0045050001 0.0030205478 -0.0020803029
0.0045050001 0.0031164382 -0.0020803029
0.0045050001 0.0032123288 -0.0020803029
-0.0044091488 -0.0034041095 -0.0017916666
0.0045050001 -0.0031164382 -0.00063712115
0.0045050001 -0.0032123288 -0.00063712115
-0.0041215955 0.0034041095 -0.0040045455
0.0025879787 0.0034999999 -0.0030424241
0.0045050001 0.0024452053 -0.0063136364
-0.0045050001 0.0032123288 -0.0017916666
0.0044091488 0.0034041095 -0.00063712115
0.0044091488 0.0033082191 -0.00063712115
-0.0041215955 0.0034041095 -0.0073719695
-0.0016294681 0.0034999999 -0.002946212
-0.0022045744 0.0034999999 -0.0030424241
-0.0017253191 0.0034999999 -0.002946212
-0.0018211702 0.0034999999 -0.0018878788
0.0035464892 -0.0034999999 -0.0083340909
0.0045050001 0.002349315 -0.0063136364
-0.0040257447 -0.0034999999 -0.0073719695
0.0045050001 0.0027328767 -0.0085265152
0.0040257447 0.0034999999 -0.0052553029
-0.0045050001 -0.0026369863 -0.0073719695
-0.0021087234 0.0034999999 -0.0030424241
-0.0018211702 0.0034999999 -0.002946212
-0.0017253191 0.0034999999 -0.0018878788
-0.0045050001 -0.0025410957 -0.0073719695
-0.0020128724 0.0034999999 -0.0052553029
-0.0043132976 -0.0034041095 -0.00054090901
-0.0045050001 0.0030205478 -0.0062174243
-0.0023004254 0.0034999999 -0.0084303031
-0.0045050001 0.0031164382 -0.0062174243
-0.0023962765 0.0034999999 -0.0030424241
-0.0014377659 0.0034999999 -0.0063136364
-0.0045050001 0.0032123288 -0.0062174243
-0.0016294681 0.0034999999 -0.0050628786
-0.001533617 0.0034999999 -0.002946212
0.0044091488 0.0033082191 -0.0052553029
0.0045050001 0.0022534246 -0.0018878788
-0.0044091488 0.0034041095 -0.00054090901
-0.0033547871 -0.0034999999 -0.0086227274
0.001533617 0.0034999999 -0.0054477272
-0.0034506381 -0.0034999999 -0.0041969698
-0.0032589361 0.0034999999 -0.0031386362
-0.0030672341 0.0034999999 -0.00092575751
0.0034506381 -0.0034999999 -0.0072757574
-0.0020128724 0.0034999999 -0.0018878788
-0.0017253191 0.0034999999 -0.0050628786
-0.0021087234 0.0034999999 -0.0084303031
0.0045050001 0.0029246574 -0.0088151516
-0.0022045744 0.0034999999 -0.0084303031
-0.0045050001 0.0031164382 -0.0084303031
0.0045050001 -0.0032123288 -0.0085265152
0.0045050001 -0.0031164382 -0.0085265152
0.0045050001 -0.0030205478 -0.0085265152
0.0045050001 0.0025410957 -0.0018878788
0.0045050001 0.0024452053 -0.0018878788
0.0045050001 0.002349315 -0.0018878788
0.0045050001 0.0032123288 -0.0063136364
0.0045050001 0.0032123288 -0.0088151516
0.0044091488 0.0034041095 -0.0074681817
-0.0045050001 0.0030205478 -0.0084303031
0.0036423404 0.0034999999 -0.0074681817
-0.0045050001 -0.0029246574 -0.0073719695
-0.0041215955 -0.0034999999 -0.00063712115
0.0045050001 0.0031164382 -0.0088151516
0.0045050001 0.0030205478 -0.0088151516
-0.0042174468 -0.0034999999 -0.00054090901
-0.0043132976 0.0034041095 -0.00054090901
-0.0034506381 -0.0034999999 -0.0086227274
0.0044091488 0.0033082191 -0.0074681817
0.0014377659 0.0034999999 -0.0054477272
-0.0035464892 -0.0034999999 -0.0041969698
-0.0031630851 0.0034999999 -0.00092575751
0.0035464892 -0.0034999999 -0.0072757574
-0.0045050001 -0.0028287671 -0.00054090901
0.0016294681 0.0034999999 -0.0054477272
0.0035464892 0.0034999999 -0.0074681817
-0.0031630851 0.0034999999 -0.0031386362
-0.0045050001 -0.0022534246 -0.00054090901
-0.0045050001 -0.002349315 -0.00054090901
-0.0044091488 0.0034041095 -0.0062174243
-0.0045050001 -0.0024452053 -0.00054090901
0.0045050001 0.0027328767 -0.0063136364
-0.0045050001 -0.0025410957 -0.00054090901
-0.0045050001 -0.0026369863 -0.00054090901
-0.0023004254 0.0034999999 -0.0030424241
-0.0013419149 0.0034999999 -0.0063136364
0.0045050001 0.0026369863 -0.0063136364
-0.0045050001 -0.0027328767 -0.00054090901
-0.0033547871 -0.0034999999 -0.0041969698
-0.0045050001 -0.0029246574 -0.00054090901
-0.0045050001 -0.0030205478 -0.00054090901
-0.0045050001 -0.0031164382 -0.00054090901
-0.0045050001 -0.0032123288 -0.00054090901
0.0045050001 0.0032123288 -0.00063712115
0.0035464892 -0.0034999999 -0.0063136364
0.0045050001 0.0031164382 -0.00063712115
0.0045050001 0.0030205478 -0.00063712115
0.0045050001 0.0029246574 -0.00063712115
0.0045050001 0.0028287671 -0.00063712115
-0.0029713828 0.0034999999 -0.0084303031
0.0045050001 0.0027328767 -0.0088151516
-0.0045050001 -0.0024452053 -0.0017916666
0.0024921277 0.0034999999 -0.0030424241
-0.0040257447 0.0034041095 -0.0040045455
-0.0013419149 0.0034999999 -0.0052553029
-0.0042174468 0.0034041095 -0.0073719695
-0.0041215955 -0.0034999999 -0.0073719695
0.0045050001 0.0031164382 -0.0063136364
-0.0045050001 -0.002349315 -0.0039083334
-0.0045050001 -0.0022534246 -0.0039083334
-0.0045050001 -0.0027328767 -0.0017916666
0.0045050001 0.0028287671 -0.0088151516
-0.0045050001 -0.0026369863 -0.0017916666
-0.0034506381 -0.0034999999 -0.0084303031
-0.0045050001 -0.0025410957 -0.0017916666
-0.0016294681 0.0034999999 -0.0086227274
-0.0045050001 -0.002349315 -0.0017916666
0.0045050001 0.0030205478 -0.0063136364
-0.0044091488 -0.0033082191 -0.00054090901
-0.0045050001 -0.0022534246 -0.0017916666
-0.0022045744 0.0034999999 -0.0052553029
-0.0045050001 0.0032123288 -0.00054090901
-0.0045050001 0.0031164382 -0.00054090901
0.0045050001 0.0029246574 -0.0063136364
-0.0045050001 0.0030205478 -0.00054090901
0.0045050001 0.0028287671 -0.0063136364
-0.0025879787 0.0034999999 -0.0081416667
-0.0016294681 0.0034999999 -0.0070833331
0.001533617 0.0034999999 -0.00063712115
-0.0045050001 0.0030205478 -0.0026575758
-0.0045050001 0.0031164382 -0.0026575758
-0.0045050001 0.0032123288 -0.0026575758
0.0040257447 -0.0034041095 -0.0030424241
-0.0040257447 0.0034041095 -0.0062174243
0.0039298935 -0.0034041095 -0.0085265152
-0.0044091488 -0.0034041095 -0.0026575758
-0.0044091488 -0.0033082191 -0.0026575758
-0.0030672341 0.0034999999 -0.0076606059
-0.001533617 0.0034999999 -0.0070833331
-0.0031630851 0.0034999999 -0.0076606059
0.0045050001 0.0029246574 -0.0073719695
-0.0044091488 0.0034041095 -0.0026575758
0.0045050001 0.0024452053 -0.0051590907
0.0045050001 0.002349315 -0.0051590907
-0.0024921277 0.0034999999 -0.0081416667
-0.0014377659 0.0034999999 -0.0070833331
-0.0032589361 0.0034999999 -0.0076606059
0.0040257447 -0.0034041095 -0.0033310605
0.0045050001 0.0022534246 -0.0051590907
0.0039298935 0.0034999999 -0.0033310605
-0.0022045744 0.0034999999 -0.0016954545
-0.0043132976 0.0034041095 -0.0052553029
0.0045050001 0.0022534246 -0.0027537877
0.0045050001 0.002349315 -0.0027537877
0.0045050001 0.0024452053 -0.0027537877
0.0045050001 0.0025410957 -0.0027537877
0.0045050001 0.0026369863 -0.0027537877
0.0045050001 0.0027328767 -0.0027537877
0.0045050001 0.0028287671 -0.0027537877
0.0045050001 0.0029246574 -0.0027537877
0.0045050001 0.0030205478 -0.0027537877
0.0045050001 0.0031164382 -0.0027537877
0.0045050001 0.0032123288 -0.0027537877
0.0020128724 0.0034999999 -0.0085265152
-0.0024921277 0.0034999999 -0.0062174243
0.0045050001 0.0026369863 -0.0051590907
-0.0043132976 0.0034041095 -0.0026575758
0.0045050001 0.0025410957 -0.0051590907
0.0031630851 0.0034999999 -0.0074681817
0.0039298935 0.0034999999 -0.0030424241
-0.0045050001 -0.0032123288 -0.0026575758
-0.0045050001 -0.0031164382 -0.0026575758
-0.0045050001 -0.0030205478 -0.0026575758
-0.0045050001 -0.0029246574 -0.0026575758
-0.0045050001 -0.0028287671 -0.0026575758
-0.0045050001 -0.0027328767 -0.0026575758
-0.0045050001 -0.0026369863 -0.0026575758
-0.0045050001 -0.0025410957 -0.0026575758
-0.0045050001 -0.0024452053 -0.0026575758
-0.0045050001 -0.002349315 -0.0026575758
-0.0045050001 -0.0022534246 -0.0026575758
0.0014377659 0.0034999999 -0.00063712115
0.0035464892 0.0034999999 -0.0033310605
0.0035464892 -0.0034999999 -0.0049666665
-0.0020128724 0.0034999999 -0.0081416667
-0.0013419149 0.0034999999 -0.0055439393
-0.0029713828 0.0034999999 -0.0037159091
0.0035464892 -0.0034999999 -0.0033310605
0.0034506381 0.0034999999 -0.0033310605
-0.0026838297 0.0034999999 -0.0061212122
-0.0019170212 0.0034999999 -0.0081416667
-0.0014377659 0.0034999999 -0.0055439393
-0.0030672341 0.0034999999 -0.0037159091
-0.0019170212 0.0034999999 -0.0019840908
-0.0020128724 0.0034999999 -0.0028499998
-0.0023004254 0.0034999999 -0.0016954545
-0.0028755318 0.0034999999 -0.0037159091
-0.0045050001 -0.0027328767 -0.0084303031
0.0034506381 -0.0034999999 -0.0033310605
0.0033547871 -0.0034999999 -0.0015992423
0.0033547871 0.0034999999 -0.0033310605
-0.0018211702 0.0034999999 -0.0081416667
-0.001533617 0.0034999999 -0.0055439393
-0.0045050001 -0.0026369863 -0.0084303031
0.0045050001 0.0031164382 -0.0073719695
-0.0039298935 0.0034041095 -0.0076606059
0.0045050001 0.0032123288 -0.0073719695
0.0045050001 -0.0031164382 -0.0051590907
-0.0019170212 0.0034999999 -0.0028499998
-0.0042174468 -0.0034999999 -0.0026575758
-0.0023962765 0.0034999999 -0.0081416667
-0.0013419149 0.0034999999 -0.0070833331
0.0045050001 0.0030205478 -0.0073719695
0.0039298935 -0.0034041095 -0.0033310605
0.0038340425 0.0034999999 -0.0033310605
-0.0042174468 0.0034041095 -0.0026575758
-0.0041215955 -0.0034999999 -0.0026575758
0.0014377659 0.0034999999 -0.0075643938
-0.0023004254 0.0034999999 -0.0081416667
0.0045050001 -0.0030205478 -0.0051590907
-0.0041215955 0.0034041095 -0.0026575758
-0.0040257447 -0.0034999999 -0.0026575758
-0.0026838297 0.0034999999 -0.0081416667
0.0037381914 0.0034999999 -0.0033310605
-0.0032589361 0.0034999999 -0.0037159091
0.0033547871 -0.0034999999 -0.0049666665
-0.0022045744 0.0034999999 -0.0081416667
0.0045050001 -0.0032123288 -0.0051590907
-0.0040257447 0.0034041095 -0.0026575758
0.0036423404 0.0034999999 -0.0033310605
-0.0031630851 0.0034999999 -0.0037159091
0.0034506381 -0.0034999999 -0.0049666665
-0.0021087234 0.0034999999 -0.0081416667
-0.0039298935 0.0034041095 -0.0026575758
0.0044091488 0.0034041095 -0.0051590907
0.0044091488 0.0033082191 -0.0051590907
-0.0041215955 -0.0034999999 -0.0017916666
0.0033547871 -0.0034999999 -0.0011181817
-0.0021087234 0.0034999999 -0.0070833331
-0.0045050001 -0.0022534246 -0.0032348484
-0.0045050001 -0.002349315 -0.0032348484
-0.0045050001 -0.0024452053 -0.0032348484
-0.0045050001 -0.0025410957 -0.0032348484
-0.0045050001 -0.0026369863 -0.0032348484
-0.0045050001 -0.0027328767 -0.0032348484
-0.0045050001 -0.0028287671 -0.0032348484
-0.0045050001 -0.0029246574 -0.0032348484
0.0045050001 0.0025410957 -0.0073719695
0.0045050001 0.0026369863 -0.0073719695
0.0045050001 0.0027328767 -0.0073719695
-0.0032589361 0.0034999999 -0.002946212
-0.0026838297 0.0034999999 -0.0076606059
0.0045050001 0.0028287671 -0.0073719695
0.0040257447 -0.0034041095 -0.0085265152
0.0039298935 0.0034999999 -0.0085265152
0.0045050001 0.0032123288 -0.0033310605
0.0045050001 0.0031164382 -0.0033310605
0.0045050001 0.0030205478 -0.0033310605
0.0045050001 0.0029246574 -0.0033310605
0.0045050001 0.0028287671 -0.0033310605
0.0045050001 0.0027328767 -0.0033310605
0.0045050001 0.0026369863 -0.0033310605
0.0045050001 0.0025410957 -0.0033310605
0.0045050001 0.0024452053 -0.0033310605
0.0045050001 0.002349315 -0.0033310605
0.0045050001 0.0022534246 -0.0033310605
-0.0042174468 0.0034041095 -0.0037159091
-0.0045050001 -0.0028287671 -0.0084303031
-0.0041215955 -0.0034999999 -0.0037159091
0.0040257447 -0.0034041095 -0.0027537877
-0.0031630851 0.0034999999 -0.0081416667
-0.0025879787 0.0034999999 -0.0076606059
0.0034506381 -0.0034999999 -0.0011181817
0.0013419149 0.0034999999 -0.0043893936
-0.0044091488 -0.0030205478 -0.0032348484
-0.0044091488 -0.0031164382 -0.0032348484
-0.0022045744 0.0034999999 -0.0070833331
-0.0044091488 -0.0032123288 -0.0032348484
-0.0040257447 0.0034041095 -0.0037159091
-0.0045050001 0.0031164382 -0.00082954537
-0.0045050001 0.0030205478 -0.00082954537
-0.0022045744 0.0034999999 -0.0040045455
-0.0045050001 0.0032123288 -0.0032348484
-0.0045050001 0.0031164382 -0.0032348484
-0.0045050001 0.0030205478 -0.0032348484
-0.0041215955 0.0034041095 -0.0037159091
-0.0040257447 -0.0034999999 -0.0037159091
0.0040257447 0.0034999999 -0.0027537877
0.0045050001 0.0022534246 -0.0073719695
0.0045050001 0.002349315 -0.0073719695
0.0045050001 0.0024452053 -0.0073719695
-0.0030672341 0.0034999999 -0.0081416667
0.0019170212 0.0034999999 -0.0085265152
-0.0044091488 0.0034041095 -0.0052553029
-0.0045050001 -0.0030205478 -0.0050628786
-0.0045050001 -0.0031164382 -0.0050628786
-0.0045050001 -0.0032123288 -0.0050628786
-0.0027796808 0.0034999999 -0.0073719695
-0.0027796808 0.0034999999 -0.0081416667
-0.0018211702 0.0034999999 -0.0070833331
0.0045050001 0.0032123288 -0.0051590907
-0.0029713828 0.0034999999 -0.0076606059
0.0045050001 0.0031164382 -0.0051590907
-0.0045050001 -0.0029246574 -0.0050628786
0.0044091488 0.0033082191 -0.0027537877
0.0044091488 0.0034041095 -0.0027537877
-0.0026838297 0.0034999999 -0.0052553029
0.0045050001 0.0030205478 -0.0051590907
-0.0029713828 0.0034999999 -0.00073333329
0.0045050001 -0.0032123288 -0.0027537877
0.0045050001 -0.0031164382 -0.0027537877
0.0045050001 -0.0030205478 -0.0027537877
0.0045050001 0.0029246574 -0.0051590907
0.0045050001 0.0028287671 -0.0051590907
0.0016294681 0.0034999999 -0.0041007577
0.0045050001 0.0027328767 -0.0051590907
-0.0017253191 0.0034999999 -0.0070833331
0.0041215955 0.0034999999 -0.0027537877
-0.0029713828 0.0034999999 -0.0081416667
-0.0020128724 0.0034999999 -0.0070833331
-0.0027796808 0.0034999999 -0.0076606059
-0.0045050001 -0.0022534246 -0.0050628786
0.0045050001 -0.0030205478 -0.0033310605
0.0045050001 -0.0031164382 -0.0033310605
0.0045050001 -0.0032123288 -0.0033310605
-0.0045050001 -0.002349315 -0.0050628786
0.0035464892 0.0034999999 -0.0041007577
-0.0016294681 0.0034999999 -0.0084303031
-0.0045050001 -0.0024452053 -0.0050628786
0.0044091488 0.0034041095 -0.0033310605
0.0044091488 0.0033082191 -0.0033310605
-0.0027796808 0.0034999999 -0.0037159091
-0.0045050001 -0.0025410957 -0.0050628786
0.001533617 0.0034999999 -0.0041007577
-0.0045050001 -0.0026369863 -0.0050628786
-0.0039298935 0.0034041095 -0.0037159091
-0.0045050001 -0.0027328767 -0.0050628786
-0.0023962765 0.0034999999 -0.0062174243
-0.0045050001 -0.0028287671 -0.0050628786
-0.0028755318 0.0034999999 -0.0081416667
-0.0019170212 0.0034999999 -0.0070833331
-0.0028755318 0.0034999999 -0.0076606059
-0.0045050001 0.0030205478 -0.0048704543
-0.0045050001 0.0031164382 -0.0048704543
-0.0045050001 0.0032123288 -0.0048704543
-0.0021087234 0.0034999999 -0.0028499998
-0.0023962765 0.0034999999 -0.0016954545
-0.0044091488 -0.0034041095 -0.0048704543
-0.0044091488 -0.0033082191 -0.0048704543
0.0027796808 0.0034999999 -0.0030424241
-0.0028755318 0.0034999999 -0.0026575758
-0.0042174468 -0.0034999999 -0.0084303031
-0.0017253191 0.0034999999 -0.0021765151
-0.0020128724 0.0034999999 -0.0037159091
0.0045050001 -0.0030205478 -0.0077568181
0.0045050001 -0.0031164382 -0.0077568181
0.0045050001 -0.0032123288 -0.0077568181
-0.0026838297 0.0034999999 -0.0062174243
-0.0041215955 0.0034041095 -0.0052553029
0.0044091488 0.0033082191 -0.0054477272
0.0044091488 0.0034041095 -0.0077568181
-0.0045050001 -0.0024452053 -0.0048704543
0.0045050001 0.0028287671 -0.0049666665
0.0045050001 0.0029246574 -0.0049666665
0.0045050001 0.0030205478 -0.0049666665
0.0045050001 0.0031164382 -0.0049666665
0.0045050001 0.0032123288 -0.0049666665
-0.0041215955 0.0034041095 -0.0017916666
-0.0045050001 -0.0032123288 -0.0048704543
-0.0045050001 -0.0031164382 -0.0048704543
-0.0045050001 -0.0030205478 -0.0048704543
-0.0045050001 -0.0029246574 -0.0048704543
-0.0045050001 -0.0028287671 -0.0048704543
-0.0045050001 -0.0027328767 -0.0048704543
-0.0045050001 -0.0026369863 -0.0048704543
-0.0045050001 -0.0025410957 -0.0048704543
0.0044091488 0.0033082191 -0.0077568181
-0.0045050001 -0.002349315 -0.0048704543
-0.0045050001 -0.0022534246 -0.0048704543
0.0045050001 0.0030205478 -0.0077568181
0.0045050001 0.0029246574 -0.0077568181
0.0045050001 0.0028287671 -0.0077568181
0.0045050001 0.0027328767 -0.0077568181
0.0045050001 0.0026369863 -0.0077568181
0.0045050001 0.0025410957 -0.0077568181
0.0045050001 0.0024452053 -0.0077568181
0.0045050001 0.002349315 -0.0077568181
0.0045050001 0.0022534246 -0.0077568181
0.0040257447 0.0034999999 -0.0015992423
0.0026838297 0.0034999999 -0.0033310605
-0.0023004254 0.0034999999 -0.0055439393
-0.0017253191 0.0034999999 -0.0037159091
-0.001533617 0.0034999999 -0.0088151516
-0.0045050001 -0.0026369863 -0.0072757574
-0.0045050001 -0.0025410957 -0.0072757574
-0.0045050001 -0.0024452053 -0.0072757574
-0.0045050001 -0.002349315 -0.0072757574
-0.0025879787 0.0034999999 -0.0026575758
-0.0013419149 0.0034999999 -0.0043893936
0.0045050001 -0.0032123288 -0.0054477272
-0.0025879787 0.0034999999 -0.0055439393
-0.0042174468 0.0034041095 -0.0048704543
0.0045050001 -0.0031164382 -0.0054477272
-0.0041215955 -0.0034999999 -0.0048704543
0.0023962765 0.0034999999 -0.0033310605
-0.0020128724 0.0034999999 -0.0021765151
-0.0018211702 0.0034999999 -0.0037159091
-0.0016294681 0.0034999999 -0.0088151516
0.0044091488 0.0033082191 -0.0015992423
0.0045050001 -0.0030205478 -0.0054477272
-0.0017253191 0.0034999999 -0.0019840908
-0.0039298935 0.0034041095 -0.0073719695
0.0044091488 0.0034041095 -0.0015992423
0.0016294681 0.0034999999 -0.0075643938
-0.0028755318 0.0034999999 -0.0061212122
-0.0022045744 0.0034999999 -0.0028499998
0.0019170212 0.0034999999 -0.0041007577
0.0041215955 0.0034999999 -0.0015992423
-0.0013419149 0.0034999999 -0.0088151516
-0.0045050001 -0.0024452053 -0.0084303031
-0.0045050001 -0.002349315 -0.0084303031
-0.0027796808 0.0034999999 -0.0026575758
-0.0023962765 0.0034999999 -0.0055439393
0.0025879787 0.0034999999 -0.0033310605
-0.0044091488 0.0034041095 -0.0048704543
-0.0040257447 -0.0034999999 -0.0052553029
0.0045050001 0.0027328767 -0.0049666665
-0.0018211702 0.0034999999 -0.0021765151
-0.0019170212 0.0034999999 -0.0037159091
-0.0045050001 -0.0022534246 -0.0084303031
-0.0014377659 0.0034999999 -0.0088151516
-0.0027796808 0.0034999999 -0.0017916666
0.0044091488 0.0034041095 -0.0054477272
-0.0026838297 0.0034999999 -0.0026575758
-0.0024921277 0.0034999999 -0.0055439393
-0.0043132976 0.0034041095 -0.0048704543
-0.0045050001 -0.0027328767 -0.0072757574
-0.0042174468 -0.0034999999 -0.0048704543
0.0024921277 0.0034999999 -0.0033310605
-0.0019170212 0.0034999999 -0.0021765151
-0.0023962765 0.0034999999 -0.0037159091
-0.0041215955 -0.0034999999 -0.0076606059
-0.0025879787 0.0034999999 -0.0017916666
-0.0042174468 0.0034041095 -0.0076606059
-0.0024921277 0.0034999999 -0.0037159091
-0.0014377659 0.0034999999 -0.0081416667
0.0036423404 0.0034999999 -0.0015992423
-0.0027796808 0.0034999999 -0.0061212122
0.0029713828 0.0034999999 -0.0033310605
-0.0019170212 0.0034999999 -0.0055439393
-0.0032589361 0.0034999999 -0.0026575758
0.0041215955 0.0034999999 -0.0049666665
-0.0018211702 0.0034999999 -0.0019840908
-0.0042174468 -0.0034999999 -0.0076606059
-0.0043132976 0.0034041095 -0.0076606059
0.001533617 0.0034999999 -0.0075643938
-0.0013419149 0.0034999999 -0.0021765151
-0.0013419149 0.0034999999 -0.0081416667
0.0037381914 0.0034999999 -0.0015992423
-0.0020128724 0.0034999999 -0.0055439393
0.0028755318 0.0034999999 -0.0033310605
-0.0031630851 0.0034999999 -0.0026575758
0.0017253191 0.0034999999 -0.0041007577
0.0021087234 0.0034999999 -0.0085265152
-0.0025879787 0.0034999999 -0.0062174243
-0.0044091488 0.0034041095 -0.0076606059
-0.0014377659 0.0034999999 -0.0021765151
-0.0023004254 0.0034999999 -0.0037159091
-0.0042174468 0.0034041095 -0.0052553029
0.0038340425 0.0034999999 -0.0015992423
-0.0017253191 0.0034999999 -0.0055439393
0.0034506381 -0.0034999999 -0.0015992423
-0.0017253191 0.0034999999 -0.0081416667
0.0033547871 -0.0034999999 -0.0033310605
0.0032589361 0.0034999999 -0.0033310605
-0.0016294681 0.0034999999 -0.0055439393
0.0044091488 0.0033082191 -0.0018878788
0.0034506381 -0.0034999999 -0.0018878788
-0.0040257447 0.0034041095 -0.0076606059
0.0044091488 0.0034041095 -0.0018878788
0.0039298935 -0.0034041095 -0.0049666665
-0.0026838297 0.0034999999 -0.0037159091
-0.0016294681 0.0034999999 -0.0081416667
0.0035464892 -0.0034999999 -0.0015992423
0.0031630851 0.0034999999 -0.0033310605
0.0039298935 -0.0034041095 -0.0015992423
-0.0045050001 -0.0025410957 -0.0084303031
-0.0042174468 -0.0034999999 -0.0052553029
-0.0040257447 -0.0034999999 -0.0076606059
-0.0041215955 0.0034041095 -0.0076606059
0.0040257447 -0.0034041095 -0.0049666665
-0.0025879787 0.0034999999 -0.0037159091
-0.001533617 0.0034999999 -0.0081416667
0.0035464892 0.0034999999 -0.0015992423
-0.0045050001 -0.0032123288 -0.0072757574
0.0030672341 0.0034999999 -0.0033310605
-0.0018211702 0.0034999999 -0.0055439393
-0.0045050001 -0.0031164382 -0.0072757574
0.0040257447 0.0034999999 -0.0049666665
0.0013419149 0.0034999999 -0.00063712115
-0.0045050001 -0.0028287671 -0.0076606059
0.0018211702 0.0034999999 -0.0041007577
-0.0021087234 0.0034999999 -0.0040045455
0.0045050001 -0.0032123288 -0.0049666665
0.0045050001 -0.0031164382 -0.0049666665
0.0045050001 -0.0030205478 -0.0049666665
-0.0022045744 0.0034999999 -0.0055439393
-0.0029713828 0.0034999999 -0.0026575758
-0.0045050001 -0.0022534246 -0.0076606059
-0.0045050001 -0.002349315 -0.0076606059
-0.0045050001 -0.0024452053 -0.0076606059
-0.0016294681 0.0034999999 -0.0021765151
-0.0045050001 -0.0025410957 -0.0076606059
-0.0045050001 -0.0026369863 -0.0076606059
-0.0045050001 -0.0027328767 -0.0076606059
-0.0026838297 0.0034999999 -0.0017916666
-0.0021087234 0.0034999999 -0.0037159091
-0.0045050001 -0.0029246574 -0.0076606059
-0.0045050001 -0.0030205478 -0.0076606059
-0.0045050001 -0.0031164382 -0.0076606059
-0.0045050001 -0.0032123288 -0.0076606059
0.0022045744 0.0034999999 -0.0085265152
0.0041215955 0.0034999999 -0.0063136364
0.0045050001 0.0032123288 -0.0077568181
0.0045050001 0.0031164382 -0.0077568181
0.0045050001 0.0022534246 -0.0049666665
0.0045050001 0.002349315 -0.0049666665
0.0045050001 0.0024452053 -0.0049666665
0.0045050001 0.0025410957 -0.0049666665
0.0045050001 0.0026369863 -0.0049666665
-0.0045050001 0.0031164382 -0.0076606059
-0.0021087234 0.0034999999 -0.0055439393
-0.0030672341 0.0034999999 -0.0026575758
0.0027796808 0.0034999999 -0.0033310605
-0.001533617 0.0034999999 -0.0021765151
-0.0044091488 -0.0033082191 -0.0076606059
-0.0022045744 0.0034999999 -0.0037159091
-0.0044091488 -0.0034041095 -0.0076606059
0.0038340425 0.0034999999 -0.0085265152
-0.0045050001 0.0032123288 -0.0076606059
-0.0023004254 0.0034999999 -0.0070833331
-0.0045050001 0.0030205478 -0.0076606059
0.0039298935 0.0034999999 -0.0015992423
-0.0045050001 -0.0030205478 -0.0072757574
0.0040257447 -0.0034041095 -0.0015992423
-0.0045050001 -0.0029246574 -0.0072757574
0.0044091488 0.0033082191 -0.0049666665
0.0044091488 0.0034041095 -0.0049666665
-0.0045050001 -0.0028287671 -0.0072757574
-0.0041215955 -0.0034999999 -0.0052553029
-0.0039298935 0.0034041095 -0.0070833331
0.0024921277 0.0034999999 -0.00063712115
-0.0031630851 0.0034999999 -0.0032348484
-0.0018211702 0.0034999999 -0.0061212122
0.0033547871 0.0034999999 -0.0054477272
0.0014377659 0.0034999999 -0.0041007577
0.0034506381 -0.0034999999 -0.0054477272
0.0044091488 0.0033082191 -0.0082378788
0.0044091488 0.0034041095 -0.0082378788
-0.0017253191 0.0034999999 -0.0064098481
-0.0031630851 0.0034999999 -0.002946212
-0.0013419149 0.0034999999 -0.0086227274
-0.0023004254 0.0034999999 -0.0062174243
-0.0014377659 0.0034999999 -0.0016954545
0.0018211702 0.0034999999 -0.0085265152
0.0045050001 -0.0032123288 -0.0082378788
0.0045050001 -0.0031164382 -0.0082378788
0.0045050001 -0.0030205478 -0.0082378788
0.0030672341 0.0034999999 -0.0043893936
-0.0040257447 -0.0034999999 -0.0010219696
-0.0014377659 0.0034999999 -0.0031386362
-0.0041215955 0.0034041095 -0.0010219696
-0.0013419149 0.0034999999 -0.0004446969
-0.0014377659 0.0034999999 -0.0041969698
0.0041215955 0.0034999999 -0.0066022724
-0.001533617 0.0034999999 -0.0004446969
-0.0018211702 0.0034999999 -0.0064098481
-0.0014377659 0.0034999999 -0.0086227274
0.0030672341 0.0034999999 -0.0088151516
-0.0041215955 0.0034041095 -0.0070833331
-0.0013419149 0.0034999999 -0.0016954545
-0.0040257447 -0.0034999999 -0.0070833331
-0.0039298935 0.0034041095 -0.0010219696
0.0021087234 0.0034999999 -0.0027537877
0.0033547871 -0.0034999999 -0.0043893936
0.0032589361 0.0034999999 -0.0043893936
0.0034506381 -0.0034999999 -0.003812121
-0.0027796808 0.0034999999 -0.0019840908
-0.0030672341 0.0034999999 -0.0032348484
-0.0045050001 -0.0024452053 -0.0052553029
0.0029713828 0.0034999999 -0.0088151516
-0.0045050001 -0.002349315 -0.0052553029
-0.0045050001 -0.0022534246 -0.0052553029
-0.001533617 0.0034999999 -0.0031386362
-0.0040257447 0.0034041095 -0.0070833331
0.0031630851 0.0034999999 -0.0043893936
0.0022045744 0.0034999999 -0.0027537877
-0.001533617 0.0034999999 -0.0041969698
-0.0040257447 0.0034041095 -0.0010219696
-0.0014377659 0.0034999999 -0.0004446969
0.0035464892 -0.0034999999 -0.003812121
-0.0028755318 0.0034999999 -0.0019840908
0.0028755318 0.0034999999 -0.0043893936
-0.001533617 0.0034999999 -0.0016954545
-0.0042174468 0.0034041095 -0.0010219696
-0.0013419149 0.0034999999 -0.0076606059
-0.0032589361 0.0034999999 -0.0032348484
-0.0013419149 0.0034999999 -0.0031386362
-0.0013419149 0.0034999999 -0.0041969698
0.0040257447 0.0034999999 -0.0066022724
0.0023004254 0.0034999999 -0.00063712115
-0.0045050001 0.0030205478 -0.0081416667
-0.0026838297 0.0034999999 -0.0019840908
-0.0045050001 0.0031164382 -0.0081416667
-0.0045050001 0.0032123288 -0.0081416667
-0.0020128724 0.0034999999 -0.0061212122
-0.0023962765 0.0034999999 -0.0017916666
-0.0041215955 -0.0034999999 -0.0010219696
0.0035464892 0.0034999999 -0.0054477272
-0.0045050001 0.0030205478 -0.0052553029
-0.0044091488 -0.0034041095 -0.0081416667
-0.001533617 0.0034999999 -0.0064098481
-0.0039298935 0.0034041095 -0.0050628786
-0.0044091488 -0.0033082191 -0.0081416667
-0.0042174468 -0.0034999999 -0.0010219696
-0.0016294681 0.0034999999 -0.0016954545
0.0022045744 0.0034999999 -0.00063712115
0.0045050001 0.0022534246 -0.0082378788
0.0045050001 0.002349315 -0.0082378788
0.0045050001 0.0024452053 -0.0082378788
0.0045050001 0.0025410957 -0.0082378788
0.0045050001 0.0026369863 -0.0082378788
0.0045050001 0.0027328767 -0.0082378788
0.0045050001 0.0028287671 -0.0082378788
0.0023962765 0.0034999999 -0.00063712115
0.0045050001 0.0029246574 -0.0082378788
0.0045050001 0.0030205478 -0.0082378788
0.0045050001 0.0031164382 -0.0082378788
-0.0019170212 0.0034999999 -0.0061212122
0.0045050001 0.0032123288 -0.0082378788
0.0034506381 0.0034999999 -0.0054477272
0.0035464892 -0.0034999999 -0.0054477272
-0.0016294681 0.0034999999 -0.0064098481
-0.0045050001 -0.0032123288 -0.0081416667
-0.0045050001 -0.0031164382 -0.0081416667
-0.0045050001 -0.0030205478 -0.0081416667
-0.0045050001 -0.0029246574 -0.0081416667
0.0029713828 0.0034999999 -0.0043893936
-0.0045050001 -0.0028287671 -0.0081416667
-0.0045050001 -0.0027328767 -0.0081416667
-0.0045050001 -0.0026369863 -0.0081416667
-0.0045050001 -0.0025410957 -0.0081416667
-0.0045050001 -0.0024452053 -0.0081416667
-0.0045050001 -0.002349315 -0.0081416667
-0.0045050001 -0.0022534246 -0.0081416667
-0.0017253191 0.0034999999 -0.0061212122
-0.0044091488 0.0034041095 -0.0065060603
-0.0019170212 0.0034999999 -0.0004446969
0.0040257447 0.0034999999 -0.0082378788
-0.0029713828 0.0034999999 -0.0019840908
-0.0016294681 0.0034999999 -0.0041969698
0.0025879787 0.0034999999 -0.00063712115
-0.0044091488 0.0034041095 -0.0070833331
-0.0045050001 -0.0032123288 -0.0052553029
0.0034506381 -0.0034999999 -0.0088151516
0.0033547871 0.0034999999 -0.0088151516
0.0018211702 0.0034999999 -0.0027537877
0.0035464892 0.0034999999 -0.0043893936
-0.0043132976 0.0034041095 -0.0017916666
-0.0044091488 -0.0033082191 -0.0065060603
-0.0044091488 -0.0034041095 -0.0065060603
-0.0045050001 -0.0031164382 -0.0052553029
-0.0045050001 -0.0030205478 -0.0052553029
-0.0045050001 -0.0029246574 -0.0052553029
-0.0045050001 0.0032123288 -0.0065060603
-0.0045050001 0.0031164382 -0.0065060603
-0.0045050001 0.0030205478 -0.0065060603
-0.0018211702 0.0034999999 -0.0004446969
0.0034506381 0.0034999999 -0.0088151516
0.0040257447 -0.0034041095 -0.0082378788
-0.0020128724 0.0034999999 -0.0004446969
0.0017253191 0.0034999999 -0.0027537877
-0.0045050001 0.0030205478 -0.0070833331
-0.0045050001 0.0031164382 -0.0070833331
-0.0045050001 0.0032123288 -0.0070833331
-0.0016294681 0.0034999999 -0.0061212122
-0.0030672341 0.0034999999 -0.0019840908
0.0045050001 0.0030205478 -0.005351515
-0.0044091488 -0.0034041095 -0.0070833331
-0.0044091488 -0.0033082191 -0.0070833331
0.0035464892 -0.0034999999 -0.0088151516
-0.0028755318 0.0034999999 -0.0032348484
-0.0017253191 0.0034999999 -0.0041969698
-0.0014377659 0.0034999999 -0.00092575751
0.0026838297 0.0034999999 -0.00063712115
