# .PCD v0.7 - Point Cloud Data file format
VERSION 0.7
FIELDS x y z
SIZE 4 4 4
TYPE F F F
COUNT 1 1 1
WIDTH 1217
HEIGHT 1
VIEWPOINT 0 0 0 1 0 0 0
POINTS 1217
DATA ascii
0.0052499832 0.0077631082 -0.035647269
0.0052499501 0.0077631501 -0.03525155
0.0038062402 0.0076316404 -0.035251588
0.0038062744 0.0076315133 -0.034855783
0.0043311929 0.0076316325 -0.035647258
0.00485624 0.0076315906 -0.035647191
0.0048562484 0.0076315757 -0.03525155
0.014831278 0.0092104888 -0.035251506
0.015356234 0.009210553 -0.03432817
0.015356233 0.0092105297 -0.034855794
0.015750002 0.0093421582 -0.034855787
0.016143806 0.0093420874 -0.034855824
0.019162489 0.00723689 -0.038812898
0.016143771 0.0093420846 -0.036174901
0.016143763 0.009342161 -0.036702387
0.012731231 0.008815744 -0.033800554
0.012250008 0.0087719774 -0.031162523
0.012249983 0.008771901 -0.031690236
0.013256251 0.0088158473 -0.030634977
0.013256252 0.0088157281 -0.030239291
0.012731311 0.0088158203 -0.031162586
0.011681199 0.0086842049 -0.031690124
0.011681294 0.00868423 -0.032217756
0.0098437639 0.00828942 -0.032217793
-0.018200025 -0.0042982437 -0.039736181
-0.0171938 -0.004342136 -0.039736174
-0.019293753 0.00013163105 -0.039340552
-0.019818703 0.00013161883 -0.038812824
-0.012757506 -0.0056315153 -0.039788935
-0.012206231 -0.0061842664 -0.039736152
-0.019818807 0.0011842477 -0.035647191
-0.01981871 0.00065793283 -0.036174864
-0.01981871 -0.00065789651 -0.038285282
-0.019818708 -0.0011842212 -0.037757687
-0.019818712 -0.00065788795 -0.037230119
-0.013256269 -0.0038157736 -0.039868042
-0.01575 -0.0027631214 -0.039868053
-0.016143773 -0.0022368173 -0.039868072
-0.013781192 -0.0027632224 -0.039868101
-0.014831273 0.0001315581 -0.039868094
0.00013128137 -0.0071053286 -0.011641102
-0.0061687157 -0.0072368737 -0.0017484799
-0.0061687576 -0.0077631935 -0.00676079
-0.0077436934 -0.0081578409 -0.0087392041
-0.0093187457 -0.00026314426 -0.0017484631
-0.0093187299 -0.00065787759 -0.0017484743
-0.010368691 -0.00026322118 -0.0017484594
-0.001706296 -0.0088157589 -0.0017484892
-0.0082687959 -0.0067104967 -0.0017484911
0.014437524 0.0097368741 -0.002144143
0.019293729 0.0056579099 -0.0058374535
0.019818801 0.00065788405 -0.012168757
0.019818807 0.00065792509 -0.012696275
0.016668769 -0.0093420455 -0.0037269779
0.010368762 -0.0038158246 -0.0017484035
0.010762543 -0.0043420619 -0.0017484613
0.011681247 -0.0043421201 -0.0017485116
0.0038062504 -0.0077631236 -0.001748424
-0.0011812968 -0.0077632135 -0.0017484818
0.0048562163 -0.007631605 -0.013223879
0.004331273 -0.0076315938 -0.013223955
0.0048562712 -0.0076316013 -0.012168671
0.019818764 0.0011841625 -0.0058373678
0.020212531 0.0027631829 -0.0058373604
0.01968745 0.0047368519 -0.0067606969
0.01981874 0.0011842288 -0.0053098062
0.019293709 -0.0048684124 -0.0087392218
0.019162534 -0.0061841831 -0.0092668543
0.019162536 -0.0056578619 -0.0087392721
0.019162444 -0.0061841886 -0.0087392265
0.019162448 -0.0061842296 -0.00979451
0.02034381 -0.0048684156 -0.0017484669
0.01771874 -0.0011842452 -0.0021441989
0.015749963 -0.0043420927 -0.0017484315
0.0047250134 0.0094736684 -0.0020122882
0.0038062274 0.0094737131 -0.0020122286
0.0072187688 0.0017104713 -0.0017485227
0.0066937017 0.0048684608 -0.0017484892
0.0077437647 0.0086842608 -0.0082116956
0.0082688089 0.0086842645 -0.007684039
0.004331273 0.0081579117 -0.0067606848
0.005687512 0.0082456591 -0.0067606987
0.010368737 0.0088158501 -0.0053098612
0.0077436892 0.005657942 -0.0017484762
0.008793707 0.0061842361 -0.0017484631
-0.0038061987 0.0072368947 -0.0017485283
-0.0032813095 0.0072368667 -0.0017484799
-0.0032812266 0.0077631148 -0.0017484874
-0.0056875199 0.0088596661 -0.0017484557
-0.0067374399 0.0098245405 -0.0017485078
-0.0061687776 0.0077631455 -0.0031993408
-0.0089249397 0.0086842077 -0.016653433
-0.009318687 0.0086841574 -0.015334301
-0.0098437238 0.0086841695 -0.015861901
-0.008793789 0.0082894666 -0.0063650515
-0.0022312161 0.007631558 -0.0017484166
-0.002756299 0.0072368314 -0.0017484091
0.0077437474 -0.0022368208 -0.0017484594
0.0072187572 -0.0018420499 -0.0017484073
0.0066937595 -0.0006579482 -0.0017484259
0.007743686 0.00065784738 -0.0017484203
0.007218706 0.0001316358 -0.001748506
0.0077437693 0.0022367772 -0.0017485172
0.013781284 0.0056579392 -0.0017485265
0.01378123 0.0052631758 -0.0017485023
0.012731216 0.0038157527 -0.0017484799
-0.0017062286 0.0027632145 -0.0017485116
-0.0022311886 0.0038157969 -0.0017485041
-0.0027562012 0.002763161 -0.0017484594
0.0048562619 0.0081578977 -0.0063650338
0.020212531 0.0027631605 -0.013223973
0.020212455 0.0022368052 -0.01322394
0.020212471 0.0038158472 -0.013223955
0.019818773 0.0011842302 -0.013223968
0.02021247 -0.00065791229 -0.013751527
0.020212445 -0.00065788144 -0.01427913
0.020212447 -0.00065791089 -0.013223902
0.02021252 -0.0011842187 -0.014806794
0.020212488 -0.00065783213 -0.0067607993
0.02021249 -0.00026311632 -0.0071564401
0.020212514 -0.0022368573 -0.0071564196
0.020212563 -0.0017105864 -0.0076840706
0.020212527 -0.002236807 -0.0076841041
0.019818733 0.0011841443 -0.010322089
0.020212434 -6.2556865e-08 -0.010322055
0.019818781 0.001184208 -0.0082116872
0.019818733 0.00065789255 -0.0076840632
0.019162461 -0.0056578871 -0.0076840371
0.0191625 -0.0061842166 -0.0071564335
0.019293701 -0.0048683551 -0.01322398
-0.010762456 0.0086842105 -0.017180961
-0.0082687475 0.0082895337 -0.020742388
-0.0072187255 0.0081578335 -0.02113805
-0.012206252 0.0088157272 -0.01718099
0.013781297 0.0093420791 -0.010849732
0.013256245 0.009342094 -0.010849718
0.012731215 0.0093420604 -0.010322077
0.012206305 0.0092105679 -0.014674831
0.013781293 0.0092104888 -0.01322396
0.01723747 0.0097367857 -0.013707578
0.016712556 0.0097367987 -0.014323091
0.016668707 0.0097368276 -0.014806732
0.01574995 0.0093421349 -0.016653411
0.01575001 0.0093420409 -0.016257705
0.015750011 0.0093420707 -0.015861906
0.015356309 0.0092982808 -0.015817948
0.015356257 0.0092105055 -0.016257646
0.015749969 0.0093421582 -0.017180957
0.017324951 0.0097369086 -0.017708562
0.014831213 0.0092105176 -0.016653329
0.016143784 0.0093420567 -0.016653381
0.016668741 0.0093421089 -0.016653396
0.014857461 0.0092631551 -0.013197576
0.016143806 0.009736822 -0.01269637
0.019250058 0.0071929619 -0.01375152
0.01916251 0.0088157449 -0.015861919
0.019687492 0.0047368454 -0.013223889
0.019293746 0.0056579281 -0.012696266
0.019293781 0.0061842087 -0.012696359
0.01929378 0.0067104646 -0.012696362
0.01916253 0.0077632032 -0.015334336
0.0022749451 0.0077193002 -0.0031994171
0.004331219 0.0081578596 -0.0037270021
0.0039375001 0.0081579117 -0.0053098407
0.0052499804 0.0081579136 -0.0097944951
0.0048562973 0.008157922 -0.0092669334
0.0093187112 0.008815811 -0.0097944383
0.00669378 0.0082895234 -0.012696316
0.0056875465 0.0082456805 -0.0031993352
0.0061687846 0.0098683638 -0.002012264
0.006212444 0.0081579331 -0.014850674
0.0066937739 0.008245606 -0.014850713
-0.019162508 0.0067105112 -0.021138074
-0.015750054 0.0093420902 -0.022193268
-0.015356228 0.0093420828 -0.025754664
-0.015750065 0.0093420884 -0.023248494
0.012206208 0.0092105502 -0.0067606773
0.012206211 0.0092105549 -0.006364977
0.011681285 0.0092105009 -0.0063650766
0.011681196 0.0092105381 -0.0082116472
0.011681302 0.0092104655 -0.0076840632
0.013256311 0.0093420651 -0.0092668906
0.012206221 0.0092105642 -0.0092669297
0.012206241 0.0092104785 -0.008211703
0.0093186861 0.0088157505 -0.0031994283
0.0082687642 0.0086841611 -0.0037270226
0.0052499869 0.0081579573 -0.0037269574
0.01483123 0.0097368108 -0.0067606876
0.01618753 0.0098245386 -0.0067607872
0.012731204 0.0093421172 -0.00676075
0.013256195 0.0093421265 -0.0067606699
0.012731261 0.0093421098 -0.0047822408
0.012731268 0.0093420558 -0.0058374507
0.014831223 0.0097368499 -0.0047822315
0.015356245 0.0097368956 -0.0092668179
0.015356299 0.009736863 -0.0087393261
0.015356258 0.0097369021 -0.0082117049
0.01666872 0.0098684309 -0.0047821496
0.01719369 0.0098684272 -0.0092668058
0.017718717 0.0098684663 -0.0097945081
0.017718751 0.0098683685 -0.0082116546
0.018243691 0.0098684216 -0.008739288
0.015749946 0.0097368229 -0.009794469
0.016668748 0.0098684402 -0.0063650152
0.016668715 0.0098683899 -0.0076840837
0.017193701 0.0098684868 -0.0071563851
0.016668759 0.0098683899 -0.0071563786
0.017193694 0.0098684607 -0.0067607183
0.018243724 0.0098683825 -0.0063649667
0.017718736 0.0098683946 -0.0063650226
0.017718814 0.0098683825 -0.0058373669
0.013256252 0.0093421126 -0.0026717708
0.018287502 0.0098245824 -0.013223963
0.017718764 0.009868389 -0.012168718
0.018243786 0.0098683918 -0.011245457
0.018768704 0.0098683769 -0.010849722
0.012731314 0.0061842268 -0.0021441597
0.012731301 0.0093421238 -0.0031993594
0.019162524 0.0077632233 -0.0053097764
0.019162513 0.0077632177 -0.0076840017
0.019162549 0.0082895067 -0.0071564084
0.019162446 0.008815798 -0.0067607593
0.019162539 0.0088158008 -0.0076839877
0.015749954 0.0097368732 -0.0067607481
0.015750065 0.0097368052 -0.0063650124
0.015749967 0.0097368509 -0.0058373688
0.019687554 0.0047368775 -0.0092668692
0.0192938 0.005657936 -0.0087392051
0.019687433 0.0047368794 -0.0087392824
0.019293778 0.0056578782 -0.029315952
0.019249942 0.0061403061 -0.030239318
0.019818751 0.00065790158 -0.034328271
0.019818746 0.00065785617 -0.034855794
0.019818764 -0.00026320812 -0.033272982
0.019162454 0.0072368504 -0.027733181
0.019162463 0.0077631138 -0.025754567
0.019293731 -0.0048684282 -0.033800669
0.016143749 -0.0093421387 -0.031690173
0.016668798 -0.0093421414 -0.03169021
0.016668795 -0.009342121 -0.032217763
0.01732501 -0.0097368108 -0.031162553
0.0198188 0.0011841856 -0.016257728
0.019818775 0.0011841985 -0.015861917
0.019162536 0.0077631618 -0.018763859
0.019162484 0.0077631669 -0.017708607
0.01929377 0.0067105098 -0.014806795
0.019162474 0.009342134 -0.012168738
0.019293794 0.0056579066 -0.010849717
0.019293722 0.0056579555 -0.011245427
0.01968755 0.0047369082 -0.010322031
0.020212444 -0.0011842585 -0.010322152
0.02021247 -0.00026317104 -0.010322113
0.020212444 -0.0011842225 -0.013751546
0.019818753 0.00065786246 -0.025358912
0.019293804 0.0061841826 -0.020742312
0.019293699 0.0056579285 -0.021138003
0.019162538 0.0077631809 -0.020742349
0.019293701 0.00565795 -0.018763855
0.019293785 0.0056578461 -0.018236253
0.019250002 0.0071929921 -0.021665683
0.019162491 0.0077632219 -0.022193292
0.019162439 0.0093420781 -0.022193294
0.019162463 0.0077631031 -0.022720866
0.011156188 0.0092105381 -0.0031993259
0.013256307 -0.0067105144 -0.0017485283
0.015356224 -0.009210472 -0.0058374014
0.014306313 -0.0092104776 -0.0058374368
0.013256196 -0.008815811 -0.0058374321
-0.0093186861 -0.0011842602 -0.0017484091
-0.011156252 -0.0048684189 -0.0017484967
-0.011681218 -0.0048684771 -0.0017484985
0.012731303 0.00921058 -0.014806692
0.019293765 0.0056579392 -0.011641041
0.019293809 0.0061842245 -0.01124545
0.019293692 0.0061841886 -0.010849734
0.008268808 0.008684177 -0.0082117124
0.0087937256 0.0086841937 -0.0082116853
0.0087938169 0.008684204 -0.0076840194
0.008268741 0.0082894415 -0.014279131
0.010368781 0.008684163 -0.013223896
0.0066937762 0.0082894228 -0.0058373818
0.0061687678 0.0082894256 -0.00583746
0.0077436939 0.0086841993 -0.0067606941
0.0066937483 0.008289502 -0.0071563758
0.0093187243 0.0088158492 -0.0071563991
0.0082687959 0.0086841881 -0.0067607043
0.011681249 0.0092105558 -0.0071564028
0.0052500172 0.0081579601 -0.0076841163
0.0052500032 0.0081578847 -0.0082117142
0.0056875641 0.0082456758 -0.0092668338
0.00568756 0.0082455827 -0.008739206
0.0052500241 0.0081578651 -0.0087392638
0.0048562721 0.0081578642 -0.012168648
0.0061687753 0.008289421 -0.012168772
0.0082688089 0.0082894405 -0.016257633
0.0082687801 0.0081579108 -0.0166534
0.00065627077 0.0071052951 -0.017180953
0.010762559 0.0087718964 -0.014323168
0.011812493 0.0092105633 -0.012564378
0.0098437332 0.0088158352 -0.010849734
0.010368764 0.0088157803 -0.01084973
0.010368776 0.0088158231 -0.010322119
0.010368704 0.0088158101 -0.0097944615
0.0043749786 0.0077193514 -0.016257657
0.0048562745 0.0077631366 -0.016257603
0.0048563015 0.0076315976 -0.017180946
0.0032812154 0.0076315603 -0.016257625
0.0048562116 0.0077193542 -0.016609462
0.0052500144 0.0077631194 -0.016257713
0.0061686849 0.007763207 -0.019819073
0.0061687003 0.00776322 -0.017180925
-0.010762467 0.0086842617 -0.021138087
-0.0072187409 0.0081578549 -0.018763764
-0.0022313017 0.0072368463 -0.021665657
-0.0011813125 0.0072368397 -0.020346681
-0.0087937517 0.0082894703 -0.022193301
-0.0063000359 0.008157854 -0.02113802
-0.011681196 0.008815838 -0.01625761
-0.011681288 0.0088157477 -0.014806682
-0.012206266 0.0088158157 -0.018236237
-0.0056438106 0.0077631786 -0.017708553
-0.0032813158 0.0076315976 -0.021138042
-0.0027999643 0.007631531 -0.019775009
0.0093187215 0.008289462 -0.017708523
0.0087937415 0.0082895067 -0.017708529
0.0077437665 0.0081578884 -0.019291364
0.0087937415 0.0082894368 -0.019818995
0.0077437232 0.0081578903 -0.021665603
0.0038062297 0.0076315468 -0.02219321
-0.0056438115 0.0081578288 -0.011641044
-0.006693772 0.0081578642 -0.011245418
-0.006693739 0.008157921 -0.012168738
-0.0032812306 0.0076316088 -0.013223991
-0.004331273 0.0077631045 -0.013223892
-0.0022312587 0.0072368085 -0.018763807
-0.0017062527 0.0072368765 -0.017708564
-0.0043311929 0.0077631897 -0.012696302
-0.004856295 0.0077630999 -0.013751574
0.011156199 0.0092105754 -0.0092668543
0.011681211 0.009210512 -0.0053097531
-0.015356228 0.0092105223 -0.0067607928
-0.014831282 0.0092105251 -0.0067606987
-0.01325621 0.008815757 -0.0047822688
-0.012731214 0.0088158194 -0.0053097941
-0.013256242 0.0088158473 -0.0087393047
-0.013824962 0.0092104701 -0.0093108267
-0.014831199 0.0092104729 -0.0063649686
-0.014306293 0.0093421452 -0.0097944979
-0.014306284 0.0093420837 -0.010849725
-0.01535623 0.009342134 -0.0103221
-0.015356242 0.0092982547 -0.0093108863
-0.015749983 0.0092105577 -0.001484707
-0.012731298 0.0088158073 -0.0026717894
-0.016668806 0.004868411 -0.0017484687
-0.012206272 0.0052632117 -0.0017484203
-0.012206268 0.0022368862 -0.0017484184
-0.010368729 0.0067104762 -0.0017484277
-0.01168121 0.0077632065 -0.00082515553
-0.010762526 0.0086842123 -0.0031993426
-0.010499966 0.008684177 -0.0042545423
-0.011156267 0.0086842366 -0.0053097876
-0.011681193 0.008684204 -0.0053097596
-0.010762517 0.0086841658 -0.005837406
-0.010499944 0.0086842543 -0.0063650645
-0.0087936996 0.0098683583 -0.0017484464
-0.0082688052 0.009868471 -0.0017485283
-0.0077437987 -0.00065784185 -0.0017484203
-0.012731275 -0.0011842541 -0.0017484017
-0.0127312 -0.0017105731 -0.0017484576
-0.011156267 -0.00065794023 -0.0017484725
-0.011681199 -0.00065789401 -0.0017485097
-0.011681227 -0.0011842115 -0.0017485041
-0.012206296 -0.00065789995 -0.001748465
-0.012206226 -0.0011842615 -0.001748506
-0.011681221 -0.00026315241 -0.0017485283
-0.01220631 -0.0017105043 -0.0017484203
-0.011681224 -0.0017104716 -0.0017485153
-0.011681305 -0.0022368028 -0.0017484818
-0.0066937571 0.0093420772 -0.0020123124
-0.00065628445 0.0072368598 -0.013751485
-0.00065629999 0.0072368723 -0.014279148
-0.0011812587 0.0072368649 -0.014279073
-0.00065627805 0.0072367848 -0.014806779
0.0032811852 0.0077631953 -0.0047822688
0.015356256 -0.00921058 -0.019819044
0.015356254 -0.0092104794 -0.020346683
0.014831185 -0.0092105493 -0.019819027
0.016143698 -0.0093420651 -0.018236222
0.0082687847 -0.0081578894 -0.010849642
0.0093187578 -0.0082895346 -0.0092668412
0.0077437954 -0.0081578447 -0.0097944792
0.0082687447 -0.0081578605 -0.00926683
0.0098437732 -0.0082895067 -0.011641061
0.0093187951 -0.0082894135 -0.010322141
0.0061687338 -0.0077631008 -0.01480678
-0.0048562437 -0.0077631893 -0.011641103
-0.014306286 -0.0092104794 -0.0092668468
-0.011681316 -0.008815771 -0.0092668794
-0.01168122 -0.0088157868 -0.0097944997
-0.011681184 -0.0088157803 -0.010322137
-0.011156247 -0.0088158166 -0.010849701
-0.016668806 -0.0097368509 -0.029316003
0.019162515 -0.0061842264 -0.026150353
0.01916256 -0.0067105899 -0.026677907
0.019162506 -0.0056579546 -0.024303705
0.016143756 -0.0093421312 -0.022720808
0.020212445 0.0038157464 -0.035251543
0.019162551 0.0067104883 -0.034855824
0.019250039 0.006140295 -0.034328181
0.020212464 -0.0017104729 -0.035251476
0.019818747 0.0006579117 -0.035647236
0.019818811 0.00013160837 -0.035251584
0.019687509 0.0042105783 -0.029315995
0.019162502 0.0097368592 -0.030766895
0.019162524 0.008815757 -0.027865054
0.019162564 0.0093421116 -0.028920271
0.019162547 0.0082894899 -0.029315978
0.019162478 0.0082895337 -0.02878838
0.019214952 0.007210583 -0.026176747
0.020212531 -0.00065792183 -0.025227034
0.020212498 -0.00026310701 -0.02496315
0.020212466 -0.0017104882 -0.025358889
0.019293731 -0.0048683761 -0.022720916
0.019162541 -0.0061841453 -0.024831306
0.019162519 -0.0056578312 -0.025358928
0.019293811 -0.0048684329 -0.025358856
0.019162502 -0.0067105051 -0.031690169
0.0187688 -0.0093421461 -0.031690139
0.019162538 -0.005263221 -0.032745402
0.019162489 -0.0052631339 -0.032217734
0.019162554 -0.0072368314 -0.032217797
0.019293694 -0.0048683989 -0.026677893
0.019162517 -0.0056578806 -0.02826079
0.019162437 -0.0061842347 -0.028260775
0.019162446 -0.0056578475 -0.027205532
0.020212524 -0.0032894225 -0.028260745
0.01876875 -0.0088157402 -0.031162564
0.018768702 -0.0088158324 -0.031690236
0.019162511 -0.0067105899 -0.028788291
0.019162504 -0.0072367778 -0.028788334
0.019162467 -0.006710487 -0.028260734
0.018768735 -0.008289462 -0.028260726
0.018768741 -0.0088158557 -0.027733127
0.018768761 -0.0093421526 -0.028788285
0.018768769 -0.0088157449 -0.028788399
0.019162504 -0.0072368886 -0.029315937
0.018768728 -0.0082894266 -0.028788356
0.018243795 -0.0097367959 -0.028788382
0.016668718 -0.0093420716 -0.023248419
0.019162493 -0.007236809 -0.029843602
0.018768685 -0.0088157365 -0.0298436
0.018768707 -0.0082894983 -0.030634969
0.018768771 -0.0082894647 -0.030239211
0.018768724 -0.0088158054 -0.030239202
0.014306185 -0.0092105502 -0.027733112
0.015356218 -0.0092105912 -0.027733123
0.016143773 -0.0093420567 -0.02984353
0.015749989 -0.0093421061 -0.029843623
0.016668784 -0.0093420949 -0.028788304
0.014306197 -0.009210486 -0.031162512
0.015750052 -0.0093420688 -0.031162586
0.020343816 -0.0038158135 -0.030634964
0.019818727 0.00065783848 -0.032217734
0.019818727 0.00013159869 -0.032745373
0.019818792 -0.00026320911 -0.037229996
0.020212444 -0.0017105723 -0.038812935
0.019162497 0.0077631832 -0.026677907
0.019293712 0.0061842729 -0.0087392926
0.019293789 0.0056579532 -0.038812824
0.019293781 0.0052631451 -0.036702424
0.019249961 0.0061403723 -0.039340436
0.018768685 0.0056578489 -0.039340436
0.019162564 0.0067104665 -0.038285263
0.018243738 0.0077630989 -0.039340541
0.019162502 0.0067105819 -0.036702402
0.019293688 0.0056578708 -0.037757643
0.019162487 0.0067104641 -0.037757695
0.020212516 -0.0027631784 -0.030239273
0.019818809 -0.00026311071 -0.031690229
0.019162485 -0.0061841751 -0.030634914
0.019162461 -0.0061841845 -0.031162556
0.019162511 -0.0056579327 -0.031162536
0.019162461 -0.005657909 -0.029843584
0.019293718 -0.0048684618 -0.032217801
0.013256285 -0.0088158017 -0.028788358
0.013256302 -0.0088157784 -0.026677849
0.010762448 -0.0086842543 -0.02826076
0.01224997 -0.0087719131 -0.028260704
0.0191625 0.0072368854 -0.033273023
0.019162461 0.0072368244 -0.034855794
0.019162478 0.0072369073 -0.035251517
0.019162543 0.0067105298 -0.035251521
0.019162541 0.0077632214 -0.03525148
0.019162474 0.0072369031 -0.035647281
0.019162523 0.0067105899 -0.035647277
0.014831186 0.0092105493 -0.032217808
0.01535625 0.0092104888 -0.032217737
0.015749978 0.0093421619 -0.03221773
0.019293744 0.0056578405 -0.027205478
0.017167477 -0.00068426912 -0.039788902
0.016668797 -0.00026319857 -0.039868049
0.018243782 0.0043420643 -0.039736152
0.018768735 0.0048684813 -0.039340541
0.018112484 0.0052632131 -0.039736226
0.019293722 0.0052631539 -0.038812924
0.017193731 0.0017104724 -0.039736174
0.017193735 0.0027631081 -0.039736144
0.015750054 0.00065788615 -0.039868124
0.015356245 0.00065789191 -0.039868057
0.015356273 -0.0017105326 -0.039868116
0.014831268 -0.00026312488 -0.039868161
0.014831287 0.00013154032 -0.039868034
0.019162493 -0.0067104655 -0.0087392339
0.01876873 -0.0082894387 -0.0071564261
0.018768813 -0.0082894834 -0.0076841032
0.019162444 -0.0052631171 -0.0058374591
0.019687492 -0.0042105191 -0.010322032
0.020212479 -0.0011842609 -0.0097944811
0.018768711 -0.0082894694 -0.010322088
0.01876872 -0.0082894955 -0.01084972
0.018768705 -0.0088157617 -0.010849705
0.013256265 -0.00026321036 -0.039868094
0.012731227 -0.000263152 -0.039868113
0.012731222 -0.00065793219 -0.039868057
0.007743754 -0.003289463 -0.039868038
0.010368713 -0.0022368042 -0.039868101
0.009318769 -0.001184231 -0.039868116
0.0093187122 -0.00065791595 -0.039868105
0.008268714 -0.0027632108 -0.039868105
0.0082687009 -0.00223678 -0.039868046
0.0098437453 -0.0032895335 -0.039868146
0.0087937973 -0.0027631198 -0.039868057
0.0098437723 -0.0056578303 -0.039736163
0.011174942 -0.0048496802 -0.039849322
0.011156295 -0.0038158312 -0.039868139
0.011681229 -0.0032894455 -0.039868053
0.0087937862 -0.00026311076 -0.039868094
0.0098438114 0.00013157187 -0.039868034
0.0082687102 -0.0038158526 -0.03986806
0.011156229 -0.0017105378 -0.039868116
0.00013128469 -0.0072368053 -0.037757635
0.0027562932 -0.0072368924 -0.03934047
0.0017062967 -0.0022368557 -0.039868079
-0.0038062609 -0.0043421006 -0.039868049
-0.0011813132 -0.0052631646 -0.039868094
-0.0011812686 -0.0043421183 -0.039868053
-0.0002624995 -0.0048683612 -0.039868053
0.00013128557 -0.0038158442 -0.039868142
-0.001181211 -0.0027631738 -0.039868049
0.0027562347 -0.0027631253 -0.039868049
0.0032812727 -0.0032894404 -0.039868042
0.0027562382 -0.0038157264 -0.039868124
0.0072187949 -0.0077631013 -0.039340541
0.0077437763 -0.0072368532 -0.039340533
0.0061687785 -0.0077631124 -0.037757628
0.0056436933 -0.0077631385 -0.03775771
0.0056437966 -0.0077631152 -0.03828527
0.0061687338 -0.0077631478 -0.038285337
0.0061687874 -0.0072367974 -0.03934047
0.0048562214 -0.0061841793 -0.039736137
0.0043312539 -0.0067104897 -0.039736256
0.007743747 -0.006184218 -0.039736144
0.0072188005 -0.0056579234 -0.039736193
0.0052499687 -0.0052631223 -0.039736196
0.0072187032 -0.00065784168 -0.039868101
0.0077437744 -0.00065795251 -0.039868072
0.0077437246 0.001710547 -0.039868057
0.0066937231 -0.00065786461 -0.039868057
-0.0087937899 -0.0043420829 -0.039868131
-0.0087937266 -0.0048684822 -0.039868068
-0.0082688015 -0.0048684287 -0.039868053
-0.0056436877 -0.0032895086 -0.039868094
-0.007218732 0.0017105065 -0.039868049
-0.0072187367 0.0011842161 -0.039868068
-0.0087936865 0.0027631416 -0.039868034
-0.010368816 0.003815827 -0.039868124
-0.0098436847 0.0032895037 -0.039868139
-0.0098438011 0.0027631589 -0.039868072
-0.01430629 0.0022368361 -0.039868049
-0.0098436885 0.0022368794 -0.039868042
-0.010368786 0.00013152226 -0.039868116
-0.009843776 -0.00026319487 -0.039868083
-0.006168697 0.002236783 -0.039868057
-0.0056436905 0.002236797 -0.039868042
-0.0052499552 0.00013156974 -0.039868116
-0.0056437058 0.00013159905 -0.039868094
-0.0052499748 0.0006578847 -0.039868101
-0.0056437766 0.00065783737 -0.039868098
-0.011681243 -0.0027630941 -0.039868057
-0.013781183 0.0006578716 -0.039868161
-0.01378124 -0.002236895 -0.039868139
-0.0017062841 0.0032895105 -0.039868042
-0.0027562731 0.003815772 -0.039868124
-0.0017061979 0.0038158384 -0.03986809
-0.005643697 -0.0067105829 -0.039736159
-0.006168698 -0.0061842222 -0.039736137
-0.0066937814 -0.0038157331 -0.039868072
-0.0061688107 -0.0043420517 -0.039868042
-0.0048561948 -0.0048684701 -0.039868131
-0.0043313149 -0.0022368059 -0.039868116
-0.0048562028 -0.0017105804 -0.039868034
-0.0052500186 -0.0027631549 -0.039868135
-0.0056437957 -0.0027632117 -0.039868057
-0.0056438004 -0.0022368666 -0.039868094
-0.0052499664 -0.0022368941 -0.03986809
-0.0017062523 -0.003815789 -0.039868087
-0.0022312612 -0.0032895163 -0.03986812
-0.0011813093 -0.0032894686 -0.039868079
-0.0038062129 -0.002236868 -0.03986806
-0.0032812771 -0.0052631921 -0.039868124
-0.0038062294 -0.0052632219 -0.03986809
-0.0077437223 -0.0027631193 -0.039868027
-0.0043312139 -0.0067105824 -0.039736211
-0.0066937506 -0.0017104751 -0.039868109
-0.0061686933 -0.0006578911 -0.039868042
-0.0061688107 -0.00026314784 -0.039868098
-0.0056437892 -0.00026317837 -0.039868109
-0.0043312386 -0.0011841706 -0.039868057
-0.01036881 -0.0088157235 -0.0382853
-0.009318687 -0.0082894294 -0.039340496
-0.0087937806 -0.0086841546 -0.0382853
0.0017500607 -0.0071929824 -0.034855891
0.0011812551 -0.0071052355 -0.034328241
-0.00026248107 -0.0072368439 -0.032217834
-0.011156265 -0.0088158436 -0.013751563
-0.012731229 -0.0092104673 -0.015334301
0.0017499949 0.0071929814 -0.020346558
0.002231271 0.0072367899 -0.021665618
-0.00026246571 0.0071052001 -0.019291371
0.00013131564 0.0071052448 -0.022193184
0.00013129548 0.0071053151 -0.020742282
-0.00026256495 0.007105262 -0.021137994
0.0061687515 0.0077631772 -0.0221933
-0.0061687129 -0.0081578437 -0.014806764
-0.0098437034 -0.0086842412 -0.010849674
-0.0093187923 -0.0086842654 -0.012696357
-0.019818712 -0.00026309799 -0.02430363
-0.019818695 0.000131541 -0.024303647
-0.019818686 0.00013153254 -0.023776015
-0.0098875538 -0.008771982 -0.023248451
-0.00065628189 0.0072368588 -0.010322122
-0.004856287 0.0076315845 -0.0076840613
-0.005249985 0.0077631664 -0.0087392796
-0.0056437296 0.0077631962 -0.0076840641
-0.0038062935 0.0076315878 -0.0058374349
-0.0043312786 0.0076316213 -0.0067607863
-0.0087938029 0.0082894582 -0.0076840091
-0.0082686879 0.0081579331 -0.0076841088
-0.0093187094 0.0082894685 -0.0087392824
-0.0077436874 0.0081579061 -0.0092669176
-0.0061687557 0.0077631632 -0.0087392963
0.0017500444 -0.0071930159 -0.0026717801
0.011681291 -0.0086842515 -0.012168659
0.0056437245 -0.0077632214 -0.029843537
0.0061686868 -0.0077631813 -0.029315937
0.0082687587 -0.0081578344 -0.028260794
0.0043312418 -0.0076316092 -0.025754616
0.0093187094 -0.0082894284 -0.016653368
0.0082687428 -0.0081578288 -0.019819014
0.016668789 -0.0093420604 -0.011245336
0.019162467 -0.006184211 -0.012696373
0.018768704 -0.0088157644 -0.011641123
0.01916248 -0.0067105638 -0.010322142
0.019162539 -0.0061841654 -0.010849643
0.019162448 -0.0061841672 -0.011641041
0.019293793 -0.0048684031 -0.013751592
0.019162528 -0.0052632019 -0.013223975
0.0027563034 -0.0072368695 -0.022193298
0.002756309 -0.007236788 -0.021665681
0.0043312232 -0.0076316199 -0.027205469
0.0052500665 -0.0077632018 -0.027733073
0.0048562102 -0.0076316381 -0.027733171
0.0056437901 -0.0077631306 -0.02826071
0.0077438029 -0.0081579378 -0.018763736
-0.00065622455 -0.0072368304 -0.019819075
0.0082686935 -0.008157935 -0.017708523
-0.00026243427 -0.0072367815 -0.017708603
0.0056437403 -0.0077631697 -0.022193305
0.0056437338 -0.0077631855 -0.02034669
0.0038062234 -0.0076316162 -0.020742396
0.0052500563 -0.0077631506 -0.021138033
0.0056437575 -0.0077630947 -0.021138038
0.0056436849 -0.0077632177 -0.020742308
0.002756255 -0.0072368975 -0.022720871
0.001181236 -0.0071052541 -0.022193287
0.0011813071 -0.0071052336 -0.022720911
0.002231206 -0.0072368183 -0.016257705
0.0006561905 -0.0071052969 -0.012696308
0.00013123767 -0.0071052881 -0.013223888
0.00013128467 -0.0071052294 -0.012696287
0.0011812628 -0.0071052625 -0.013223946
0.0011813134 -0.0071052033 -0.014279094
-0.0002624394 -0.0072368872 -0.014279089
0.00065625022 -0.0071052792 -0.014279179
-0.00065622316 -0.0072368621 -0.014279179
0.0006562944 -0.0071052434 -0.013751576
-0.0011812437 -0.0072369021 -0.014279125
-0.00065626949 -0.0072368723 -0.013751561
-0.0006562607 -0.0072368369 -0.014806712
-0.012731279 -0.0092104776 -0.019291425
-0.00065630657 -0.0072368016 -0.027205545
-0.0027562277 -0.0076316153 -0.033800565
-0.0052499967 -0.0081579462 -0.032217845
-0.0056437794 -0.0081578558 -0.032745332
0.015356218 -0.0092105586 -0.016653338
0.019162517 -0.0052631488 -0.026677942
-0.0093187159 -0.0086842319 -0.020742321
0.012249973 -0.0087719243 -0.018236209
0.011681299 -0.008684258 -0.018763753
0.01666869 -0.0093420567 -0.017708587
0.0087937415 -0.0082894992 -0.025358912
-0.0056436844 -0.0081579303 -0.025358954
-0.0061688009 -0.0081578456 -0.025754562
-0.011156242 -0.0088158185 -0.025754578
0.011681277 -0.0086842189 -0.023776134
0.011681268 -0.008684257 -0.02074234
0.011681282 -0.0086842394 -0.021665595
0.013256196 -0.0088157607 -0.021137981
0.013256245 -0.0088157514 -0.020346634
0.010762521 -0.0086842058 -0.018763829
0.011156254 -0.0086841946 -0.018763786
0.011681298 -0.0086842375 -0.019291397
0.012249934 -0.0087719448 -0.020346586
0.013256259 -0.0088158473 -0.023776062
0.014831185 -0.0092105763 -0.025358934
0.0093188016 -0.0082895188 -0.019819068
0.0077437223 -0.0081578651 -0.020742305
0.0082688136 -0.0081579126 -0.020742377
0.009843803 -0.0082894126 -0.022720825
0.010762499 -0.0086841956 -0.023248501
0.0082688127 -0.0081578493 -0.021665582
0.0093186907 -0.0082894256 -0.024303723
0.0098437415 -0.0082894079 -0.023248479
0.0082687354 -0.0081579033 -0.022720912
0.00061250984 -0.0071929758 -0.02113799
0.0043312376 -0.0076316451 -0.020346608
0.0093187811 -0.0082895141 -0.020742292
0.0061687259 -0.0077631488 -0.026150335
0.0056436914 -0.0077631865 -0.025754565
0.0056437016 -0.0077631106 -0.025358912
0.0056437859 -0.0077631818 -0.026677929
0.0056437189 -0.0077631432 -0.02773314
-0.00026253145 -0.0072368165 -0.026150245
0.0022312969 -0.0072368653 -0.024303701
0.0027562301 -0.0072367806 -0.023776118
0.010762455 -0.0086842272 -0.023776138
0.0098437509 -0.0082894238 -0.027205482
0.0098437499 -0.008289529 -0.026677944
0.0093187457 -0.0082894359 -0.026677903
0.019818753 0.00013160147 -0.028788282
0.019162511 -0.0052631195 -0.021137994
0.01916245 -0.0052632247 -0.014806811
0.019162524 -0.0056579104 -0.01427913
-0.0066937776 -0.0082894601 -0.038285248
-0.0087936921 -0.0061841975 -0.039736159
0.0077436888 -0.0081578977 -0.03221776
-0.0032812252 -0.0077631166 -0.036702413
-0.0022312147 -0.007631558 -0.036702454
-0.0027562154 -0.0076316223 -0.036702432
-0.0038062821 -0.0077630924 -0.036174819
-0.0038062213 -0.0077631413 -0.034855817
-0.0022312398 -0.0076315342 -0.034855783
-0.0022312549 -0.0076316195 -0.035647299
-0.0098875538 -0.0087718768 -0.031690229
-0.0087938048 -0.0086841732 -0.032745428
-0.0027562438 -0.007631564 -0.037230004
-0.0022312135 -0.0076315668 -0.037230104
-0.0013125202 -0.0076316204 -0.038285319
-0.0017061959 -0.0076315389 -0.03775768
0.0093187382 -0.0082895271 -0.038285322
0.011681245 -0.0067105726 -0.039340477
0.013912475 -0.0092104785 -0.034855809
-0.010368716 -0.0088158464 -0.036174837
-0.010368728 -0.0088158445 -0.035251584
-0.01076247 -0.008815798 -0.034855857
0.013256255 -0.0088158138 -0.036702421
0.013256233 -0.0088157738 -0.036174908
0.011156232 -0.0086842068 -0.037230033
0.011681315 -0.0086842114 -0.037757721
0.012250046 -0.0087719476 -0.036702417
0.012731272 -0.0088157877 -0.036702432
-0.0056438167 -0.0081578689 -0.034855768
-0.0061687506 -0.0081579573 -0.034328211
-0.0061687944 -0.008157854 -0.03485585
-0.0066937343 -0.0082895253 -0.035647206
-0.0072186845 -0.0082894973 -0.034855843
-0.0072187283 -0.0082894405 -0.033800673
0.0098438002 -0.008289529 -0.038812838
0.01325631 -0.0088157803 -0.035251554
0.012731227 -0.0088158511 -0.033800628
0.011156305 -0.0086842068 -0.032745443
0.011681218 -0.0086841946 -0.033273049
0.011681262 -0.008684244 -0.03274538
0.014831279 -0.0092105623 -0.037230015
0.018768813 -0.0093420865 -0.033800583
0.019162463 -0.0067105363 -0.034328163
0.016143747 -0.0093421051 -0.029315926
0.017718714 -0.0097368723 -0.031162614
0.018243749 -0.0097368015 -0.030634925
-0.010762536 -0.0088158399 -0.032745354
-0.010368697 -0.0088157952 -0.03274538
-0.010762441 -0.0088157794 -0.033800591
-0.010368797 -0.0088157253 -0.033800595
-0.0087937452 -0.0086841993 -0.033272952
-0.0093187066 -0.008684163 -0.032745358
0.01575003 -0.0093421265 -0.031690188
0.016143698 -0.0093420856 -0.032217838
0.014306255 -0.009210581 -0.034328189
0.01483129 -0.0092105353 -0.034328226
0.016143771 -0.0093420707 -0.033800546
0.016668752 -0.009342093 -0.032745346
-0.007218787 -0.0082895178 -0.032217756
0.012249975 -0.0087718973 -0.031162534
0.013912519 -0.0092105661 -0.032217842
0.013256258 -0.0088158557 -0.032217853
0.012731302 -0.0088158054 -0.032745384
0.012250036 -0.0087719625 -0.029843537
0.0098437406 -0.0082894387 -0.028260682
0.0098437322 -0.0082894964 -0.029843517
-0.011156294 -0.0088158138 -0.029843535
-0.0093186917 -0.0086842068 -0.027205503
-0.010762554 -0.0088157924 -0.028788406
-0.0098625217 -0.0087969797 -0.028807255
-0.0066937497 -0.0082895346 -0.031690232
-0.011156229 -0.0088157235 -0.030634958
-0.011156209 -0.0088157328 -0.027733155
-0.0052499697 -0.0081578298 -0.030635018
0.005643805 -0.0077632028 -0.033800554
0.019818781 0.001184213 -0.033800595
-0.014306263 -0.0093420912 -0.027733156
-0.0022312116 -0.0076316027 -0.038285263
0.0052500046 -0.0077631087 -0.037230078
0.0048562703 -0.0076316274 -0.03723006
0.0072187912 -0.0081578391 -0.034328267
0.0077436976 -0.0081578642 -0.034855861
0.013256286 -0.0088157523 -0.030634962
0.013256214 -0.0088158166 -0.029843576
0.00061244925 -0.0071930429 -0.034328185
0.0022312035 -0.0072367964 -0.030635025
0.0061688069 -0.0077631329 -0.031690143
0.0077438094 -0.0081578856 -0.029843558
0.004856193 -0.0076315771 -0.031162554
0.0056437259 -0.0077631618 -0.031162618
0.0043312209 -0.0076316022 -0.032745413
0.0061686849 -0.0077632051 -0.033272997
0.005643717 -0.0077631427 -0.032217786
0.004331206 -0.0076316092 -0.033273011
0.003806202 -0.0076315361 -0.033273064
-0.002756207 -0.0076316134 -0.032745413
0.0043312362 -0.0076316367 -0.029843498
0.0048562908 -0.0076315147 -0.029315891
0.0082686851 -0.0081578968 -0.035647184
0.0098436913 -0.0082894824 -0.034855783
0.0082687419 -0.0081578521 -0.036174826
0.0093186954 -0.008289448 -0.033800557
0.008268727 -0.0081579387 -0.033800609
0.00879372 -0.0082895057 -0.038812891
0.017193729 -0.0072368449 -0.039340436
-0.009318768 -0.0086841723 -0.026150264
0.0061687217 -0.0077631529 -0.023776069
0.0061687888 -0.007763118 -0.02430371
0.0048562475 -0.0076315585 -0.023248522
0.0087937908 -0.0082895216 -0.023776015
0.00826874 -0.0081579192 -0.025754636
0.0048562386 -0.0076315557 -0.023776071
0.0048562274 -0.0076315226 -0.02483128
0.013256208 -0.0088157738 -0.024303647
0.013256231 -0.008815838 -0.0253589
0.014306277 -0.0092104943 -0.027205551
0.01076248 -0.0086841518 -0.025754543
0.011681199 -0.0086842636 -0.025754657
0.014831268 -0.0092105307 -0.023776045
0.015750045 -0.009342107 -0.020742308
0.0098437164 -0.0082894349 -0.019291474
-0.019162493 -0.0052631893 -0.011641081
-0.01916251 -0.0052632024 -0.013223859
-0.019162511 -0.0061842459 -0.013223972
-0.019162454 -0.0056578652 -0.014279187
-0.010762495 -0.0086842515 -0.0087393122
-0.012731292 -0.0048683551 -0.0017484725
-0.019293752 -0.005263092 -0.024303662
-0.019293711 -0.0048684124 -0.023776032
-0.014306236 -0.0093420828 -0.02483133
-0.014306191 -0.0093420539 -0.023776086
0.015356233 -0.0092105316 -0.037757672
-0.015356291 -0.0097367913 -0.029843565
-0.016143719 -0.0097369058 -0.031162601
-0.014306293 -0.0093420921 -0.031690147
-0.016143773 -0.0097368285 -0.016257685
-0.019818682 -0.00026321469 -0.02166569
-0.019818798 -0.00065792724 -0.025358951
-0.020212438 0.0017105337 -0.024831265
-0.02021247 0.0011842399 -0.025754539
-0.020212438 0.0017104697 -0.025754549
-0.020212544 0.0022369034 -0.025754666
-0.020212434 0.0022368447 -0.02615026
-0.02021247 0.0027631482 -0.026677864
-0.019818746 0.00013155794 -0.027205501
-0.01981869 -0.00065790763 -0.026677907
-0.019818777 -0.00065785361 -0.027205534
-0.020212442 -0.0022367849 -0.035251513
-0.019818798 -0.0011841878 -0.034328267
-0.01981869 -0.001184242 -0.03485579
-0.019818785 -0.0011842021 -0.03525148
-0.019818723 -0.00065789511 -0.034855857
-0.020212542 -0.0027631975 -0.036174849
-0.020212434 -0.0022368003 -0.036174834
-0.019818692 -0.00026318253 -0.035647273
-0.019818723 -0.0011842342 -0.031690236
-0.019818714 -0.0011841975 -0.033272974
-0.019818695 -0.00065785245 -0.033273056
-0.019818792 0.00013154269 -0.034328248
-0.019818744 -0.00026311807 -0.033800647
-0.019293807 0.0048683733 -0.030634947
-0.019162551 0.0052631819 -0.030634999
-0.019162467 0.0056579085 -0.032745413
-0.019293688 -0.004868357 -0.016257705
-0.019818809 -0.0011841712 -0.02034666
-0.020212458 -0.0022367856 -0.018763801
-0.019818736 -0.0011842604 -0.018236194
-0.019818701 -0.00065792107 -0.018236261
-0.019818753 0.00013159607 -0.021137977
-0.02021244 0.0017105321 -0.021138031
-0.019162448 0.0061842357 -0.022720877
-0.019162551 -0.0067105386 -0.023248516
-0.016668687 -0.0097368155 -0.024303688
-0.020212546 0.0027631684 -0.0063650524
-0.014875039 0.0092982063 -0.021665704
-0.020212516 0.0017104915 -0.022193292
-0.020212471 0.0017105244 -0.023776073
-0.020212501 0.0022368312 -0.024303729
-0.020212553 0.0027631382 -0.024303718
-0.020212457 0.003289521 -0.021137971
-0.019162491 0.0052631372 -0.029315904
-0.018768728 0.0088158296 -0.030239316
-0.018768793 0.0082894256 -0.030634942
-0.020212529 0.0032894372 -0.026677875
-0.020212438 0.0032894399 -0.027733119
-0.019818749 0.00013152782 -0.02219324
-0.019818703 0.00013159942 -0.023248402
-0.019162526 0.0067105796 -0.01216872
-0.019162441 0.0056578475 -0.011641061
-0.019162459 0.0061841686 -0.011641149
-0.019162443 0.0052631912 -0.011641145
-0.01916256 0.0052632089 -0.010849691
-0.0191625 -0.0052632168 -0.03670251
0.0011812918 -0.0071052988 -0.024303619
0.00061253068 -0.0071929959 -0.022720911
0.001181305 -0.0071052373 -0.023248514
-0.0087937489 -0.0086842012 -0.028788283
-0.0061686882 -0.008157921 -0.0302392
0.0022311863 0.007236795 -0.024303637
0.0027562845 0.0072367862 -0.024303667
-0.0066937618 -0.008289461 -0.023248402
-0.005249978 -0.0081579117 -0.023776121
-0.005643717 -0.0081578596 -0.024303678
0.0017500051 0.0071929372 -0.033272967
0.0022312542 0.0072368723 -0.035251576
0.0022312915 0.0072368421 -0.035647176
0.0027562669 0.0072368253 -0.035647213
0.0027562811 0.0072367764 -0.035251521
-0.0043312078 0.0077631469 -0.035647187
-0.0048562884 0.0077631408 -0.035647303
-0.0032812625 0.0076316134 -0.035647206
-0.0032812888 0.0076315957 -0.036174808
0.0052499366 0.0077631366 -0.030239234
-0.0022312705 0.0076315138 -0.030239277
0.002756207 0.007236803 -0.030239297
0.0022312501 0.007236789 -0.02984358
0.0043311967 0.0076315547 -0.028260693
0.0098437443 -0.0082894564 -0.010322086
0.018243752 -0.0097368872 -0.021138096
0.0077437046 -0.0081579406 -0.010849646
0.0082687242 -0.0081579275 -0.0071563935
-0.0052499822 -0.0077631185 -0.0058374424
-0.0048562596 -0.0076315128 -0.0063650543
-0.0022311953 -0.0076315221 -0.01164104
-0.0027563092 -0.0076315594 -0.012168746
-0.00065625733 -0.0072368928 -0.010849649
-0.0011812127 -0.0072368914 -0.011641064
-0.0032813011 -0.0077193407 -0.015290337
0.0061687287 0.0077631422 -0.032745399
0.0098438114 0.0032894153 -0.039868057
0.010368709 0.0032894204 -0.039868064
0.012250021 0.0087719858 -0.035647273
0.0087937368 0.0082894564 -0.036174834
0.0082687708 0.0081579285 -0.034328207
0.0082687018 0.0081578325 -0.034855805
0.0048562912 -0.0052631176 -0.039736256
-0.00026247892 -0.0072368365 -0.036702402
-0.0002624905 -0.0072368989 -0.035251521
0.0022311928 -0.007236829 -0.036702432
-0.016143735 0.0038158437 -0.0017484836
-0.017193764 0.0043421621 -0.0017484426
-0.011156311 0.0038157899 -0.0017484147
-0.0072187125 0.002763184 -0.0017484576
-0.0072187972 0.0032894993 -0.0017484259
-0.0072186906 0.0038157848 -0.0017484669
-0.0061687483 0.0032894923 -0.0017484892
-0.0052499599 0.0052632247 -0.0017484426
-0.0043312642 0.0032895156 -0.0017484706
-0.0077438024 0.0056579253 -0.0017484184
-0.0082687102 0.0043420452 -0.0017484259
-0.0077437302 0.0038158437 -0.0017484948
-0.0072187353 0.004342169 -0.0017484576
-0.0093187038 0.0082894294 -0.0031993408
-0.011681294 0.0086841621 -0.0042545944
-0.012249974 0.0087719392 -0.004254641
-0.010368795 0.009868362 -0.0013527274
-0.019162541 0.0067105182 -0.028788369
-0.019293806 0.0048683845 -0.028788399
-0.02021246 0.0038157667 -0.030239245
-0.020212518 0.0027631593 -0.028788328
0.016668765 0.0093420753 -0.029316016
0.016143719 0.009342093 -0.028788395
0.014831294 0.0092105055 -0.029843539
0.014831209 0.0092105735 -0.031162534
0.01666875 0.0093420548 -0.034328178
0.016668784 0.0093420465 -0.034855887
0.016668765 0.0093421005 -0.035251513
0.016143737 0.0093420465 -0.035251528
0.012249995 0.0087718926 -0.032217838
0.014831302 0.0092105418 -0.033800621
-0.0082687112 0.0082894871 -0.033273038
-0.00026249941 0.0072368188 -0.033273023
-0.003806185 0.0077631078 -0.03380055
-0.0032812001 0.0076315869 -0.033800568
0.012250046 0.0087718898 -0.034328248
0.011681209 0.0086841527 -0.034328237
0.012249943 0.0087719364 -0.032745335
-0.0032811856 0.0076315147 -0.034328207
0.0098437956 0.0082894415 -0.033800591
0.0093188081 0.0082894647 -0.033800583
-0.015356197 0.0093421517 -0.032217756
-0.013781246 0.0092104599 -0.030634977
-0.014831262 0.0093420437 -0.03169015
0.016668724 0.0093421238 -0.037757654
0.014831311 0.0092105912 -0.037230078
-0.0077437749 0.0082894312 -0.037230052
-0.0077438098 0.0082895393 -0.036702387
-0.00726248 0.0082455752 -0.036702394
-0.011681205 0.0088157533 -0.038812879
-0.010368726 0.0086842077 -0.037229996
-0.010368696 0.0086842002 -0.036702417
-0.0103687 0.0086841481 -0.037757687
0.010762505 0.0086842244 -0.036174808
-0.010368738 0.0086842701 -0.036174834
-0.011156227 0.0088157635 -0.036174819
-0.0093188034 0.0086842235 -0.035251506
-0.017193731 0.0097368937 -0.033273056
-0.016668713 0.0097368024 -0.032745376
-0.011156259 0.0088157421 -0.033272952
-0.013781207 0.009210567 -0.033272941
-0.0048562884 0.0077631525 -0.034328271
0.00013127565 0.0071052699 -0.03327306
0.00013121443 0.0071052159 -0.032745421
-0.0022312677 0.0072368397 -0.028260792
-0.00065627292 0.0072368961 -0.029315986
-0.0066936924 0.0081578856 -0.034328178
-0.0077437256 0.0082894182 -0.035251502
-0.0066937567 0.0081579564 -0.036174886
-0.0066937967 0.0081579043 -0.035251506
0.0093187019 0.0082894955 -0.031690195
0.0098437779 0.0082895206 -0.031690158
0.0087937834 0.0082894843 -0.031162556
0.00065624993 0.0071052504 -0.030635007
-0.00065618363 0.0072368085 -0.029843573
-0.0032812587 0.0076315245 -0.033272948
-0.0066936915 0.0032894646 -0.039868113
-0.0077437218 0.0038158183 -0.039868087
-0.00065623492 0.0072368011 -0.036174867
0.0098437639 0.0082895057 -0.022193307
0.0098437732 0.0082894368 -0.022720834
0.010762488 0.0086842226 -0.023776136
0.010762473 0.0086842123 -0.023248425
0.0098437015 0.0082894992 -0.023248425
0.0043312232 0.0076315328 -0.02430374
0.0056437347 0.0077631152 -0.023776054
0.006168792 0.0077630929 -0.024303693
0.0082688089 0.0081579359 -0.02535896
0.010500063 0.0086841611 -0.030239314
0.011156246 0.0086841723 -0.033273041
0.011156305 0.0086841872 -0.032745451
0.011156263 0.0086842179 -0.032217797
0.0087937824 0.0082895393 -0.033273019
0.0043312861 0.0076315249 -0.032745443
0.0061688041 0.0077631176 -0.031690165
0.013256196 0.0088157905 -0.029843584
-0.00065620535 0.0071052313 -0.02615029
-0.0017062241 0.0072368691 -0.028788298
0.0022312247 0.0072368961 -0.028260767
0.0017500311 0.007193028 -0.027733138
0.0022312778 0.0072368346 -0.02773311
0.0043312931 0.0076315659 -0.027205523
0.002756187 0.0072368914 -0.027205558
0.0022312941 0.0072368784 -0.026677892
-0.0028874709 0.0076315319 -0.025358908
0.0027562552 0.0072368905 -0.025358848
0.0027562615 0.0072368355 -0.025754604
0.0006562036 0.0071052983 -0.028260697
0.0017499505 0.0071930108 -0.027205581
0.00065622781 0.0071052699 -0.027205564
0.0022312801 0.0072368928 -0.026150372
0.0011812639 0.0071052993 -0.023776088
-0.0011812983 0.0072368667 -0.023776069
-0.0017062725 0.0072367885 -0.025358843
-0.0017062341 0.0072368281 -0.024303686
-0.0011812836 0.0072368793 -0.022193275
-0.0043750373 0.0077193645 -0.022720823
-0.0038062781 0.0076315454 -0.022720877
-0.0056436933 0.0077632093 -0.021665644
-0.0052499431 0.0077631939 -0.020742295
-0.0082687419 0.0082894703 -0.029843606
-0.0077436971 0.008289461 -0.029315906
-0.0082687 0.0082894471 -0.0293159
-0.0032812434 0.0076316195 -0.026150359
-0.0043750135 0.0077193393 -0.02667791
-0.0098437071 0.0086842198 -0.028260786
-0.0093187587 0.0086842226 -0.029843513
-0.0089249592 0.008684257 -0.028788302
-0.01168119 0.0088158222 -0.029315963
-0.0077438052 0.0081578949 -0.027733181
-0.0072186841 0.0081579592 -0.027733106
-0.0072187982 0.0081578558 -0.026677929
-0.0077437265 0.0081579201 -0.026677968
-0.0098437974 0.0086842021 -0.029316012
-0.011156272 0.0088157905 -0.030239254
-0.01115623 0.0088157794 -0.029843573
0.0038062846 0.0076315813 -0.023248482
0.0017499375 0.0071929572 -0.022193275
0.010762502 0.0086842049 -0.028260715
0.010762482 0.0086842766 -0.028788276
-0.0072187623 0.0081578344 -0.025358856
-0.012206282 0.0088157319 -0.024303656
-0.012206287 0.0088158473 -0.025358861
-0.010762465 0.0086841574 -0.0253589
-0.0082687465 0.0082894536 -0.027205514
0.0011811927 0.0071051987 -0.032745395
0.00065627228 0.0071052648 -0.031690173
0.0011811992 0.0071052229 -0.031690203
0.0001312559 0.0071052117 -0.031162582
-0.0017062798 0.0056579309 -0.039736249
-0.001181311 0.0056578885 -0.039736222
-0.0011812389 0.0072367769 -0.038812943
-0.00026244638 0.0061841705 -0.039736226
-0.00068247347 0.0056316219 -0.039788984
-0.0043313154 0.007763145 -0.036702499
-0.0066938084 0.0081578856 -0.037757706
-0.0066937958 0.0052631418 -0.039736137
-0.0072187413 0.0061841737 -0.039736196
-0.0082687708 0.0056579411 -0.039736189
-0.010368743 0.0052631767 -0.039736222
0.012206291 0.0056579355 -0.039736137
0.011681251 0.0061841551 -0.039736196
0.013256246 0.0061841477 -0.039736219
0.01483129 0.0061842422 -0.039736155
0.014831255 0.005263221 -0.039736174
0.016668696 0.0093421061 -0.038812835
0.012731248 0.0027631929 -0.039868154
0.011681228 -0.0017105321 -0.039868139
0.012206309 0.00065784331 -0.039868146
0.011156186 0.0038157909 -0.039868154
0.012731213 0.0022368515 -0.039868079
0.0098437639 0.0077632209 -0.039340489
-0.012162556 0.0052631483 -0.039824158
-0.013256243 0.005657943 -0.039736185
-0.01325631 0.0092105856 -0.039208546
-0.011174981 0.0048495959 -0.039849304
-0.016624942 -0.0022368366 -0.039824113
0.0061687678 0.0077631269 -0.03723
0.0027563106 0.0072367964 -0.028788373
0.0017499728 0.007192973 -0.029315997
-0.007743746 0.0082895132 -0.032217793
-0.0027562005 0.0076315724 -0.031690184
-0.0027562734 0.0076315282 -0.032217748
-0.0032812655 0.007631524 -0.03169024
-0.0032812997 0.0076315552 -0.030634988
-0.0098436894 0.0086842123 -0.03274544
-0.0098437425 0.0086841965 -0.033272956
-0.011681293 0.0088158473 -0.030634983
-0.011156266 0.0088157374 -0.031162569
-0.011681299 0.008815757 -0.031690128
0.0017499403 0.0071930019 -0.035647303
0.0017499746 0.007192926 -0.035251543
0.00175004 0.0071929484 -0.034855861
0.0022312519 0.0017105548 -0.039868034
0.004331213 0.0038157753 -0.039868042
0.0032813079 0.0043420889 -0.039868087
0.0032812122 0.0038158146 -0.039868079
-0.005643765 0.0077632046 -0.027733069
0.0011812499 0.0071052373 -0.02575461
-0.0022313145 0.0072368123 -0.026150309
-0.0056437268 0.0077631031 -0.024831276
-0.005249999 0.0077631148 -0.027733184
-0.0052499711 0.0077632065 -0.026677974
-0.019162437 -0.0052631008 -0.034328289
-0.019293752 0.0048684585 -0.026150314
-0.019162536 0.0061841561 -0.025754619
-0.019162474 0.0061841975 -0.024831289
-0.019162482 0.0056578284 -0.024831224
-0.01916247 0.0052631092 -0.024831248
-0.009318741 -0.0086841527 -0.033273026
-0.012731261 -0.0092104757 -0.029843595
-0.017193766 0.009736808 -0.015334319
-0.013781275 0.0092105903 -0.016257692
-0.0093187736 -0.0048684403 -0.039868079
-0.014306221 -0.0093421545 -0.025754638
-0.011681225 -0.0088157495 -0.027205523
-0.019162452 0.0052631963 -0.013751598
-0.01916251 0.0061841719 -0.01322399
-0.01916251 0.0056579523 -0.016257679
-0.015749978 0.0093420427 -0.0082116136
-0.012249994 0.0087719336 -0.0067607043
-0.012731235 0.0088157486 -0.0063650077
-0.013912499 0.0092105614 -0.0067607034
-0.013256222 0.0088157393 -0.0067608021
-0.013781308 0.0092104822 -0.010322101
