# .PCD v0.7 - Point Cloud Data file format
VERSION 0.7
FIELDS x y z
SIZE 4 4 4
TYPE F F F
COUNT 1 1 1
WIDTH 1184
HEIGHT 1
VIEWPOINT 0 0 0 1 0 0 0
POINTS 1184
DATA ascii
-0.0012641287 -0.0067689274 -0.011605599
-0.00072129699 -0.0062631182 -0.011665216
-0.0042385492 -0.0156206 -0.0057931673
-0.0037180255 -0.015620602 -0.0057931668
-0.0037180255 -0.015620602 -0.0062402766
-0.0052052359 -0.015546218 -0.0037066534
-0.0055026771 -0.015546218 -0.0037066529
-0.0042385492 -0.0156206 -0.0037066529
-0.0047590728 -0.015546218 -0.0042282809
-0.0037180257 -0.0156206 -0.0052715386
-0.0042385492 -0.015620597 -0.0052715391
-0.0026472344 -0.014698242 -0.011009454
-0.0046289419 -0.014783783 -0.010171122
-0.0031231411 -0.00974428 -0.011009452
-0.0011492079 -0.013761005 -0.011646245
0.00074360514 -0.015248682 -0.011083972
0.0017846524 -0.0156206 -0.0067619053
0.0012641287 -0.0156206 -0.0072835339
-0.0051754918 -0.015605724 -0.0062402771
-0.0047590728 -0.015546218 -0.0057931668
-0.0047590728 -0.015546218 -0.0062402771
-0.0051917159 -0.015573267 -0.0058202641
-0.0057397005 -0.015257983 -0.0077259876
-0.0047590728 -0.015546218 -0.0077306451
-0.0016359311 -0.012719634 -0.011605599
-0.0027053063 -0.013236777 -0.011044939
-0.0020820941 -0.011157572 -0.011605599
-0.0032718626 -0.012719634 -0.011009454
-0.0022122252 -0.0097628757 -0.011605599
-0.0031868792 -0.010296845 -0.011009454
-0.0026951153 -0.010259522 -0.011151223
-0.00074360514 -0.00974428 -0.011680118
-0.0036808455 -0.01558341 -0.00974264
-0.0037180255 -0.0156206 -0.0092210108
-0.002751339 -0.015620597 -0.009742639
-0.0022308154 -0.0156206 -0.00974264
-0.002751339 -0.0156206 -0.010264269
-0.0037180255 -0.015620602 -0.0077306451
0.0036188783 -0.0032976824 -0.0096432837
0.003178912 -0.0038121708 -0.010152491
0.0027067228 -0.0047605643 -0.011039262
0.0026451095 -0.0052918768 -0.011062681
-0.0046103518 -0.00974428 -0.0091464929
-0.0031528857 -0.011618753 -0.01103926
-0.0021415825 -0.010755899 -0.011605599
-0.0040154676 -0.012719634 -0.010562343
-0.0056089074 0.0087241596 -0.0077306442
-0.0055212681 0.0077917045 -0.0081218658
-0.0046599256 0.01324032 -0.010164911
-0.0034205834 0.014207309 -0.0086248647
-0.002751339 0.013686624 -0.0092210118
-0.0047590728 0.014058544 -0.0082522715
-0.0042302869 0.013733459 -0.010302908
-0.0037180257 0.013742411 -0.010282898
-0.0037092771 0.013673496 -0.0098083923
-0.003280611 0.013673496 -0.0098083923
-0.0056513986 0.0097553004 -0.0081611946
-0.0056668893 0.010274262 -0.0082119098
-0.0061124344 0.011246833 -0.0072686309
-0.0060975621 0.010785653 -0.0072835349
-0.0036585368 0.010815406 -0.011009453
-0.00074360514 0.010785653 -0.011680116
-0.0012145551 0.010264966 -0.011655279
-0.0032513493 0.012714502 -0.011184188
-0.0032569906 0.01227333 -0.0111883
-0.0022308154 0.014058543 -0.01115849
-0.0050565149 -0.008256604 -0.0076561272
-0.0057460386 -0.00528125 -0.0043163486
-0.0061547626 -0.0092407595 -0.0065956735
-0.0047590728 -0.015546218 -0.00474991
-0.0056559048 -0.015253192 -0.0042260233
-0.005617599 -0.012286856 -0.0077170953
-0.0061719227 -0.014132925 -0.0057931668
-0.0061719217 0.01324032 -0.0067619057
-0.0056513986 -0.012719632 -0.0072835349
-0.0056634559 -0.014199265 -0.0082341461
-0.0047404822 -0.0082612522 -0.0082289865
-0.0046103513 -0.0072896141 -0.0086248647
-0.0031231414 -0.0062482408 -0.010562343
-0.0017846524 -0.0062482408 -0.011605599
-0.004072668 -0.0077530826 -0.0095764063
-0.0041250517 -0.0087107364 -0.0096210577
-0.0056938911 -0.0072152317 -0.006602224
-0.0036480394 -0.0053075035 -0.009650588
-0.0036755339 -0.0057275542 -0.0096468301
-0.00074360514 0.0037935746 -0.00082172779
0.0017846522 0.0052812514 -0.00080043683
-0.00074360514 0.0062482418 -0.00080043683
-0.00030390819 0.0047508623 -0.0008036769
0.00021481923 0.0047357697 -0.00087495521
0.00011154076 0.005244059 -0.00087495521
0.0012641287 0.0047605648 -0.00080043683
-0.00073008501 0.004774088 -0.00080721127
-0.00074360514 0.0052812509 -0.00080043683
-0.0012455386 0.004748167 -0.0008252766
-0.0017722589 0.0042398777 -0.00083769625
-0.00072610856 0.002218388 -0.00083112111
-0.00075712521 0.0027522014 -0.00084785791
-0.0031231411 0.0027522009 -0.00087495521
-0.0032421185 0.0027522012 -0.0011134138
-0.001269086 0.0037737389 -0.00084514823
-0.0012506087 0.0032796497 -0.00083430903
-0.0027449653 0.0012602746 -0.0011687702
-0.002751339 0.00074383849 -0.0011730283
-0.0027310587 0.0017108273 -0.0011594798
0.00029744205 0.00974428 -0.00087495521
-0.00044616303 0.0077359164 -0.00087495521
0.001041047 0.00022315144 -0.00087495521
-0.0031231411 0.0042398777 -0.00087495521
-0.0036436648 0.0037935751 -0.0012475471
-0.0017846524 0.0092235934 -0.00080043683
-0.0032631143 -0.0047693155 -0.0011817953
-0.0032532725 -0.0042398782 -0.001191658
-0.0029744206 -0.00426113 -0.0012156107
-0.0036188783 -0.0037935749 -0.0012723864
-0.003609865 -0.0032931743 -0.0012678704
-0.0035693042 -0.003272888 -0.0029614693
-0.0035693042 -0.0037935749 -0.0029614693
-0.0017697802 -0.011752644 -0.00081534078
-0.0022308154 -0.012283958 -0.00082172779
-0.0018044818 -0.01227333 -0.00081534078
-0.003664911 -0.011242583 -0.0018436937
-0.0057257582 -0.012273331 -0.00474991
-0.0056018252 -0.013761005 -0.0037563322
-0.0056513972 -0.013240322 -0.0042282827
-0.00029744205 0.0012780491 -0.00084785791
-0.0040154676 0.0063970084 -0.0023653226
-0.00261749 0.015278434 0.0026522474
-0.0025282572 0.014951147 0.0026274081
-0.0061161523 -0.0028079893 -0.0053833155
-0.0056423843 -0.0022563087 -0.0043163486
-0.0057352921 0.0047586574 -0.0043371934
-0.0057334509 0.0052761207 -0.0043387748
-0.0047293282 0.0047754417 -0.0037215578
-0.0046797548 0.0053010867 -0.0032992864
-0.0050565144 0.005801938 -0.0037811713
-0.0047471751 0.0052872016 -0.0037185757
-0.004709499 0.0057275537 -0.0033092222
-0.0046103513 0.0052812509 -0.0029614693
-0.0046103513 0.0057275542 -0.0029614693
-0.0046847123 0.0062482413 -0.0029614696
-0.0057174969 0.0067689265 -0.0043524783
-0.0057227844 0.0057216031 -0.004368376
0.0040154676 -0.00022315147 -0.001620139
0.0040452117 -0.00078846852 -0.001620139
0.0035693042 -0.00022315147 -0.0033340615
0.0035693042 -0.00076863286 -0.0033340612
-0.0032421183 -0.00074383809 -0.0029018547
-0.0036921611 -0.001258057 -0.0037260929
-0.0027716192 -0.0012645251 -0.0011865771
0.0012747516 -0.0042292518 -0.00085366424
0.00074360508 -0.0042398777 -0.00087495521
0.00075504521 -0.0032557223 -0.00086349109
0.0022308154 0.001264525 -0.00080043683
0.0012322599 0.0032728878 -0.00081108231
0.0031231411 0.0012645249 -0.00087495521
0.0035693042 0.0012645249 -0.0029614693
0.002751339 -0.00022315144 -0.00080043683
0.00071386091 -0.00022315144 -0.00081534078
-0.00071386091 -0.0022463915 -0.00084514823
0.0035693045 0.0047924435 -0.0012581926
0.003606485 0.0037935746 -0.0013220655
0.0035693042 0.003272888 -0.001620139
0.0035693042 0.0037935751 -0.0023653226
0.0036729588 0.0032886658 -0.0027988844
0.0060975621 0.0062482413 -0.00474991
0.0031231411 0.0072152303 -0.00087495521
0.0031231414 0.0062482408 -0.00087495521
0.0035693042 0.0072152303 -0.0011730287
0.0036250749 0.0072338264 -0.0018809526
0.0061719227 0.008256604 -0.0062402766
0.0057054777 0.0057275542 -0.0043163486
0.0060975621 0.0047605643 -0.006612869
0.0056974292 0.005288335 -0.006737066
0.0056857169 0.0047605657 -0.0067217792
0.0061188079 -0.0092023406 -0.0047712009
0.0060975621 -0.0097442809 -0.00474991
0.0057184673 -0.0092250509 -0.0042852666
0.0040154676 0.0023058986 -0.0033340615
0.0052052354 -0.00022315142 -0.0043027997
0.0055472944 -0.00023802821 -0.0043773185
0.0055805794 -0.00076863274 -0.0043453816
0.0035963447 0.00025020007 -0.0032730922
0.0036287929 0.00074383803 -0.0032893503
0.0040154676 7.4383803e-05 -0.001620139
0.0040154676 0.00022315144 -0.0038556897
0.002751339 -0.015605723 -0.0022460928
0.0042066807 -0.015609974 -0.0092210118
0.0017846521 -0.015546218 -0.0014711022
0.0018218324 -0.015546218 -0.001657398
0.0017939474 -0.015629901 -0.0022349153
0.0042066807 -0.015609974 -0.0032595433
0.0037074029 -0.015567469 -0.002705978
-0.0017634064 -0.01559935 -0.0017904663
-0.0022308154 -0.01558341 -0.0018064347
-0.0022308154 -0.014727998 -0.00087495521
-0.0017846524 -0.014727996 -0.00087495521
-0.0022159433 -0.014192432 -0.00086005172
-0.0027067228 -0.014222185 -0.00087495521
-0.0014872102 -0.014579228 -0.00087495521
-0.0017617722 -0.013761007 -0.00082909781
-0.0017995244 -0.014192432 -0.00086005172
-0.00148721 -0.014207308 -0.00087495521
0.0007807854 -0.015248681 -0.0014338428
0.005502678 0.0078103002 -0.0076561263
0.0051866458 0.0072152317 -0.007712014
0.0057108854 0.0057275542 -0.0067470013
0.0061680092 0.0097521096 -0.0067030755
0.0061612986 0.010264966 -0.0067299707
0.0061719227 0.008256604 -0.0057931659
0.0061719227 0.0087029068 -0.0052715391
0.0061719227 0.008256603 -0.0047499109
0.0061719208 0.0092235925 -0.0052715382
0.0061626276 0.0072245291 -0.0066687576
0.0055026771 0.01227333 -0.0029614693
0.0055901608 0.012282081 -0.0033033774
0.005593563 0.013736212 -0.0037314927
0.0055324221 0.013210567 -0.003348965
0.0047094994 0.01324032 -0.0022659651
0.0056734318 0.014130168 -0.0052687791
0.0061719227 0.0097442809 -0.00474991
0.0055522518 0.0097442791 -0.0033589008
0.0056018252 0.0092483871 -0.0036983732
0.0040154676 0.0087029068 -0.001918212
0.0041641886 0.0087103453 -0.0022833524
0.0046103513 0.009372361 -0.0023653226
0.004709499 0.0087029068 -0.0028621117
0.004744201 0.011246834 -0.0023504191
0.0061506769 0.01269838 -0.0047712009
0.0061719217 0.012719632 -0.0052715386
0.0053539569 0.014132925 -0.0077306451
0.0023795362 0.011827026 -0.011704956
0.0012641287 0.011752642 -0.011083974
0.0037180255 0.01324032 -0.0087738996
0.0037180248 0.013240322 -0.0082522752
0.0037180257 0.014132925 -0.007209016
0.0031975021 0.01361224 -0.0082522724
0.0037180257 0.013649431 -0.0076933857
0.0017634064 0.014058543 -0.010306851
0.0036994356 0.013742413 -0.010711378
0.0022095696 0.013665372 -0.0092423027
0.0025282572 0.014058542 -0.010338787
0.0021936351 0.013649431 -0.0087739015
0.0061719217 -0.0062482413 -0.0062402766
0.0061719227 -0.0052812509 -0.006612869
0.0061719227 -0.0067689274 -0.0066873878
0.0061433222 -0.0037706872 -0.0047728391
0.0061433222 -0.0032900535 -0.0048301611
0.0060975621 -0.0037935749 -0.0043773185
0.0060975621 -0.0042398777 -0.0043773185
0.0060975621 -0.0022315148 -0.0053460565
0.0060975621 -0.0022315148 -0.0057931668
0.0060975621 0.00974428 -0.0077306451
0.0061719227 0.011231957 -0.0062402766
-0.0050777607 0.007236483 -0.003344707
-0.0050565144 0.0063970084 -0.0034085796
-0.0031231414 0.0077359164 -0.00087495521
-0.0061719227 0.011231958 -0.0067619053
-0.006186795 0.011231957 -0.004720103
-0.0061570504 0.01126171 -0.0053460565
-0.0061825449 0.011752643 -0.0053034755
-0.0061719227 0.011231959 -0.0057931668
-0.0055026771 0.006917695 -0.0077306442
-0.0061719227 0.0082566049 -0.0062402766
-0.0051308754 0.0052812514 -0.0077306451
-0.0051714359 0.0052947761 -0.007269986
-0.0051160036 0.0047605648 -0.007253726
-0.0056960136 0.0052812505 -0.0066575794
-0.0060975612 0.0052812509 -0.0065383506
-0.0061570504 0.0042101243 -0.0054056719
-0.0061719227 0.0052812509 -0.0057931663
-0.0061347424 0.0057368525 -0.0053181127
-0.0046103513 0.0057573076 -0.0091912048
-0.0041777086 0.0062482418 -0.0096816709
-0.0047526066 0.007745618 -0.0028901915
-0.004132879 0.0082644345 -0.002271194
-0.0046103518 0.0017108276 -0.0077306451
-0.0060975621 -0.00074383814 -0.0058676852
-0.0056447871 -0.00076202129 -0.0052831303
-0.0060975621 -0.0017108278 -0.0061657582
-0.0056089074 -0.0017108278 -0.0043240907
-0.0057257586 -0.00074383843 -0.0062402771
-0.0046103513 0.00022315144 -0.0071344981
-0.0046103518 0.0007884684 -0.0072686309
-0.0051917154 0.00075060048 -0.0066738399
-0.0052264812 -0.0032728876 -0.0043453816
-0.0052052354 0.0062482422 -0.0077306442
-0.0050565149 0.0047605648 -0.0077306451
-0.00466984 0.0017405815 -0.0072835339
-0.0046847123 0.0022315148 -0.0072835349
-0.00044616303 0.012124563 -0.011605599
-0.00073216506 0.012284775 -0.011651456
-0.0008055722 0.012694838 -0.011667698
0.00019487583 0.012714502 -0.011122517
-0.00087108026 0.013165936 -0.01164818
-0.0012283255 0.013232054 -0.011666317
-0.0012445602 0.0097364513 -0.011660509
-0.0017846522 0.00974428 -0.011605599
-0.0017846524 0.0092235934 -0.011605599
-0.0022308154 0.00974428 -0.011605599
-0.0017846524 0.010264968 -0.011605599
-0.0022172953 0.01024468 -0.011605599
-0.0021415825 0.010755899 -0.011605599
-0.0027513374 0.010264967 -0.011233008
-0.0025580015 0.0092682233 -0.011605599
-0.0027048637 0.0067735761 -0.011153833
-0.0031231411 0.0067689274 -0.011009452
-0.0021812415 0.0071656411 -0.011605599
-0.0017846522 0.0072152298 -0.011605599
-0.0027178768 0.0082603227 -0.01119575
-0.0046675522 0.0087029068 -0.0096337292
-0.004060084 0.00827148 -0.010189751
0.00062793324 0.0076780636 -0.011655278
-0.00029744205 -0.003272888 -0.011680116
0.00177026 -0.0027569996 -0.011196952
0.0040154676 -0.0052812509 -0.0095936032
0.0040650414 -0.0052812514 -0.0092210127
0.004647532 -0.0052998466 -0.0082150139
0.0061570508 -0.0062482408 -0.0066575804
0.0061719227 -0.0077359169 -0.0062402766
0.0061719217 -0.0077359169 -0.0057931673
0.0061719227 -0.008256604 -0.0057931668
0.0041641877 -0.0077499892 -0.0096560391
0.0035693045 -0.0078103011 -0.010711378
0.0046103513 -0.0087029068 -0.0095190853
0.0036287932 -0.008256604 -0.010681571
0.0040154676 -0.0098930476 -0.010562343
0.0032532725 -0.0097628757 -0.011009454
0.0040526479 -0.01080425 -0.010618231
0.0040452117 -0.0057721841 -0.0096383151
0.0046599256 -0.0057275542 -0.0082025938
0.0016359312 -7.4383817e-05 -0.011605599
0.0025282572 -0.0012645249 -0.011009452
0.0025282572 -0.00096698967 -0.011009453
0.0025654375 -0.0017480197 -0.011009453
0.0035693042 -0.0023802824 -0.009668122
0.0021936351 -0.0017201259 -0.011083973
0.0021964952 -0.0012759684 -0.011055311
0.0012269485 -0.00021571305 -0.011665215
0.0012269485 0.00021571305 -0.011665215
0.0026670636 -0.0067689274 -0.01106907
0.0032098955 -0.0062792343 -0.010711378
0.002751339 0.0062482408 -0.011009454
0.002731059 0.0057410789 -0.011009454
0.003222289 0.0057275537 -0.010661701
0.0031231411 0.0067689274 -0.011009452
-0.00074360514 0.008256604 -0.011605599
-0.00074360514 0.0077359173 -0.011605599
-0.00026557324 0.0082459776 -0.011658826
-0.00029744205 0.0092235925 -0.011680119
0.0017846524 0.0067875236 -0.011139862
0.0017516032 0.0057275542 -0.011175049
0.0017350785 0.0042398777 -0.011605599
0.0025580018 0.0033026417 -0.011069069
0.0017102918 0.0027522014 -0.011605599
0.0016996687 0.0022633935 -0.011605599
0.0017549081 0.0032431346 -0.011605599
0.0025877459 0.0038084516 -0.011069068
0.0017634063 -0.005323756 -0.011605599
0.0022026789 -0.0047665965 -0.011178631
0.0012322599 -0.0052918768 -0.011626891
0.0012126483 -0.0047433982 -0.0116056
0.00072944124 0.002249225 -0.011669474
-0.00029744205 0.0032728876 -0.011680118
0.00074360514 0.0032728876 -0.011680118
-0.00029744205 -0.0007438382 -0.011680118
-0.00029744205 0.00074383814 -0.011680116
0.00022308154 0.0052812509 -0.011680118
-0.001214555 0.0027522012 -0.011655278
-0.0016996689 0.0022633935 -0.011605599
-0.00072235928 0.0022208884 -0.011669473
-0.0031727152 0.0047605648 -0.010612022
-0.0026621064 0.0047828802 -0.011061618
-0.0035693042 0.003272888 -0.010115232
-0.0040154676 0.003272888 -0.009668122
-0.0040154676 0.002900969 -0.009668122
-0.0032136673 0.0022412168 -0.010218912
-0.0046797548 0.0053010862 -0.0087540299
-0.004709499 0.0057275542 -0.0087490631
-0.0046400959 0.0047903182 -0.0087440936
-0.00072501501 0.0017201259 -0.011670803
-0.0012641287 0.0017108278 -0.011605599
-0.0012641287 0.0012645248 -0.011605599
-0.0016359311 0.0012645249 -0.011605599
-0.00074360514 0.00022315144 -0.011680118
-0.00029744205 0.00022315144 -0.011680118
-0.0011897682 -0.0012645248 -0.011605599
-0.002577831 -0.0027522014 -0.010612022
0.0026769785 -0.00574739 -0.011059133
-0.00029744205 -0.0047605643 -0.011680118
-0.0016359311 -0.0046861805 -0.011605599
-0.0022049509 -0.005287719 -0.011139052
-0.0022122252 -0.0057275542 -0.011139861
-0.0012641287 -0.0052812505 -0.011605599
-0.00072501501 -0.0052719526 -0.011670804
-0.0021118384 -0.0021868844 -0.011009453
-0.0025282572 -0.0022761449 -0.01059215
-0.0025282572 -0.0017108278 -0.010562343
-0.0031772219 -0.0022179903 -0.0096681211
-0.00073713897 -0.0022412168 -0.011676878
-0.0036632337 -0.001710828 -0.0087582134
-0.0047476315 -0.0022372361 -0.0067103161
-0.0047590728 -0.0017108277 -0.0066873878
-0.0047442 -0.0012645251 -0.0067171943
-0.0041641886 0.00022315144 -0.0077306451
-0.0042385473 0.00074383838 -0.0077306442
-0.0057257586 -0.00022315144 -0.0062402771
-0.0061719217 0.0022315145 -0.0057931673
-0.0046847123 0.0067838044 -0.0091166859
-0.00070642482 0.014504844 -0.0073207933
-0.00029744205 0.015546217 -0.0060912403
-0.00029744202 0.014504843 -0.0072835349
0.00017846521 0.015546217 -0.0061210478
-0.00029744205 0.014164804 -0.010242978
-0.0022308154 0.013742412 -0.0087552732
0.0012641287 0.014207305 -0.0077306451
0.00076219527 0.01418871 -0.0082522733
-0.00074360514 0.014118048 -0.0092508197
-0.000304524 0.014129382 -0.0097745769
-0.00073684508 0.014126161 -0.0097223157
0.00022308154 0.014132922 -0.0082522733
-0.00073485682 0.014128549 -0.010273036
-0.00029744205 0.014132925 -0.010711379
-0.0055398582 0.011269148 -0.0087739015
-0.0055297185 0.010799178 -0.0087739015
-0.0051531838 0.010778216 -0.0092210118
-0.0055026775 0.0098930476 -0.0087739015
-0.0056885779 0.01078937 -0.008218741
-0.0061533325 0.0097535783 -0.0066780727
-0.0047218925 0.014542036 -0.0061657587
-0.0060975621 0.012719632 -0.0077306451
-0.0051754918 0.010264967 -0.0029018542
-0.0056183501 0.011248486 -0.0032926626
-0.0055770385 0.010830284 -0.003304254
-0.0057071685 0.011250555 -0.0037113107
-0.0056938892 0.011742016 -0.0037172986
-0.0062025418 0.010278094 -0.0042852657
-0.0061273063 0.011752644 -0.0042729918
-0.0056811422 0.012273331 -0.0037215571
0.0016359311 0.0017108278 -0.011605599
0.0022042582 0.0027575141 -0.011179782
0.0022085072 0.0032728873 -0.011195751
0.0025282572 0.0027522009 -0.011009452
0.0050936951 0.0062482408 -0.008140495
0.0050936951 0.0057647456 -0.0077306461
0.0050565149 0.0052812514 -0.0077306451
0.0041769361 0.0047669397 -0.0091869477
0.0046373922 0.0052947747 -0.0087468037
0.0036387078 0.0053010872 -0.010224525
0.0031727152 0.0047605643 -0.010612022
-0.0055598784 -0.0032900532 -0.0066300654
-0.0041641886 -0.0037935746 -0.0077306442
-0.0041506682 -0.0032931739 -0.0077306451
-0.0040154676 -0.0027670781 -0.0082075624
-0.0032470757 -0.0032852846 -0.0096805431
-0.0036224194 -0.0038148272 -0.0032808341
-0.0040154676 -0.0042823828 -0.0037279441
-0.0032532725 -0.0022315145 -0.001191658
-0.0016954197 -0.0033026417 -0.0014412948
-0.0035693042 -0.0027522014 -0.0012475471
-0.0040154676 -0.0052812509 -0.0034085796
-0.0040340577 -0.0057833418 -0.0032968021
-0.0036188783 -0.0072152307 -0.0012723864
-0.0034205837 -0.0072152298 -0.0011730287
-0.0036188783 -0.0052812514 -0.0012723864
-0.0032904528 -0.005708959 -0.0011730283
-0.0033462232 -0.0062482413 -0.0011730287
-0.0061273063 -0.0097442809 -0.00531625
-0.00074360508 -0.0042398777 -0.00087495521
-0.00074360514 -0.0047605638 -0.00087495521
0.0020820941 -0.0067689274 -0.00087495521
0.0020820941 -0.0072152303 -0.00087495521
0.0029744201 -0.0067689274 -0.00087495521
0.0036330421 0.00426113 -0.010136523
0.004065041 0.002281104 -0.009071975
0.0035963447 0.001724352 -0.0096410252
0.0035693042 0.003272888 -0.010115232
0.0036139209 0.0022687064 -0.0096755726
0.0056768926 0.0042441287 -0.0067044194
0.0056784377 0.0037935746 -0.0066873878
0.00038667463 0.0087326597 -0.00087495521
0.00077547395 0.0082672304 -0.00082172779
0.00075007125 0.009233295 -0.0008036769
0.00074360514 0.00974428 -0.00080043683
0.0012641287 0.0092235934 -0.00080043683
0.0012641287 0.0087029077 -0.00080043683
0.0012641287 0.0097442809 -0.00080043683
0.0012641287 0.010264966 -0.00080043683
0.00074360514 0.010264967 -0.00080043683
0.0017846522 0.0072152317 -0.00080043683
0.0036994356 -0.00074383843 -0.0013406947
0.0040154676 -0.00074383814 -0.0014711022
0.0036994356 -0.00022315142 -0.0013406947
0.0007807854 0.0057275542 -0.00083769625
0.001815962 0.0022432595 -0.00082004722
0.0021564548 -0.0077359173 -0.00087495521
0.0032718612 -0.0077359159 -0.0012475471
0.0021883235 -0.0082778567 -0.00087495521
0.0017846524 -0.015174297 -0.00087495521
0.0022308154 -0.014727996 -0.00087495521
0.0017846524 -0.014727995 -0.00087495521
0.0040154676 -0.003272888 -0.0014711022
0.0031231411 0.0027522009 -0.00087495521
0.0036287932 0.0027522012 -0.0013518725
0.0022308154 0.0037935751 -0.00080043683
0.0022308154 0.0062482413 -0.00080043683
0.0031231411 0.010785653 -0.00087495521
0.002751339 0.010785654 -0.00080043683
0.002751339 0.011231958 -0.00080043683
0.002751339 0.0097442809 -0.00080043683
0.004175629 0.011237679 -0.0018035686
0.0035693042 0.0067689274 -0.0011730287
0.0036287927 0.0067986809 -0.001918212
0.0017846524 0.0092235925 -0.00080043683
0.0012641287 0.008256604 -0.00080043683
0.0041985093 0.01408143 -0.0022392147
0.0035693042 0.015099915 -0.002886951
0.0012641287 0.015605723 -0.0057633598
0.00073485682 0.015616228 -0.0057843998
0.0017732122 0.015591993 -0.005758774
0.0017846524 0.0156206 -0.0052715391
0.0022010712 0.015575971 -0.0057484559
0.0012641287 0.015620596 -0.0052715382
0.0035693042 0.015099916 -0.0057931668
0.00075104123 0.014155241 -0.0087589975
0.00075007125 0.015229279 -0.0062143574
0.00022308154 0.015227431 -0.0061976952
0.00074360514 0.0156206 -0.0042282818
0.002660454 0.014521373 -0.0066377087
0.00022308154 0.0156206 -0.0032595429
-0.00072501501 0.015657794 -0.0027565439
-0.0025282572 0.014951147 0.00024282048
-0.00059488404 0.014058542 -0.00087495521
-0.0023095501 0.015257434 0.00076444866
-0.0031727152 0.012719634 -0.0008252766
-0.0025840278 0.015583408 0.0012301886
0.0031231414 0.013723815 -0.00083769578
0.0022209005 0.015585889 -0.001242579
0.0012641287 0.0156206 -0.0047499109
0.00074360514 0.015620601 -0.0047499109
0.00022308154 0.0156206 -0.0057931673
-0.00029744205 0.0156206 -0.0052715391
0.00022308154 0.015620596 -0.0052715382
0.0025282572 0.015546217 -0.0012475471
0.0022308154 0.015546217 -0.0017691758
0.0022060284 0.015595806 -0.0027461939
0.0047307452 0.012719633 -0.0022517703
0.002602618 0.015248681 0.00076444866
0.0022308154 0.012719633 -0.00080043683
0.0031603216 0.012756825 -0.00087495521
0.0040154676 0.01227333 -0.0014711022
0.0031231411 0.01227333 -0.00087495521
0.0012641287 0.01227333 -0.00080043683
0.0017846522 0.01227333 -0.00080043683
0.0022308154 0.010785654 -0.00080043683
0.0017846522 0.011231955 -0.00080043683
0.0017846522 0.010785653 -0.00080043683
0.002751339 0.013649432 -0.0092582703
0.0022308154 0.014058542 -0.010338787
0.0032718622 0.014058542 -0.010562343
0.0040898276 0.013612239 -0.0093700485
0.0055026775 0.0097740339 -0.0091613978
0.0052498523 0.0092979772 -0.0096532181
0.0052052359 0.0097256843 -0.0096867522
0.0051060887 0.010785653 -0.0096929623
0.005597319 0.014085591 -0.0043027997
0.0046103513 0.014653612 -0.0040047262
0.0060975621 0.012236138 -0.0043027997
0.0061719227 0.010785654 -0.0052715391
0.0061719227 0.011752643 -0.0047499109
0.0061719217 0.011752643 -0.0057931668
0.0061719217 0.011752643 -0.0062402771
0.0061719227 0.01227333 -0.0062402766
0.0061246022 0.012286854 -0.0077035474
0.0060975621 0.011752643 -0.0077306461
0.0061719227 0.012719631 -0.0062402766
0.0061719227 0.012719633 -0.0057931663
0.0061719227 0.01324032 -0.0062402771
0.0022010712 0.015605723 -0.0042282809
-0.00026026179 0.013761006 -0.00083769625
0.00022308153 0.014058543 -0.00080043683
-0.0047070207 0.012712194 -0.0022311897
-0.004647532 0.01324032 -0.0022535452
-0.0046549682 0.013746129 -0.0022908042
-0.0056919572 0.0077528208 -0.0043061879
-0.0056885779 0.0082566049 -0.0042903796
-0.0060975621 0.008256604 -0.00474991
-0.0060975621 0.0087029068 -0.0047499109
-0.0061612995 0.0087029068 -0.0053034751
-0.006147135 0.0091987988 -0.0053087976
-0.0061719227 0.0092235925 -0.0057931659
-0.0061719217 0.0077359173 -0.0062402766
-0.0061719227 0.008256604 -0.0057931673
-0.0061719227 0.0087029077 -0.0062402766
-0.0061719227 0.0092235925 -0.0062402771
-0.0061719227 -0.0087029068 -0.0062402766
-0.0061719227 -0.0072152303 -0.0065383506
-0.0061719227 -0.010264967 -0.0065383506
-0.0061719227 -0.010785653 -0.0062402766
-0.0012641287 0.015620601 -0.0012972257
-0.0022308154 0.015575971 -0.0012326431
-0.0031826298 0.015099915 -0.0017989827
-0.0031231414 0.015099915 -0.0014711022
-0.0036808455 0.015137106 -0.0042282818
-0.0023095501 0.015257434 -0.00027880818
-0.0017634064 0.0141223 -0.00085366424
-0.0022308154 0.013753568 -0.00077808136
-0.0036064845 0.015099915 -0.0032968021
-0.003643665 0.014951147 -0.0027379144
-0.0032506168 0.015206179 -0.0042282818
-0.0032506166 0.015206177 -0.0037066534
-0.0022308154 0.015546217 -0.0022162858
-0.0022308154 0.015620601 -0.0047499109
-0.0022308154 0.015609973 -0.0042247325
-0.0012526886 0.015214352 -0.0061944192
-0.00074360514 0.0156206 -0.0052715391
-0.005608906 0.013240318 -0.0037279448
-0.0026583883 0.014951147 -0.00029743789
-0.0031231411 0.013661828 -0.00082527613
-0.0027341789 0.014333189 -0.0077191805
-0.0060975621 0.012719633 -0.00474991
-0.0032569903 0.015196614 -0.0057857144
-0.0042385487 -0.0042398777 -0.0077306451
-0.005086259 0.0042845076 -0.0072537279
-0.0050565149 0.0037935751 -0.007209016
-0.0056365258 0.0032580108 -0.0066575799
-0.0060975621 0.0027522014 -0.0043773185
-0.0060975621 0.0022315148 -0.0043773185
-0.0060975621 0.003272888 -0.0043773185
-0.0057331938 0.0032617296 -0.0043326076
-0.0061762966 0.0022708941 -0.0052583884
-0.0060975621 0.0037935751 -0.0043773185
-0.0057416926 0.0037988874 -0.0043453816
-0.0061719227 0.0072152307 -0.0062402766
-0.0032718626 -0.015620602 -0.002216286
-0.002751339 -0.0156206 -0.0022162856
-0.0027420439 -0.015602006 -0.0017784904
-0.001273828 -0.015623834 -0.0017756554
-0.0042385492 -0.015546218 -0.0022162858
-0.0046723192 -0.015223888 -0.0022783845
-0.0051202523 -0.014738622 -0.0028230785
-0.0025282572 -0.01227333 -0.00087495521
-0.0022172953 -0.011259005 -0.00084785791
-0.0018058982 -0.01122133 -0.00082172779
-0.0031975021 -0.010785653 -0.0014711022
0.0023795362 -0.003272888 -0.00087495521
0.00369678 -0.0062482418 -0.0013646474
0.0040154676 -0.0067689274 -0.0014711022
0.0036967797 -0.006768927 -0.0013646474
0.0040154676 -0.013761006 -0.0014711022
0.002751339 -0.013761006 -0.00087495521
0.0057200384 -0.0097442828 -0.0042798715
0.0050565144 -0.0092979772 -0.0034085796
0.0050565144 -0.0097814724 -0.0033713204
0.0060975621 -0.014727995 -0.0048244288
0.0061719222 -0.013761006 -0.0044518365
0.0057108859 -0.01227333 -0.0042431857
0.0055770385 -0.012719633 -0.0037066534
0.0022494055 -0.0016922317 -0.00087495521
0.0011154077 -0.0017108278 -0.00087495521
-0.002751339 -0.00022315144 -0.0011730283
-0.0052238256 -0.0022315145 -0.0043214299
-0.0012641287 0.008256604 -0.00080043683
-0.0031231411 0.00974428 -0.00087495521
-0.0022308154 0.010785653 -0.00080043683
-0.004065041 0.011331134 -0.0014711022
0.00031493863 0.010278093 -0.00083988765
0.00026955685 0.010794953 -0.00083769625
0.00074360514 0.010785652 -0.00080043683
-0.00014872101 0.011380725 -0.00087495521
0.0056274114 0.013756211 -0.0082258312
0.0040749563 0.011737767 -0.010661702
0.0043129092 0.0091492096 -0.010860416
0.0061686886 0.011225489 -0.0067521865
0.0051160031 0.012719631 -0.0096383141
0.0036519272 0.011752643 -0.011092252
0.00011154076 0.00974428 -0.011642857
0.0041146148 0.0098434584 -0.010761059
0.0040898281 0.010264967 -0.010711378
0.0021995057 0.010253222 -0.011064363
-0.0051439977 -0.013769757 -0.0091771772
-0.004079205 -0.013782258 -0.010583634
-0.0031975021 -0.010785653 -0.011009454
-0.003643665 -0.010800531 -0.010607054
-0.0040650414 -0.011256752 -0.01021459
-0.0036994356 -0.013240319 -0.010692749
-0.0031231411 -0.0042398777 -0.010115232
-0.0026456688 -0.0042477082 -0.01065647
-0.0022010712 -0.0042398777 -0.011069069
-0.0021415828 -0.0032877647 -0.011088939
-0.0017846522 -0.0067689279 -0.011605599
-0.0041195722 -0.0072226697 -0.0091912048
-0.00074360514 -0.0092235934 -0.011680116
-0.00029744205 -0.0092235925 -0.011680118
-0.0012641287 -0.008256604 -0.011605599
-0.00071386091 -0.0077210409 -0.011635407
0.0016359312 -0.008256604 -0.011605599
-0.0020820941 -0.0071408465 -0.011605599
-0.0022172953 -0.0077359159 -0.011212687
-0.002222067 -0.0082609793 -0.011219859
-0.0026769785 -0.0087093757 -0.01111313
-0.00029744205 -0.0077359169 -0.011680115
0.00022308154 -0.0037935746 -0.011680116
0.0016359311 -0.0037935749 -0.011605599
0.0012641287 -0.0042398782 -0.011605599
0.00022308154 -0.0057275542 -0.011680118
-0.00029744205 -0.0062482413 -0.011680116
0.0027017654 -0.015595807 -0.010711378
-0.0057460386 -0.01526221 -0.00474991
-0.0059488411 -0.014653613 -0.0052963779
-0.0052052359 -0.015546218 -0.0052715386
-0.0047590728 -0.015546218 -0.0052715386
-0.0042385492 -0.0156206 -0.0032595429
-0.0050565144 -0.015546218 -0.0029614693
-0.0037180257 -0.0156206 -0.0042282809
-0.0037180255 -0.0156206 -0.0037066534
-0.0047590728 -0.015546218 -0.0037066529
-0.0032718626 -0.015620602 -0.0062402766
-0.0032718626 -0.0156206 -0.0057931668
-0.0037180255 -0.015620602 -0.0087739015
-0.002751339 -0.0156206 -0.0092210127
-0.0022308154 -0.0156206 -0.0092210127
-0.00073652319 -0.014703201 -0.011676569
-0.0035693042 -0.0097814715 -0.010599601
-0.0017753573 -0.015629901 -0.0087925317
-0.0017549081 -0.015635479 -0.0082522724
-0.002751339 -0.0156206 -0.0087739024
-0.001041047 -0.015546218 -0.011009453
-0.00074360502 -0.015546218 -0.011009452
0.00022308154 -0.015248682 -0.011083973
0.00014872101 -0.015588722 -0.011030746
-0.0012641287 -0.0087029068 -0.011605599
-0.0046847123 -0.012288207 -0.0095637962
-0.004709499 -0.012739467 -0.0095985718
-0.0047590728 -0.015546218 -0.0072835349
-0.0042385492 -0.0156206 -0.0047499109
-0.0051714359 -0.015241921 -0.0092006894
-0.0032718626 -0.0156206 -0.0097426409
-0.0032718626 -0.0156206 -0.0052715391
-0.0037180255 -0.015620602 -0.0072835349
-0.0037180257 -0.0156206 -0.0067619067
-0.0032718626 -0.015620602 -0.0077306451
-0.0032718626 -0.0156206 -0.0072835339
-0.0042385492 -0.0156206 -0.0062402766
0.0022109859 -0.0032629694 -0.011128684
0.0025877459 -0.0022315145 -0.010711379
0.0035693045 -0.0027522014 -0.0096681211
0.0031231411 -0.0027522014 -0.010115232
0.0036240965 -0.0038014043 -0.0096994974
0.0040154676 -0.0043142615 -0.0092210118
0.0031231414 -0.002454666 -0.010115232
0.0032478753 -0.0017156266 -0.0097354287
-0.002175045 -0.010227775 -0.011605599
-0.0055324221 0.0077805473 -0.0077306451
-0.0055664158 0.0077465428 -0.007262243
-0.002751339 0.014058543 -0.010338788
-0.0052052359 0.014058544 -0.0082522724
-0.0035693042 0.0098930476 -0.011009453
-0.0061751553 0.012279796 -0.0052812584
-0.0061719227 0.01227333 -0.0057931668
-0.0061719227 0.012719633 -0.0057931668
-0.0061719217 0.01324032 -0.0057931668
-0.0046103518 0.011777438 -0.010264269
-0.0012641287 0.014118048 -0.010294076
-0.001744092 0.014112639 -0.010318464
-0.0012438486 0.014099115 -0.0098713553
-0.0012535058 0.013750381 -0.011626892
-0.0027067228 -0.0082714809 -0.0014711022
-0.002206828 -0.0082614031 -0.0012739892
-0.0060975621 -0.01071127 -0.00474991
-0.0057054781 -0.014193782 -0.0047499109
-0.0056513976 -0.014207307 -0.0042282818
-0.0055677434 -0.015239383 -0.0037252826
-0.0057521453 -0.0057227556 -0.0043268371
-0.0060975621 -0.0052626547 -0.0047685392
-0.0046103518 -0.0062482408 -0.0081777545
-0.0046847123 -0.0062482413 -0.0077306451
-0.0042236759 -0.0052812505 -0.0082373703
-0.0056776442 -0.0057363054 -0.0065821856
-0.0056761857 -0.0062482413 -0.0065880301
-0.0058079474 -0.011247617 -0.0081385355
-0.0061471355 -0.014132925 -0.0053212172
-0.0061719227 -0.013761007 -0.0057931659
-0.0061719227 0.012719634 -0.0067619062
-0.0061719217 0.01324032 -0.0062402766
-0.0061347424 0.013723816 -0.0062402766
-0.0061347424 0.013723815 -0.0067619062
-0.0056089074 -0.012719631 -0.0077093532
-0.0017917342 -0.013243861 -0.00081108231
-0.0014128498 -0.013203128 -0.00083769625
-0.0017747376 -0.012739467 -0.00081534078
0.0012641287 -0.014727995 -0.00087495521
-0.0022209005 -0.012719633 -0.00081534078
-0.0022464702 -0.013228575 -0.00082004722
-0.004210664 -0.0067782248 -0.0087645855
-0.0046772761 -0.0072226687 -0.0082075614
-0.0040526479 -0.0062482408 -0.0091837533
-0.0017660622 -0.0057461499 -0.011605599
-0.0036975124 -0.009231288 -0.010228296
-0.0041443594 -0.0092335092 -0.0096383151
-0.003639291 -0.0087116575 -0.010255502
0.00022308152 0.0042398782 -0.00087495521
0.0036064845 0.0027150093 -0.001620139
0.0046847123 0.0047605643 -0.0038556901
-0.00074360514 0.0057275542 -0.00080043683
-0.0012605877 0.0057275542 -0.00081108231
-0.0012492567 0.0062482418 -0.00080540497
-0.0017516031 0.0062647713 -0.0008252766
-0.00032718625 0.0052812505 -0.00081534078
0.00075712521 0.0047470401 -0.00080721127
-0.0017102916 0.0017108278 -0.00087495521
-0.0017549081 0.0022612684 -0.00087495521
-0.0012641287 0.0017108278 -0.00087495521
-0.0037180253 0.0034960394 -0.0013220655
-0.0029744203 0.003272888 -0.00087495521
-0.0012393419 0.0022480444 -0.00085839583
-0.0020820941 0.0033472718 -0.00087495521
-0.00071881828 0.0032728878 -0.0008252766
0.00044616303 0.0079590688 -0.00087495521
-0.0035693042 0.0017108278 -0.0011730287
-0.00074360508 0.00022315144 -0.00087495521
-0.0022095696 0.0062482404 -0.00085366424
-0.0017952753 0.0067795538 -0.00082172779
-0.0017781862 0.007745618 -0.0008036769
-0.0017970457 0.0057523493 -0.00083769625
-0.0017722589 0.0052812514 -0.00083769625
-0.0017648229 0.0047655231 -0.00084514823
-0.0028392198 0.0047808508 -0.00087495521
-0.0012602151 0.0052890801 -0.00082004722
-0.0036188783 0.0052812509 -0.0012723864
-0.0031231411 0.0052812509 -0.00087495521
-0.0031231411 0.0037935751 -0.00087495521
-0.0031231414 0.0047605643 -0.00087495521
-0.0032532725 -0.0037935749 -0.0011916584
-0.00290006 -0.0037935742 -0.0012475471
-0.0032346824 -0.01227333 -0.0014338428
-0.003222289 -0.012739469 -0.0013916157
-0.0017722589 -0.0097690737 -0.00083769625
0.0022308154 -0.0092235934 -0.00087495521
0.0022308154 -0.0087029068 -0.00087495521
0.0017846524 -0.0092235934 -0.00087495521
0.0025282572 -0.0092979772 -0.00087495521
0.0022308154 -0.00974428 -0.00087495521
0.0025282572 -0.00974428 -0.00087495521
-0.0055814125 -0.013288451 -0.003776788
-0.0056811413 -0.012704755 -0.0042282827
-0.0057257582 -0.012719632 -0.0047499109
-0.0060975617 0.0012942783 -0.0051374054
-0.0056885784 0.00076243433 -0.0043354016
-0.0056578652 0.00021668326 -0.0043287184
-0.0057211109 0.0012598761 -0.0043214289
-0.0035693042 -0.00022315145 -0.0029614693
-0.0041709486 0.0052880133 -0.0028734026
-0.0060975621 0.0042398777 -0.00474991
-0.0060975621 0.0048349481 -0.005346057
-0.0032346824 -0.0012645248 -0.0029242104
-0.0031727152 -0.0017108277 -0.0029117905
-0.0028459795 -0.0027454391 -0.0012069005
0.00074360514 -0.0037935749 -0.00087495521
0.001214555 0.0027522012 -0.0008252766
0.0012438486 0.0038003365 -0.00080721127
0.0036755339 0.001264525 -0.0013433564
0.0040154676 0.00074383814 -0.0014711022
0.0040154676 0.00022315144 -0.0014711022
0.004072668 0.0017222714 -0.0037525108
0.002751339 -0.0012645251 -0.00080043683
0.0031231411 -0.00022315147 -0.00087495521
0.00022308154 -0.00074383838 -0.00080043683
0.0022494055 0.00023244941 -0.00080975192
0.0035693042 0.0052812509 -0.0011730287
0.0035693042 0.0057275537 -0.0011730287
0.004071238 0.0042584734 -0.0029242104
0.0041084182 0.0047884579 -0.0029055811
0.003643665 0.0047605643 -0.0023653228
0.0041146148 0.0052812514 -0.0028621119
0.0060975621 0.0067689279 -0.00474991
0.0061719227 0.006768927 -0.0052715391
0.0060975612 0.0052812509 -0.0048989467
0.0031231411 0.0057275542 -0.00087495521
0.0031231411 0.0067689274 -0.00087495521
0.0035693042 0.0062482408 -0.0011730287
0.0040154676 0.0063970084 -0.0023653226
0.0056811422 0.0042398786 -0.0047648149
0.0055192024 0.011265016 -0.0032926623
0.0061347424 0.010264967 -0.0072462754
0.0056089065 -0.014727996 -0.0037066536
0.005632001 -0.014207307 -0.0037260933
0.0056513986 -0.015212774 -0.0042668255
0.0060975617 0.0043142615 -0.0054950938
0.0055522518 0.0033076 -0.0043624146
0.0060975621 0.0048349481 -0.005383316
0.0056742774 -0.00076100405 -0.0062402776
0.0061719227 -0.0052812509 -0.0062402766
0.0061719227 -0.0047605643 -0.0066128699
0.0040154676 -7.4383817e-05 -0.0038556897
0.0035693042 0.00089260575 -0.0029614693
0.0047590728 0.00022315144 -0.0043027997
0.0047590728 -0.00022315142 -0.0043028006
0.0036755339 0.00022315144 -0.0013433564
0.0032718624 -0.015609974 -0.0097745769
0.0032718626 -0.015546218 -0.0092210127
0.0029000598 -0.015546218 -0.0092955306
0.0026769785 -0.015612336 -0.0071676169
0.0057257595 -0.015546218 -0.0052715386
0.0060975621 -0.015248681 -0.0052715386
0.0012641286 -0.015546218 -0.0014711022
0.0017759041 -0.015651232 -0.0026896966
0.0041827788 -0.015574112 -0.0027938031
0.0047962531 -0.01558341 -0.0047499109
0.0042236769 -0.015575971 -0.0036768459
-0.0008179656 -0.015174299 -0.0014711022
-0.0022109859 -0.013761005 -0.00081534078
-0.0036909855 -0.01377453 -0.0014440045
-0.0046103513 -0.013389086 -0.0022908042
-0.003643665 -0.013240319 -0.0014711022
0.0051494655 0.0072152312 -0.0081963846
0.0061719217 0.0072152312 -0.0052715391
0.0061719227 0.0067689274 -0.0057931673
0.0061719227 0.0087029077 -0.0057931668
0.0061719227 0.0087029077 -0.0047499109
0.003680845 0.014058542 -0.0014338428
0.0041429428 0.0082778567 -0.0023120954
0.0040749558 0.0072449842 -0.0023653226
0.0046847123 0.010785653 -0.0023653228
0.0061719217 0.012719632 -0.0067619067
0.00023795362 0.011202203 -0.011605599
0.000726445 0.01077421 -0.01115849
0.0023200479 0.012332837 -0.011665213
0.0041641886 0.01361224 -0.0076933857
0.0041732923 -0.0032865498 -0.0082416292
0.0042025684 -0.0027617987 -0.0077210283
0.0041506682 -0.0027522005 -0.0082319509
0.0042236759 -0.0032778461 -0.0077207098
0.0057257582 -0.0012645251 -0.0057931673
0.0057160589 -0.001261291 -0.0052812584
0.0056742779 -0.00076100405 -0.0057931677
0.0056513976 -0.00022315144 -0.0062402776
0.0061719227 -0.0037935744 -0.0057931663
-0.0051866453 0.0077359164 -0.0037252835
-0.0055026775 0.0084053716 -0.0037811713
-0.005502678 0.0087029068 -0.003781171
-0.0047590728 0.008256604 -0.0028869514
-0.0051215803 0.0072245286 -0.0037252826
-0.0051160031 0.0067689274 -0.0037364601
-0.0031231411 0.0072152303 -0.00087495521
-0.0056301532 0.010785653 -0.0037279441
-0.0061433222 0.0097671663 -0.0047269817
-0.0061719227 0.011231957 -0.0062402766
-0.0061719227 0.011752643 -0.0062402771
-0.0061612995 0.008256604 -0.0053034755
-0.005502678 0.0067901802 -0.007240952
-0.0061719227 0.0047605648 -0.0057931673
-0.0061347424 0.0052812514 -0.0053460575
-0.0046103513 0.0052812509 -0.009071975
-0.0046103513 0.0064713922 -0.0095190853
-0.0046644323 0.0062414785 -0.0091397194
-0.0061347424 -0.00018595954 -0.0058676852
-0.005621654 -0.00022315144 -0.0052864421
-0.0060975621 -0.0017108277 -0.0057931668
-0.0056998185 -0.001717747 -0.005287136
-0.0056709656 -0.0012606101 -0.0052950704
-0.0057257582 -0.0012645251 -0.006240278
-0.0041939318 -0.00074383849 -0.0072686309
-0.0047445619 -0.00073839579 -0.0067237373
-0.004737827 -0.0027522014 -0.0043453816
-0.0047425483 -0.0022397791 -0.0043524792
-0.0051308754 0.0057275542 -0.0077306451
-0.0056996313 0.004766596 -0.0066430788
-0.0047075925 0.0037992967 -0.0082178796
-0.0047590728 0.0037935751 -0.0077306442
0.0042182691 0.0057275542 -0.0092074648
-0.00029744205 0.012719632 -0.011233008
0.0001889159 0.01226529 -0.011182659
0.00074360514 0.012719633 -0.011083973
-0.0027364669 0.011231958 -0.011218105
-0.0020820941 0.011157572 -0.011605599
-0.0018058982 0.013261572 -0.011648183
-0.0021361748 0.013220033 -0.011754636
-0.0012641287 0.012719632 -0.011680118
-0.0012469685 0.012284775 -0.011617064
-0.00073485682 0.011223205 -0.011675736
-0.00071736024 0.011739516 -0.011649436
-0.0017846522 0.012719633 -0.011605599
-0.0012641287 0.011231956 -0.011605599
-0.0017711322 0.011745881 -0.011605599
-0.0012641287 0.011752644 -0.011605601
-0.0017846522 0.0087029068 -0.011605599
-0.0022308154 0.0087772906 -0.011605599
-0.0027465925 0.010782487 -0.011228252
-0.0012641287 0.0067689274 -0.011605599
-0.0012641287 0.0072152312 -0.011605599
-0.0017846524 0.0077359164 -0.011605599
-0.0031231411 0.0072152303 -0.011009452
-0.0026862735 0.0072152317 -0.011167806
-0.0047049928 0.0082701286 -0.0095597319
-0.0040650414 0.0077607119 -0.010148353
-0.00074360514 -0.0032728873 -0.011680118
0.0046103518 -0.0037935746 -0.0076561272
0.0046740891 -0.0027734539 -0.0071557881
0.0057025212 -0.0037982236 -0.0066687586
0.0061719213 -0.0077359164 -0.0052715391
0.0061719217 -0.008256604 -0.0052715386
0.0061719227 -0.0077359159 -0.0066873878
0.0061719227 -0.0072152317 -0.0062402766
0.0061719227 -0.0072152307 -0.0066873878
0.0060975617 -0.014579228 -0.0080287177
0.0061570504 -0.014207309 -0.0073133418
0.0060975617 -0.014281693 -0.0080287177
0.0055398582 -0.014225906 -0.009239641
0.003639291 -0.0087116584 -0.010702612
0.0047153304 -0.0062613678 -0.0081996731
0.0046103513 -0.0079590688 -0.0092210118
0.0050565149 -0.0072152303 -0.0081032356
0.0031727152 0.0012645248 -0.010164913
0.0035693042 0.0012645249 -0.0095190853
0.0035693042 0.00089260575 -0.0095190853
0.0035693042 -0.001636444 -0.0095190853
0.0040154676 -0.0006694544 -0.0086248647
0.0036436652 -0.00022315144 -0.0091464939
0.0040749563 0.00025290498 -0.0086248647
0.0016855049 0.00079342735 -0.011605599
0.0016359311 0.00022315144 -0.011605599
0.0017102916 0.0012645248 -0.011605599
0.0022172953 -0.00075736246 -0.011077199
0.0012289053 -0.00074775302 -0.011629132
0.0032718626 -0.0077359173 -0.010711376
0.0031826301 -0.0057275542 -0.010741186
0.0032293708 -0.006768927 -0.010711379
0.0035693042 0.0067689274 -0.010562343
0.0040154676 0.0067689274 -0.010115232
0.0037180253 0.0079590688 -0.011307526
0.0040749558 0.0072449842 -0.010115232
0.0036064845 0.0072524222 -0.010562343
0.0027067228 0.0087177828 -0.011009454
0.0037180253 0.008256604 -0.011307526
0.0031231414 0.0088516744 -0.011009453
0.0022243492 0.0062385388 -0.011080733
-0.0002761962 0.0087241586 -0.011658827
-0.00074360514 0.0087029077 -0.011605599
0.00018590127 0.0087029077 -0.011665215
0.0017681278 0.0062399772 -0.011108812
0.0012210779 0.0027522012 -0.011660509
0.0031231411 0.0033472718 -0.010562343
0.0025282572 0.002454666 -0.011009453
0.0021958221 0.0022315141 -0.011167258
0.0017846522 -0.0057275537 -0.011605599
-0.00074360514 0.003272888 -0.011680118
0.0012641287 0.0042398777 -0.011605599
0.0012469685 0.0037821305 -0.011617064
-0.00029744205 -0.001264525 -0.011680116
0.00022308154 -0.00074383838 -0.011680117
0.00066924462 0.008256604 -0.011605599
-0.0046103513 0.0043886453 -0.0087739015
-0.0042040884 0.0047732648 -0.0092137437
-0.0031231411 0.0037935751 -0.010562343
-0.0031975021 0.0042398777 -0.010562343
-0.0036064845 0.003830767 -0.010115232
-0.0025282572 0.0017852116 -0.011009453
-0.0041455985 0.0037935746 -0.0092085926
-0.0041344445 0.0032877645 -0.0092061097
-0.0016359311 0.0017108278 -0.011605599
-0.00072235928 0.00073321175 -0.011669474
-0.0012476041 0.00071904343 -0.011622161
-0.0017350786 -0.0012521278 -0.011170912
-0.0036064845 0.00026034334 -0.0095190853
-0.0031231411 -0.00022315147 -0.010115232
-0.0031892399 0.00076863263 -0.010131792
-0.0040526479 0.00024174739 -0.0086807534
-0.0040154676 0.00081822195 -0.009071975
-0.0040154676 0.0017108278 -0.0091464939
-0.0035693042 -0.00022315148 -0.0095190853
-0.0026826984 -0.0012588033 -0.010235609
-0.0025282572 -0.0012645249 -0.010562343
-0.0040749563 -0.0012347713 -0.0077306451
-0.004121697 -0.0017108278 -0.007262243
-0.0040154676 -0.0017108277 -0.0077306451
-0.0040154676 -0.0017108278 -0.0081032366
0.00074360514 -0.0057275542 -0.011680117
0.00074360514 -0.0052812505 -0.011680118
0.00022308154 -0.0062482418 -0.011680114
0.00073008501 -0.0062347171 -0.011673343
-0.00029744205 -0.0052812505 -0.011680117
-0.0026075754 -0.0033076 -0.010621959
-0.0027067228 -0.0032728873 -0.010249368
-0.0026344866 -0.0022315145 -0.010242979
-0.0026769785 -0.0027693664 -0.010252804
0.00023795365 0.014147799 -0.0097823832
0.00026769785 0.014088297 -0.0092210127
-0.00032448221 0.014085591 -0.0092345616
-0.00074360502 0.015546217 -0.0060912403
-0.001041047 0.014108132 -0.0091713332
-0.0061719227 0.0097442809 -0.0057931673
-0.0061719227 0.010264967 -0.0062402766
-0.0061719227 0.010264967 -0.0057931668
-0.0060975617 0.0098930476 -0.0071344981
-0.0061636604 0.0092401234 -0.0066377092
-0.0056513972 0.0092235934 -0.0077306461
-0.0055605141 0.01322379 -0.0087325033
-0.005502678 0.01033935 -0.0087739015
-0.0055621662 0.0087029068 -0.0081479466
-0.0061719227 0.00974428 -0.0062402771
-0.0056142183 0.014095734 -0.0065383506
-0.0051308749 0.014504844 -0.0056441301
-0.0047218925 0.014554434 -0.0058055869
-0.0056737075 0.014125486 -0.0057782633
-0.0061471355 0.01324032 -0.0053212177
-0.0061347424 0.013723816 -0.0057931673
-0.0037180257 0.014207308 -0.0082522733
-0.0046740891 0.010296846 -0.0023653228
0.0047590714 0.0052812505 -0.0082522742
0.004647532 0.0057275551 -0.0087366411
0.0031727152 0.0053060451 -0.0106617
0.0026426581 0.0042284345 -0.011055311
0.0060975621 0.0047903182 -0.0057633589
0.0060975621 0.0047605638 -0.0062402771
0.0057122377 -0.0032593636 -0.006673838
0.0047033024 -0.0037935749 -0.0072276453
-0.0047455509 -0.0032728873 -0.0067415815
-0.0047442 -0.0027522007 -0.0067171943
-0.0047293287 -0.0037935749 -0.0067320974
-0.0055239238 -0.0027734539 -0.0066235145
-0.0040792054 -0.0032728876 -0.0082203373
-0.0040154676 -0.0022439121 -0.0081901746
-0.0032380624 -0.0027657254 -0.0096545732
-0.0027745767 -0.0017061786 -0.001191658
-0.0032532725 -0.0017108278 -0.001191658
-0.001041047 -0.0037935749 -0.00087495521
-0.0011897682 -0.0052812509 -0.00087495521
-0.0033834034 -0.006731736 -0.0011730287
-0.0036188783 -0.0062482408 -0.0012723864
-0.002602618 -0.0072152303 -0.0014711022
-0.0036188783 -0.0067689279 -0.0012723864
-0.0036188783 -0.0077359173 -0.0012723864
-0.0036188783 -0.0057275537 -0.0012723864
-0.0036684519 -0.0057275542 -0.0028621119
-0.0060975621 -0.0072152303 -0.0048244288
-0.0050565144 -0.0092979772 -0.0038556897
-0.0057257582 -0.0087029068 -0.0043027997
-0.0057257582 -0.0092235934 -0.0043027997
-0.0057257582 -0.0097442828 -0.0043027997
-0.0050565144 -0.0097814724 -0.0038184305
-0.00027040186 -0.0052677263 -0.00084785791
0.00074360508 -0.0057275537 -0.00087495521
0.00022308154 -0.0052812509 -0.00087495521
0.00022308154 -0.0057275542 -0.00087495521
-0.00026769785 -0.0042398777 -0.00081534078
-0.00026026179 -0.0047605643 -0.00083769625
0.00022308153 -0.0062482408 -0.00087495521
0.00022308154 -0.006768927 -0.00087495521
-0.00029744205 -0.0062482413 -0.00087495521
-0.00029744202 -0.0067689279 -0.00087495521
0.0029446762 -0.0062036105 -0.00087495521
0.0040154676 -0.0057275542 -0.0014711022
0.0036967797 -0.0057275542 -0.0013646474
0.00290006 -0.0057275537 -0.00087495521
0.0017846522 -0.0067689279 -0.00087495521
0.0017846524 -0.0062482413 -0.00087495521
0.0012641287 -0.0067689274 -0.00087495521
-0.0041950536 -0.0047816173 -0.0082396204
-0.0042385487 -0.0047605648 -0.0077306451
0.0040154676 0.0042696311 -0.0095787002
0.0036064845 0.003830767 -0.010115232
0.00077334937 0.0087029068 -0.00081534078
0.00037180254 0.0092235934 -0.00087495521
0.0017846524 0.010264967 -0.00080043683
0.0022308154 0.0072152307 -0.00080043683
0.0017846524 0.0077359164 -0.00080043683
0.002751339 -0.014727997 -0.00087495521
-0.0014128498 -0.013761006 -0.00087495521
-0.00077334937 -0.014698243 -0.0014711022
0.00089232606 -0.014132925 -0.00087495521
0.0040154676 -0.0042398777 -0.0014711022
0.0040154676 -0.0047605643 -0.0014711022
0.0040154676 -0.0027522014 -0.0014711022
0.0036967797 -0.0027522012 -0.0013646474
0.0040154676 -0.0062482408 -0.0014711022
0.0040154676 -0.0052812509 -0.0014711022
0.0041146153 -0.0047605643 -0.001744336
0.004121697 -0.0052812505 -0.0017691753
0.00369678 -0.0032728873 -0.0013646474
0.0017846522 0.0042398777 -0.00080043683
0.0022308154 0.0042398777 -0.00080043683
0.0036882816 0.011231957 -0.0014114873
0.002751339 0.010264966 -0.00080043683
