# .PCD v0.7 - Point Cloud Data file format
VERSION 0.7
FIELDS x y z
SIZE 4 4 4
TYPE F F F
COUNT 1 1 1
WIDTH 1194
HEIGHT 1
VIEWPOINT 0 0 0 1 0 0 0
POINTS 1194
DATA ascii
-0.0066268183 0.0056356164 -0.00036866404
-0.00702244 0.0050423858 -0.0011612903
-0.0067009856 0.0051659774 -0.001235595
-0.008077452 0.0027683638 -0.0012273379
-0.0037584899 0.0080085034 -0.034748849
-0.004213464 0.0076921145 -0.035244241
-0.0051926519 0.0070692301 -0.03573963
-0.0042134621 0.0076921191 -0.033262663
-0.0021759653 0.0086017242 -0.035244234
-0.0047475626 0.007217533 -0.032271892
-0.0042134696 0.0076921168 -0.031776503
-0.0047475612 0.0072175353 -0.031776495
-0.0037584968 0.0080085052 -0.028209679
-0.0021759723 0.0086017251 -0.028209675
-0.0021759658 0.0086017149 -0.027714282
-0.0021759626 0.0086017223 -0.027218893
-0.0057036728 0.0066902274 -0.029794935
-0.0057036746 0.0066902242 -0.028705064
-0.006692749 0.0057015293 -0.033262666
-0.0066927541 0.0057015307 -0.03573963
-0.006692756 0.0057015209 -0.035244241
-0.0057036704 0.0066902237 -0.035244234
-0.0061652409 0.0061629247 -0.035244241
-0.0061652483 0.0061629196 -0.035739623
-0.0066927453 0.0057015261 -0.03623502
-0.0061652488 0.0061629247 -0.036235027
-0.0057036686 0.0066902256 -0.03623502
-0.0071015735 0.0052005802 -0.029794931
-0.0071015628 0.0052005816 -0.029299529
-0.0072202641 0.0047457828 -0.029794928
-0.006692756 0.0057015205 -0.032767273
-0.0071015717 0.0052005788 -0.032767273
-0.007101567 0.0052005816 -0.032271888
-0.0071015689 0.0052005826 -0.034253452
-0.0066927471 0.00570152 -0.034748845
-0.0066927527 0.0057015223 -0.034253448
-0.007088379 0.0051961849 -0.034737837
-0.0061652423 0.0061629163 -0.034748845
-0.0066927494 0.005701527 -0.027714277
-0.0071015628 0.0052005877 -0.02771429
-0.0066927485 0.0057015256 -0.028209679
-0.00570367 0.0066902321 -0.024741933
-0.0051926523 0.0070692371 -0.025732722
-0.0057036802 0.0066902321 -0.026228113
-0.0066927564 0.005701527 -0.023751153
-0.0066927546 0.0057015293 -0.021769587
-0.0066927467 0.0057015279 -0.024246544
-0.0057036728 0.0066902218 -0.024246547
-0.0037584873 0.0080085061 -0.038216591
-0.0066927457 0.0057015233 -0.036730412
-0.0047475672 0.0072175367 -0.03623502
-0.0047475728 0.0072175325 -0.036730424
-0.0042134682 0.0076921121 -0.035739638
-0.004747563 0.0072175353 -0.037225813
-0.0032639527 0.0081073651 -0.037721202
-0.0081014317 0.0032447448 -0.037712187
-0.0086049596 0.001779667 -0.038711984
-0.0066927518 -0.0057015233 -0.002350226
-0.0070718965 -0.0051907008 -0.038216595
-0.0066927518 -0.0057015303 -0.036235027
-0.0076158885 -0.0040536905 -0.0011612847
-0.0076158936 -0.0037372946 -0.0017953943
-0.0070506968 -0.0047316491 -0.0017840713
-0.005242107 -0.0022740194 -0.00026957877
-0.0047475672 -0.001779668 -0.00026958808
-0.0052420986 -0.0017796638 -0.0002695825
-0.0057366481 -0.0012853123 -0.00026958063
-0.0057366472 -0.002274021 -0.0002695825
-0.0062311762 -0.0027683747 -0.00036865845
-0.0067257243 -0.0027683664 -0.00036866404
-0.0052421074 -0.0027683647 -0.00026958808
-0.0076767574 -0.0042057959 -0.00076497719
-0.0072202557 -0.004745781 -0.00076497719
-0.0017803333 -0.0086017223 -0.0062142788
-0.0021759667 -0.0086017204 -0.0057188878
-0.0017803321 -0.0086017195 -0.0057188878
-0.0021759681 -0.0086017186 -0.0052234977
-0.0027694076 -0.0082062418 -0.0052235071
-0.002769409 -0.0082062371 -0.0057188924
-0.0037584957 -0.0080085015 -0.0072050719
-0.0037584926 -0.0080084968 -0.0067096781
-0.0032639562 -0.0081073707 -0.0067096809
-0.0027694094 -0.008206239 -0.0047281059
-0.0032639545 -0.0081073754 -0.005223508
-0.0022748692 -0.0070197918 -0.039603688
-0.0012462371 -0.0086808167 -0.034748837
0.00029671646 -0.008700599 -0.032767273
0.0007912548 -0.0087005962 -0.032767277
-0.00029672563 -0.0087005943 -0.033758063
0.00029671888 -0.0087005943 -0.034253456
-0.00029671664 -0.0087005878 -0.035739627
-0.0031980085 -0.0080414591 -0.001227336
-0.0027552864 -0.0080932444 -0.0012462195
-0.0037584966 -0.0076130242 -0.0017557554
-0.0017803429 -0.0061793975 -0.00031912886
-0.0032639562 -0.0067231781 -0.0003686659
-0.0037584887 -0.0057344767 -0.00036866218
-0.0032639583 -0.0057344879 -0.00036866032
-0.0017803407 -0.0052401284 -0.00026958622
-0.00079125987 -0.0052401288 -0.00026958808
-0.0037584861 -0.0042514233 -0.00026958995
-0.0042530303 -0.0037570712 -0.00026958995
-0.0037584889 -0.0072175306 -0.00036865659
-0.0042530289 -0.0072175316 -0.00036866218
-0.0047277883 -0.0071779885 -0.0003686659
-0.0042530266 -0.0062288349 -0.00036866404
-0.0057138209 -0.0061679948 -0.0017557573
-0.0041870875 -0.0076459679 -0.0022841748
-0.0041541168 -0.0076130209 -0.0011612922
-0.0047277887 -0.0070198001 -0.0017557554
-0.0037387132 -0.0076525719 -0.0012405533
-0.0022485065 -0.0081666941 -0.0012537669
-0.0022748709 -0.0081073698 -0.0017557517
-0.0012610727 -0.0086511597 -0.002275927
-0.00079126481 -0.0086676329 -0.0022841748
-0.0042134603 -0.0076921121 -0.004232714
-0.0086709056 0.0012413666 -0.029783916
-0.0086756144 0.0012429355 -0.029285382
-0.0086049698 0.0017796671 -0.030290321
-0.0086049624 0.0017796728 -0.029794935
-0.0086049698 0.0021751428 -0.03128111
-0.008604967 0.0017796707 -0.030785717
-0.0087038763 0.00029661137 -0.033262666
0.00029672912 0.0052401293 -0.039702762
-0.0002967176 0.0052401298 -0.039702758
0.00079125923 0.006179397 -0.039653219
0.00029672161 0.0061793942 -0.039653223
0.0013055798 0.0062090657 -0.039623499
0.00029672368 0.0067231869 -0.039603688
-0.00079125649 0.0062288353 -0.03960368
0.002769416 0.007711886 -0.039207377
0.0051964582 0.0032475155 -0.039664648
0.0061916234 0.0037768465 -0.039603684
0.005736643 0.0037570749 -0.039603688
0.0060993098 0.0041195969 -0.039603692
0.0057366467 0.004251427 -0.039603688
-0.0032639559 -0.0012853135 -0.039801843
-0.0027694087 -0.0012853128 -0.039801836
-0.0022748767 -0.001285308 -0.039801843
-0.007180701 0.00081074121 -0.039603695
-0.0067257225 -0.00079096324 -0.039603684
0.0061652493 0.006162914 -0.011267278
0.0057036718 0.0066902298 -0.012258058
0.007220251 0.004745774 -0.011762673
0.0086049587 0.0021751462 -0.02028341
0.0081104245 0.0032627222 -0.021769585
0.0076950137 0.004211877 -0.019788023
0.0086049661 0.0017796707 -0.01929263
0.0086049605 0.0017796719 -0.019788019
0.0087038744 -0.00029660997 -0.014239637
0.008604967 -0.0017796649 -0.011762672
0.0061652469 0.0061629247 -0.010276493
0.0042134668 0.0076921121 -0.0102765
0.0047475719 0.0072175413 -0.015230417
0.0042134644 0.0076921163 -0.015725808
0.0042134672 0.0076921168 -0.013744233
0.0047475682 0.0072175385 -0.01324885
0.0047475654 0.0072175399 -0.014735023
0.0037584901 0.0080084959 -0.037721202
0.0042134589 0.007692114 -0.021769579
0.0086049689 -0.0021751421 -0.01523042
0.0080980649 -0.0032380093 -0.015230421
0.0081014317 -0.0032447416 -0.014744025
0.0082093291 -0.0027683652 -0.015230415
0.008011519 -0.0037570747 -0.015230412
0.0080115255 -0.0037570801 -0.014239633
0.0080115199 -0.0037570756 -0.015725806
0.0080115171 -0.0037570726 -0.014735024
0.0086049605 -0.0021751437 -0.014735017
0.008209331 -0.0027683729 -0.014735024
0.0081104264 -0.0032627254 -0.015725801
0.0086049652 -0.0021751507 -0.016221195
0.0086049596 -0.0021751474 -0.016716592
-0.0081104208 0.0032627254 -0.016716594
-0.008209331 0.0027683643 -0.016716586
-0.008604967 0.0021751495 -0.016221192
-0.0080115218 0.0037570791 -0.016716592
-0.008110432 0.0032627217 -0.02127419
-0.0070718909 -0.0051906966 -0.011267274
-0.0076950141 -0.0042118826 -0.0097811036
-0.0072202538 -0.0047457758 -0.0097811092
-0.0070719002 -0.005190697 -0.010276501
-0.0076950127 -0.004211877 -0.010276495
-0.0080115143 -0.0037570761 -0.012753461
-0.0086840857 -0.0012457664 -0.010276501
-0.008703866 -0.0007909601 -0.0062142834
-0.0087038735 -0.00029660526 -0.031281106
-0.0086049596 0.0017796602 -0.013744241
-0.0017803357 0.0086017158 -0.01671659
0.0021759719 0.0086017251 -0.0057188915
0.0027694162 0.0082062427 -0.0062142881
0.0032639455 0.008107366 -0.019788025
0.0027694101 0.0082062455 -0.011267275
-0.00079126726 0.0087005878 -0.0102765
0.00029671637 0.008700598 -0.011267284
0.00029672848 0.0087005906 -0.010771884
-0.0002967277 0.0087005869 -0.010771888
-0.00029671751 0.0087005887 -0.010276496
-0.0012462394 0.0086808149 -0.0087903189
-0.0021759744 0.0086017214 -0.014239632
-0.0032639517 0.0081073679 -0.013744241
-0.0027694195 0.0082062436 -0.014239624
-0.0021759726 0.0086017251 -0.013744237
0.00029672147 0.0087005943 -0.014239633
-0.00029671803 0.0087005952 -0.013744235
-0.00079126196 0.0087005962 -0.014239633
-0.00079126284 0.008700599 -0.016716583
-0.0012462423 0.0086808205 -0.016221199
-0.0012462424 0.0086808177 -0.015230421
-0.0012462394 0.0086808223 -0.014239633
-0.001246242 0.0086808121 -0.015725801
-0.0021759623 0.0086017195 -0.01572581
-0.00079125882 0.0087005962 -0.012258068
-0.00079125888 0.0087005934 -0.012753462
-0.0012462398 0.0086808149 -0.013744235
-0.001246233 0.0086808261 -0.013248846
0.00079126749 0.008700599 -0.012258068
-0.0022748823 0.005240133 -0.039702751
-0.0022748744 0.0047457782 -0.039702758
-0.00421347 0.0076921196 -0.036235034
0.00029671693 0.0082062446 -0.039207377
-0.0002967222 0.008700598 -0.03871198
-0.0027496307 0.005714708 -0.039643317
-0.002175966 0.0086017149 -0.0087903207
-0.0021759693 0.0086017186 -0.0077004582
-0.0037584947 0.008008494 -0.0067096828
-0.003758484 0.0080084931 -0.0062142788
0.00029671766 0.0087005934 -0.0037373211
-0.0080115162 0.0037570717 -0.013248844
-0.007695016 0.0042118835 -0.012753462
-0.0071015726 0.0052005849 -0.012753451
-0.0076950137 0.0042118756 -0.014735026
-0.0061652376 0.0061629247 -0.014239631
-0.0066927504 0.0057015191 -0.013744237
-0.0061652432 0.0061629163 -0.013744236
-0.0057036784 0.0066902228 -0.013744237
-0.0057036709 0.0066902284 -0.013248852
-0.0051926565 0.0070692287 -0.013744235
-0.0057036676 0.0066902339 -0.0092857201
-0.0051926477 0.007069231 -0.0087903189
-0.0042530266 -0.0032627282 -0.00026958995
-0.0037584966 -0.0032627217 -0.00026958436
-0.001285804 -0.0077118906 -0.00036866218
-0.004747563 -0.0027683759 -0.00026957877
0.0012857962 -0.0086017279 -0.0022511482
0.00029671664 0.0032627156 -0.00026958808
0.00079125521 0.0027683678 -0.00026958063
0.0002967164 0.0027683643 -0.00026958808
0.00079126196 0.0037570707 -0.00026958808
-0.0072202575 0.0047457744 -0.0077004535
-0.0032639487 0.008107367 -0.0072050719
-0.0042134644 0.0076921135 -0.0097810999
-0.0047475626 0.0072175353 -0.0092857173
-0.0047475719 0.0072175367 -0.0097811045
-0.0032639506 0.0081073726 -0.0097811073
-0.0017803352 0.0086017195 -0.010276494
-0.0051926477 0.0070692357 -0.0082949251
-0.0047475658 0.007217539 -0.0082949242
-0.0051926468 0.0070692245 -0.0077004656
-0.0082093384 -0.0027683761 -0.014239634
-0.0076950085 -0.0042118779 -0.01324885
-0.0066927448 -0.0057015289 -0.016221192
-0.0066927481 -0.0057015279 -0.01473502
-0.0027694087 0.0082062455 -0.018797234
-0.0032639545 0.0081073754 -0.018202757
-0.0027694169 0.0082062343 -0.018202765
-0.0032639473 0.0081073726 -0.018797241
-0.0042134621 0.0076921163 -0.019292617
-0.0051926561 0.0070692273 -0.021274192
-0.00570367 0.0066902284 -0.020778799
-0.0037584931 0.0080084987 -0.0212742
-0.0051926509 0.0070692296 -0.021769583
-0.0047475696 0.0072175381 -0.021769587
-0.0047475635 0.0072175302 -0.0212742
-0.0057036774 0.0066902218 -0.021769583
-0.0057036714 0.0066902298 -0.020283405
-0.0042134658 0.0076921191 -0.0047281152
-0.0051926551 0.0070692366 -0.0072050672
-0.0047475696 0.0072175395 -0.0077004572
-0.0047475658 0.0072175325 -0.0067096828
0.0021759674 0.0086017251 -0.008790317
-0.0047475733 0.0027683643 -0.00026958622
-0.0062311855 0.0032627159 -0.00036866218
-0.0047475719 0.0017796615 -0.00026958063
-0.0042530284 0.0017796648 -0.00026958436
-0.0057366467 0.0012853136 -0.00026958808
-0.0057366402 0.0017796628 -0.00026958995
-0.0061817318 0.001779664 -0.00031912327
-0.0040552113 -9.8867247e-05 0.00072120503
-0.004747564 -0.00079095969 -0.00026958622
-0.0047475691 -0.00029661146 -0.0002695825
-0.0062311874 -0.0017796661 -0.00036865473
-0.0052421088 -0.00029660933 -0.00026958995
-0.0057366462 -0.00029660494 -0.00026958436
-0.003263948 -0.0062288274 -0.0003686659
-0.0032639534 -0.0027683659 -0.00026957877
-0.003263951 -0.0032627273 -0.00026958995
-0.0027694097 -0.0032627203 -0.00026958436
-0.0027694113 -0.0042514303 -0.00026958063
-0.0022748816 -0.0022740243 -0.0002695825
-0.0022748748 -0.0012853176 -0.00026958622
-0.0061872276 -0.00080194802 -0.00030261278
-0.0061916243 -0.0002966086 -0.00028940663
-0.0017803375 0.0022740136 -0.00026958808
-0.0022748793 0.0022740248 -0.00026957877
-0.001780343 0.0027683759 -0.00026958808
-0.0037584943 0.0062288274 -0.00036866404
-0.0032639503 0.0067231799 -0.00036865659
-0.0027694141 0.0052401293 -0.00026957877
-0.0032639506 0.0057344786 -0.00036865659
-0.0042530219 0.005240133 -0.00036866032
-0.00029672877 0.0032627208 -0.00026957877
-0.00079125934 0.0032627177 -0.0002695825
-0.0012857972 0.0037570784 -0.00026957877
-0.00079125923 0.0012853132 -0.00026958622
-0.0012858051 0.00079096755 -0.00026958995
-0.0034617626 -9.8866258e-05 0.0017119739
-0.002175966 0.0086017251 -0.0032419413
-0.0061916178 0.00079096371 -0.00028940104
-0.00573665 0.00079096755 -0.00026957877
-0.0034617716 9.8873614e-05 0.00072120316
-0.0032639562 0.0012853208 -0.0002695825
-0.0082093338 0.0027683738 -0.012258062
-0.0087038707 0.0002966139 -0.013744231
-0.0087038726 0.00029660523 -0.01324885
-0.0087038688 0.00079096266 -0.01374424
-0.0087038707 0.00079096935 -0.013248842
-0.0087038726 0.00029660662 -0.012753451
-0.008703866 -0.00029660985 -0.01324884
-0.0087038716 -0.00029660523 -0.0087903189
-0.008703867 -0.00029660776 -0.0092857173
-0.0087038735 0.00029661084 -0.010276495
-0.0087038698 0.00029661166 -0.0097811073
-0.0086708982 0.0012413684 -0.010760879
-0.0087038698 0.00079095806 -0.008294927
-0.0086049596 0.0017796616 -0.0082949307
-0.0086049698 0.0017796599 -0.0077004591
-0.0087038744 -0.00079096324 -0.01126728
-0.0086049652 0.0017796635 -0.0057188952
-0.0080115134 0.0037570766 -0.031281095
-0.0076950183 0.0042118817 -0.030290326
-0.0082093356 0.0027683696 -0.033262674
-0.0087038698 0.00029661338 -0.034748837
-0.008703867 0.00029661492 -0.034253448
-0.0086049642 0.0017796614 -0.03326267
0.0057036784 -0.0066902242 -0.036235027
0.0057036807 -0.0066902335 -0.037225813
0.0052025476 -0.007098896 -0.036235031
0.0066927499 -0.0057015191 -0.035739627
0.0042530266 -0.0067231883 -0.039207369
0.00474757 -0.0067231851 -0.039207373
0.0052421107 -0.0062288293 -0.039207377
0.0061652474 -0.0061629242 -0.038216591
0.0061652465 -0.0061629214 -0.03871198
0.0057308245 -0.0062172008 -0.03919572
0.0037584926 -0.0022740164 -0.03980184
0.0027694153 -0.0022740215 -0.039801843
0.0042530289 0.00029660587 -0.039801843
0.003758485 0.00029661114 -0.03980184
0.0057366481 0.00029661713 -0.039702758
0.0061817258 0.00079095922 -0.039653227
0.0042530247 -0.00474578 -0.039603688
0.0042530335 -0.0052401354 -0.03960368
0.0047475621 -0.0047457721 -0.039603684
0.0047475696 -0.0052401302 -0.03960368
0.0067257183 0.00079096196 -0.039603688
0.0067257201 0.0012853098 -0.03960368
0.0062311855 0.0012853165 -0.039603684
0.0047475686 0.0017796708 -0.039702758
0.0052420977 0.0017796711 -0.039702758
0.0047475733 0.0022740213 -0.039702758
0.0047475696 0.0027683747 -0.039702758
0.005202543 -0.0070988974 -0.0042327233
0.005703676 -0.0066902307 -0.0032419357
0.0042134724 -0.0076921126 -0.0052235071
0.0047475626 -0.0072175316 -0.0052234968
0.0080115208 -0.0037570694 -0.013744235
0.0080115236 -0.0037570763 -0.013248847
0.0081046131 -0.003251086 -0.01324884
0.0081104301 -0.0032627233 -0.014239641
0.0080115199 -0.003757068 -0.0067096706
0.0080115162 -0.0037570773 -0.0072050709
0.0080115153 -0.0037570682 -0.006214289
0.0076950188 -0.004211884 -0.0067096809
0.0086049633 -0.0021751439 -0.0082949307
0.0082093338 -0.0027683668 -0.010771885
0.0080115171 -0.0037570726 -0.0037373193
0.0066927467 -0.0057015303 -0.0042327177
0.0071015651 -0.0052005849 -0.0047281133
0.0071015637 -0.0052005774 -0.0042327195
-0.00029671952 -0.0086017223 -0.0012603626
-0.00029671928 -0.0086676376 -0.0022841748
0.00029672135 -0.0086017223 -0.0012603682
-0.00079125504 -0.0086017158 -0.0012603626
0.00029672048 -0.008700598 -0.00076497905
0.00029671789 -0.0087005943 -0.0062142815
-0.00029672572 -0.008700598 -0.0067096744
-0.00079125655 -0.0087005962 -0.0072050681
-0.0017803427 -0.0086017242 -0.0072050737
-0.0012462351 -0.0086808139 -0.0072050672
-0.0021759733 -0.008601727 -0.0072050709
-0.0032639534 -0.0081073688 -0.0077004554
-0.002769409 -0.008206239 -0.0072050728
-0.0027694092 -0.0082062343 -0.0077004638
-0.0027694141 -0.0082062371 -0.00670968
-0.00079125486 -0.008700599 -0.011267285
-0.00079125597 -0.0087005952 -0.0077004572
-0.00079125515 -0.0087005896 -0.0082949251
0.0087038726 -0.00029661067 -0.006709679
0.0087038716 -0.00079096487 -0.0062142843
0.0082093393 -0.0027683685 -0.0072050663
0.0067257187 0.0017796635 -0.00036866777
0.0037584885 -0.00019774363 0.0022073686
0.0062311757 0.002768368 -0.00036865845
0.0057036714 0.0027683754 -0.00030261278
0.005242107 0.00079096301 -0.0002695825
0.0047475635 0.001285317 -0.00026957877
0.0086049587 0.0021751425 -0.0072050681
0.0082093356 0.002768364 -0.0077004582
0.0082093347 0.0027683706 -0.0072050719
0.0082093356 0.0027683643 -0.0067096818
0.008110432 0.0032627285 -0.0037373248
0.0032639524 0.0081073763 -0.018797237
0.0032639455 0.008107367 -0.018202767
0.0032639496 0.0081073744 -0.017211981
0.001246235 0.0086808121 -0.01671659
0.0032639545 0.008107367 -0.015725812
0.0027694078 0.0082062455 -0.016221197
0.0027694183 0.0082062455 -0.016716585
0.0042134626 0.0076921098 -0.017707381
0.0057036681 0.0066902246 -0.01770737
0.0052025365 0.0070988922 -0.019292619
0.0047475621 0.0072175418 -0.020778798
0.0047475635 0.0072175306 -0.020283418
0.0047475677 0.0072175339 -0.02127419
0.003263955 0.0081073698 -0.0212742
0.0057036793 0.0066902246 -0.021274194
0.0052025388 0.0070988974 -0.011762667
0.0052025411 0.0070988974 -0.012753451
0.0037584971 0.0080085015 -0.012753451
0.0042134714 0.0076921191 -0.012753459
0.005202536 0.0070988978 -0.013248843
0.0057036709 0.0066902312 -0.013744231
0.0047475719 0.0072175423 -0.012753457
0.0042134668 0.0076921154 -0.01473502
0.0082093282 0.002768365 -0.023255764
0.0082093365 0.0027683724 -0.022760369
0.0071015726 0.0052005784 -0.015725801
0.0072202589 0.0047457805 -0.015230411
0.0072202617 0.0047457763 -0.016221197
0.0066927476 0.0057015195 -0.015230414
0.0071015703 0.0052005858 -0.011762671
0.0071015637 0.0052005765 -0.011267274
0.0076950169 0.0042118747 -0.011267281
0.0072202636 0.004745774 -0.011267282
0.0071015647 0.0052005858 -0.0072050616
0.0080115171 0.0037570675 -0.016716592
0.0076950174 0.0042118724 -0.016716583
0.007695016 0.0042118724 -0.017211974
0.0076950109 0.0042118812 -0.016221192
0.0072202599 0.0047457721 -0.019292627
0.0072202627 0.00474578 -0.018797237
0.0061652428 0.0061629219 -0.023751145
0.0061652381 0.0061629186 -0.024246549
0.008110432 0.0032627243 -0.019292621
0.0082093328 0.0027683668 -0.019292619
0.0080115162 0.0037570775 -0.020283405
0.0076950165 0.0042118793 -0.018202771
0.0080115143 0.003757071 -0.018202771
0.0071015717 0.0052005798 -0.017707368
0.0071015642 0.0052005779 -0.017211983
0.0072202641 0.0047457758 -0.017211981
0.0081104226 0.0032627161 -0.018202767
0.0066927448 0.0057015307 -0.016716588
0.0066927499 0.0057015228 -0.016221201
0.0061652432 0.0061629154 -0.016221195
0.0072202524 0.004745781 -0.018202754
0.0071015675 0.0052005812 -0.018202761
0.0061652414 0.0061629158 -0.018797234
0.0047475724 0.0072175371 -0.014239635
0.0061652479 0.0061629186 -0.01473503
0.0072202561 0.0047457786 -0.015725806
0.0082093338 0.002768371 -0.019788016
0.0052025425 0.0070988904 -0.037721194
0.004747571 0.0072175325 -0.037721198
0.0042134682 0.0076921154 -0.038216591
0.0027694122 0.008206238 -0.036730409
0.0027694104 0.0082062371 -0.033758059
0.0027635908 0.0081946095 -0.033274326
0.003758495 0.0080084987 -0.032271888
0.00474757 0.0072175325 -0.030290321
0.0047475607 0.0072175376 -0.029794928
0.0042134668 0.0076921084 -0.029794931
0.0071015614 0.0052005863 -0.036235027
0.0061652437 0.0061629219 -0.029794928
0.0061652376 0.0061629154 -0.030290321
0.006692749 0.0057015205 -0.029299535
0.0057036714 0.0066902228 -0.023255754
0.0061652372 0.0061629163 -0.023255762
0.0061652446 0.006162914 -0.022760371
0.0061652437 0.0061629252 -0.021769583
0.0057036746 0.0066902246 -0.022264974
0.0061652432 0.0061629186 -0.022264978
0.0061652497 0.0061629196 -0.026723504
0.0066927504 0.0057015214 -0.025237326
0.0057036742 0.0066902279 -0.025732728
0.0066927504 0.0057015186 -0.025732726
0.0017803318 0.0086017149 -0.032767285
0.0057036686 0.0066902344 -0.035244241
0.0057036718 0.0066902214 -0.033758067
0.0066927471 0.0057015261 -0.032767273
0.0061652418 0.0061629228 -0.032767273
0.0061652423 0.0061629256 -0.03326267
0.0071015647 0.005200584 -0.032767288
0.0080115153 0.0037570677 -0.032767277
0.0071015623 0.0052005877 -0.034253448
0.0072202641 0.004745774 -0.034253456
0.0076950151 0.004211877 -0.034253456
0.007220252 0.0047457782 -0.034748841
0.0027694127 0.0082062464 -0.023751143
0.0021759658 0.0086017158 -0.023751145
0.0027694148 0.0082062343 -0.024741935
0.0032639559 0.0081073651 -0.024741936
0.0021759721 0.008601726 -0.026228111
0.0021759637 0.0086017158 -0.025732724
0.0027694115 0.0082062427 -0.026228119
0.0037584936 0.0080084996 -0.024741938
0.0037584943 0.008008494 -0.024246549
0.003758484 0.0080085034 -0.023255756
0.0052025393 0.0070988946 -0.023751147
0.0066927476 0.0057015275 -0.028209681
0.0057036793 0.0066902312 -0.028705064
0.0061652446 0.0061629191 -0.028705072
0.0086049689 0.00217515 -0.03326267
0.008604967 0.0021751432 -0.03375807
0.0082093384 0.002768371 -0.033758059
0.0080115125 0.0037570728 -0.034748852
0.0071015647 -0.0052005784 -0.0052235024
0.0086840866 -0.0012457622 -0.0057188934
0.0086840978 -0.0012457722 -0.0037373267
0.0086840848 -0.0012457647 -0.0032419376
0.0086049689 -0.0021751472 -0.0037373248
0.0087038698 0.00029661311 -0.0042327233
0.0087038679 -0.00079096324 -0.0077004563
0.0086840857 -0.0012457621 -0.00770046
0.003235687 0.0080932463 -0.0023219213
0.0047475705 0.0072175371 -0.0042327214
0.0042134649 0.0076921089 -0.0042327233
0.0061652395 0.00616292 -0.00076498277
0.0081104245 0.0032627194 -0.0042327195
-0.0042134621 0.007692114 -0.011762675
-0.0042134593 0.00769212 -0.011267275
-0.0047475691 0.0072175371 -0.011267282
-0.0051926556 0.0070692287 -0.011267282
-0.0042134621 0.0076921168 -0.010771894
-0.0037584861 0.0080085006 -0.011267275
-0.0051926496 0.0070692361 -0.012258064
0.0017803407 0.0086017214 -0.0092857201
0.0007912569 0.0087005971 -0.010771891
0.00079125818 0.0087005952 -0.011267277
0.0032375755 0.005213765 -0.00028940104
0.003758484 0.0057344809 -0.0003686659
0.0037443549 0.0052118772 -0.00034035742
0.0042413878 0.0042397901 -0.00027541071
0.0042247702 0.0047316556 -0.0003403537
0.0027694094 0.0047457833 -0.00026958063
0.0022748709 0.0032627177 -0.00026958436
0.0032639527 -0.0012853096 -0.00026958995
0.0027694181 -0.0012853115 -0.00026958622
0.0032639529 -0.0017796602 -0.00026958436
0.003758485 -0.0012853158 -0.00026958808
0.0047475654 -0.0067231902 -0.00036865845
0.0047475714 -0.0062288325 -0.00036866777
0.002769412 -0.0081073716 -0.00036866032
0.002274876 -0.0082062427 -0.00036865659
0.0022748695 -0.0072175385 -0.00036866032
0.002274879 -0.0067231888 -0.00036866777
0.0012858047 -0.0086017149 -0.00036866404
0.0017803425 0.0061793951 -0.00031912141
0.0012705798 0.0061832061 -0.00030769221
0.00079126505 0.005240133 -0.00026958995
0.0012857943 0.005240127 -0.00026958063
0.0012858039 0.0042514284 -0.00026957877
0.001285799 0.002768374 -0.00026958436
0.0012858016 0.0032627196 -0.0002695825
0.00079126196 0.0012853177 -0.00026958808
0.0012857984 0.0057344777 -0.00026958808
0.0037584959 0.007217533 -0.0003686659
0.0037584957 0.0062288377 -0.00036865845
0.003263951 0.007217539 -0.00036866777
0.0027694125 0.0072175316 -0.00036866777
0.0012857963 0.0072175385 -0.00036865659
0.007220252 0.0047457754 -0.00076497346
0.0062311841 0.0047457754 -0.00036866032
0.0062311762 0.0032627243 -0.00036866963
0.0057366486 0.0032627238 -0.0003686659
0.0062311762 0.0037570728 -0.00036865659
0.0067257169 0.0027683717 -0.00036865845
0.0070224465 0.0050423946 -0.0012603626
0.0080115199 0.0036582039 -0.0023502354
0.0076488536 0.0041855178 -0.0022841804
0.0076950109 0.0042118812 -0.0032419302
0.0076950095 0.004211884 -0.00076497905
0.0070718913 0.0050918232 -0.0023006871
0.0067257197 0.0017796623 -0.039603688
0.0062029236 0.0017655438 -0.039632
0.0067257243 0.0027683759 -0.039603692
0.0042406591 0.0042390618 -0.039690383
0.0062029236 -0.0008050896 -0.039631989
0.0062114019 -0.0013050924 -0.039623495
0.0077148005 -0.001779664 -0.039207369
0.0062311753 -0.0022740143 -0.039603688
0.0067257173 -0.0007909626 -0.039603695
0.0087038791 -0.00029661335 -0.00076498091
0.008604967 -0.00079096731 -0.0012603663
0.0086049605 -0.0021751542 -0.0027465485
0.0086049596 -0.0021751539 -0.003241932
0.0081104329 -0.0032627271 -0.0027465448
0.008604967 -0.00079096359 -0.00036865845
0.0051431973 -0.0070197894 -0.00036865845
0.006725722 -0.00029660948 -0.00036866404
0.0017803417 -0.00079096411 -0.00026958063
0.0022748818 -0.00029660895 -0.00026957877
0.0022748811 -0.00079096446 -0.00026958436
0.0017803374 -0.0017796643 -0.00026957877
0.0017803425 -0.0022740173 -0.00026958808
0.0022748769 -0.0012853151 -0.00026958436
0.0012858043 0.00029661492 -0.00026958622
0.0017803377 0.00029661297 -0.00026958808
0.00079126627 0.00029660488 -0.00026958436
0.0012857991 0.00079095637 -0.0002695825
0.0017803432 0.00079096504 -0.00026958808
0.0017803357 0.0012853106 -0.00026958436
0.0050442917 -0.0070197941 -0.0011612866
0.0071938764 -0.0047391928 -0.039167739
0.0042530224 -0.00425142 -0.039702762
0.0032563435 -0.0032551175 -0.039794222
0.0037584968 -0.0042514307 -0.039702762
0.0037518917 -0.0032363511 -0.039762214
0.0037584861 -0.0037570752 -0.039702766
0.0042530233 -0.0037570733 -0.039702766
0.0062311767 -0.003757068 -0.03960368
0.003738703 -0.0076525672 -0.0012405496
0.0042035719 -0.0076624542 -0.0023502316
0.004747571 -0.0071680988 -0.0023006853
0.0022607436 -0.0081497459 -0.0012462195
0.0027446845 -0.0081320917 -0.0022759177
0.0017803354 -0.0086017158 -0.0027465411
0.0021561873 -0.0086017223 -0.0027465485
0.0052025458 -0.0070988857 -0.0062142918
-0.00079125771 0.0077118878 -0.00036865659
-0.00029672086 0.0072175385 -0.00036866777
-0.00029672144 0.0082062352 -0.00036865845
0.0027694183 0.0082062464 -0.0042327158
0.0032639476 0.0081073688 -0.0042327233
0.0021759747 0.0086017177 -0.0042327177
0.0037584933 0.0080085006 -0.0032419302
0.0042134654 0.0076921107 -0.0032419357
0.0037584843 0.0080084987 -0.0027465392
0.0032639522 0.0081073744 -0.003241932
0.0076950104 0.0042118826 -0.0057188878
0.0057036737 0.0066902223 -0.0067096809
0.0061652497 0.0061629224 -0.0057188896
0.0057036798 0.0066902284 -0.037721194
0.0071015726 0.0052005863 -0.021769583
0.0072202557 0.0047457735 -0.021274187
0.0076950192 0.0042118793 -0.03673042
0.0071015721 0.0052005756 -0.013248843
0.0066927453 0.0057015186 -0.012753456
0.008011519 0.0037570777 -0.011267282
0.0076950183 0.0042118737 -0.01077189
0.008110431 0.0032627175 -0.011267273
0.0081104329 0.0032627254 -0.0057188952
0.0076950178 0.004211877 -0.0082949298
0.007695009 0.0042118742 -0.0077004628
0.0082093393 0.0027683696 -0.0082949279
0.0081104254 0.0032627236 -0.0087903282
0.0076950132 0.0042118765 -0.0092857117
0.007220258 0.0047457763 -0.009781111
0.007220252 0.0047457772 -0.0092857117
0.0076950085 0.0042118742 -0.0097811082
0.0071015651 0.0052005816 -0.0092857108
0.0071015693 0.0052005751 -0.0097811036
0.0076950165 0.0042118719 -0.010276497
0.007220252 0.0047457716 -0.010276491
0.0072202641 0.004745774 -0.010771883
0.007220252 0.0047457782 -0.008294926
0.0017803394 0.0086017251 -0.0062142788
-0.00029671934 0.0087005934 -0.013248848
0.0076950137 0.0042118719 -0.014735028
0.008604967 0.002175146 -0.01324885
0.0082093319 0.0027683761 -0.013248846
-0.0017803429 0.0086017167 -0.02226497
-0.0017803388 0.0086017158 -0.022760371
-0.0027694115 0.0082062418 -0.022264969
-0.0021759684 0.008601726 -0.033758067
-0.0021759619 0.0086017214 -0.029299537
-0.002175963 0.008601726 -0.029794935
-0.0032639483 0.0081073744 -0.029299539
-0.0037584901 0.0080085006 -0.029299542
-0.0017803323 0.0086017223 -0.028705075
-0.0021759626 0.0086017177 -0.028705068
-0.0012462394 0.0086808121 -0.028705057
-0.00079126726 0.008700598 -0.029794935
-0.00029671815 0.0087005869 -0.029299529
0.00029672272 0.0087005962 -0.02929954
-0.00029671684 0.0087005906 -0.028705066
-0.00029671958 0.0087005943 -0.029794924
-0.0017803415 0.0086017251 -0.029794926
-0.0012462365 0.0086808205 -0.029794924
-0.00079125538 0.0087005943 -0.02820967
-0.0017803371 0.0086017195 -0.027714286
-0.0012462387 0.0086808214 -0.027218899
-0.0017803354 0.0086017251 -0.027218888
-0.0086756134 0.0012429426 -0.018188613
-0.0086049624 0.0021751504 -0.018202761
-0.0080115162 0.0037570714 -0.0097811101
-0.0081104217 0.0032627175 -0.010771885
0.0017803356 0.0086017251 -0.0032419339
0.0032639524 0.0081073698 -0.0047281133
0.0037584924 0.0080084959 -0.0052235015
0.0042134593 0.00769212 -0.0052234996
0.0032639455 0.0081073707 -0.006709679
0.0037584889 0.0080084959 -0.0082949335
0.0021759698 0.0086017186 -0.0077004619
0.004213471 0.0076921182 -0.00720507
0.0047475644 0.0072175371 -0.0087903235
0.0042134617 0.007692121 -0.0062142862
0.0042134696 0.0076921145 -0.0057188869
0.0052025407 0.0070988978 -0.028209675
0.0052025407 0.0070988964 -0.032271888
0.0037584873 0.0080085015 -0.031281099
0.0052025425 0.0070988899 -0.031776495
0.0057036807 0.0066902251 -0.029299542
0.0052025374 0.0070988978 -0.030290332
0.005202543 0.0070988876 -0.033262674
-0.0032639531 -0.0062288353 -0.03960368
0.00079126417 -0.0067231837 -0.039603688
-0.00079125835 -0.0067231893 -0.039603684
-0.0012858009 -0.0062288325 -0.03960368
-0.00031193654 -0.0061831991 -0.039664656
-0.00029671643 -0.0052401354 -0.039702766
0.00029671664 -0.0052401335 -0.039702766
-0.0007912615 -0.0047259987 -0.039762214
-0.0022501429 -0.0057097576 -0.039653223
-0.0012857956 -0.0032627287 -0.039801836
-0.0032639531 -0.0017796608 -0.039801851
-0.0027694167 -0.000790964 -0.039801836
0.0047475621 0.0072175334 -0.038216583
0.0017662056 0.0062005892 -0.039631996
-0.0037584857 0.0042514219 -0.039702758
-0.0037443652 0.0047316579 -0.03968861
-0.0042530317 0.005240126 -0.03960368
-0.0017745165 0.0042397999 -0.039790191
-0.0017803432 0.0047457833 -0.039702758
-0.000791264 0.004251427 -0.039801836
-0.00079126755 0.0047260094 -0.039762203
-0.0052421037 0.00079096685 -0.039702766
-0.0052421112 0.00029660633 -0.039702758
-0.0052421028 -0.002768365 -0.039702758
-0.006725715 -0.0012853085 -0.03960368
-0.0062114028 -0.0013050897 -0.039623499
-0.0022748765 0.00079096248 -0.039801851
-0.0027694146 0.0017796686 -0.039801843
-0.0062311827 0.0052401251 -0.039207377
-0.0051102294 0.0070857042 -0.039108299
-0.0061487616 0.0061464352 -0.039124802
-0.0012858021 0.0052401274 -0.039702766
-0.0022748695 0.0057015195 -0.039669745
0.0027694143 0.0062288279 -0.039603688
0.0027694127 0.0082062474 -0.015230412
0.00079125701 0.0087005906 -0.037721198
0.00079125597 0.0087005896 -0.037225809
0.0012462304 0.0086808149 -0.037225809
0.0037584873 0.0080084968 -0.036730416
0.00079126703 0.0087005952 -0.02523732
0.001246235 0.0086808158 -0.024741935
0.001246235 0.0086808177 -0.025732726
0.00124623 0.0086808149 -0.025237327
0.0012462359 0.0086808149 -0.023751153
0.0017803375 0.0086017214 -0.02226497
0.0017803401 0.0086017167 -0.022760373
0.00079125463 0.008700598 -0.0037373211
0.0012462413 0.008680813 -0.0037373304
0.0012462352 0.0086808233 -0.004728104
0.0012462346 0.0086808121 -0.0042327233
0.00079126313 0.0087005962 -0.0047281161
-0.00029671722 0.0087005999 -0.0062142909
-0.00029672144 0.0087005915 -0.0067096716
0.00029672618 0.0087005934 -0.0057188906
-0.00029671911 0.0087005971 -0.0057188878
0.0012462357 0.0086808214 -0.0057188952
0.00029672089 0.0087005999 -0.0052234987
-0.00029671701 0.0087005934 -0.0052235061
0.00079125789 0.0087005952 -0.024741938
0.00079126732 0.008700599 -0.023751147
0.0002967222 0.0087005971 -0.025732724
-0.00029671975 0.0087005924 -0.037721198
-0.0002967254 0.0087005934 -0.037225813
0.00029671888 0.0087005906 -0.037225805
0.00029672944 0.0087005971 -0.034748852
0.00029671969 0.0087005915 -0.034253448
0.00079126039 0.0087005887 -0.034253452
0.00029671975 0.0087005999 -0.035739634
-0.00029672612 0.0087005869 -0.034748841
-0.00029672089 0.0087005962 -0.034253456
-0.0042134686 0.0076921191 -0.032767281
-0.0042134635 0.0076921154 -0.032271892
-0.0042134705 0.0076921089 -0.030785719
-0.003758494 0.0080085043 -0.030290317
-0.0042134677 0.0076921084 -0.03029033
-0.0051926496 0.007069224 -0.032271892
-0.0047475626 0.0072175344 -0.031281106
-0.0047475621 0.0072175297 -0.030785721
0.00029672222 0.0087005924 -0.01671659
0.00079126278 0.0087005943 -0.017707374
0.00029672688 0.0087005962 -0.018797237
-0.00079126493 0.008700598 -0.019292628
0.0017803409 0.0086017214 -0.019292621
0.0012462358 0.0086808158 -0.017707374
0.00029671734 0.008700598 -0.031776495
-0.0002967185 0.0087005971 -0.032271888
0.00029672528 0.008700599 -0.032767273
0.00029672545 0.0087005943 -0.032271892
0.00079126254 0.0087005906 -0.027218899
0.00029672391 0.0087005952 -0.027714284
0.00029672647 0.0087005878 -0.027218891
0.00029672816 0.0087005943 -0.026723506
-0.00029672016 0.0087005962 -0.0267235
0.00079126062 0.0087005934 -0.030290328
0.00079126656 0.0087005952 -0.029794937
0.00029672135 0.0087005924 -0.030290328
0.00029671835 0.0087005943 -0.029794931
-0.00029672464 0.0087005971 -0.030290326
0.0021759686 0.0086017251 -0.031281099
0.0012462379 0.0086808195 -0.030290332
0.0012462384 0.0086808214 -0.031281114
0.0037584864 0.0080084959 -0.029794933
0.0017803357 0.0086017204 -0.033758063
-0.0012462316 0.0086808149 -0.02474194
-0.0021759742 0.0086017251 -0.025732715
-0.0021759698 0.0086017186 -0.024246547
-0.0021759709 0.0086017158 -0.024741929
-0.001246242 0.0086808139 -0.025237318
-0.0021759695 0.0086017158 -0.025237322
-0.00029672115 0.0087005943 -0.01770738
-0.0021759637 0.008601727 -0.017707378
0.0032639538 0.0081073716 -0.022264976
0.0027694097 0.0082062436 -0.022264969
0.0037584945 0.0080084996 -0.022760371
0.00421347 0.0076921112 -0.023255767
0.0042134668 0.0076921103 -0.02276036
0.0042134682 0.0076921196 -0.021274192
0.0037584892 0.0080084968 -0.026228113
0.0037584926 0.0080085015 -0.026723497
0.0057036779 0.0066902274 -0.026228113
0.0061652395 0.0061629182 -0.026228117
0.0052025369 0.0070988955 -0.017707374
0.0027694078 0.008206239 -0.019292619
0.0057036742 0.006690227 -0.02771429
0.0057036779 0.0066902237 -0.028209679
0.0032639571 0.0081073688 -0.029299539
-0.0082093291 0.0027683759 -0.026723506
-0.0080115246 0.0037570684 -0.026228106
-0.0080115218 0.0037570707 -0.022264984
-0.0081104254 0.0032627243 -0.02226497
-0.0071015707 0.0052005854 -0.019292621
-0.0071015675 0.0052005793 -0.021274187
-0.0072202589 0.0047457712 -0.021274187
-0.0076950137 0.0042118747 -0.021274196
-0.0072202585 0.0047457842 -0.022760358
-0.0072202622 0.0047457768 -0.022264974
-0.0071015656 0.0052005858 -0.02226497
-0.0071015619 0.005200576 -0.022760369
-0.0072202641 0.004745773 -0.021769581
-0.0042134603 0.0076921098 -0.033758059
0.0080115199 0.0037570689 -0.014735024
0.0081104217 0.0032627224 -0.014735024
0.0081104292 0.0032627259 -0.013248846
0.0081104254 0.0032627229 -0.014239637
0.0082093282 0.0027683696 -0.014239633
0.0082093328 0.0027683724 -0.014735029
0.0087038698 0.00079096283 -0.014735028
0.0086840875 0.0012457651 -0.014735026
0.0086049689 0.0017796623 -0.014735019
0.0087038763 -0.00079096667 -0.010276494
0.0087038763 0.00029661166 -0.0087903263
0.0087038726 0.00079096359 -0.012258061
0.0086049642 0.0021751435 -0.0047281049
0.0086840941 0.0012457666 -0.0067096744
0.008703867 0.00079095742 -0.0057188999
0.0086049717 0.0017796601 -0.009285707
0.0087038698 0.000296607 -0.01324885
0.0086049577 0.0017796721 -0.010771893
0.0082093375 0.0027683659 -0.024246547
0.0081104198 0.0032627264 -0.023751151
0.0086049698 0.0021751444 -0.027714282
0.0086049596 0.0017796681 -0.02771428
0.0086049587 0.0017796626 -0.028209673
0.0086049605 0.0017796669 -0.024246538
0.0086049698 0.0017796722 -0.024741936
0.0086840857 0.0012457679 -0.024246536
0.0086049624 0.0017796699 -0.025732718
0.00820933 0.0017796706 -0.039207377
0.0076950127 0.0042118756 -0.037225805
0.0072202622 0.0047457763 -0.037225809
0.0081104273 0.003262718 -0.036235027
0.0082093365 0.0027683654 -0.035739623
0.0087038763 0.00029661195 -0.035244241
0.0087038735 0.00079096743 -0.035739634
0.008703867 0.00079096778 -0.035244241
0.0076950197 -0.0042118803 -0.031776499
0.0070883767 -0.0051961835 -0.031765494
0.0072202552 -0.0047457828 -0.031776499
0.007220252 -0.0047457782 -0.032271888
0.0061652455 0.0061629238 -0.025732722
0.0081104282 0.0032627194 -0.029794924
0.0081104264 0.0032627196 -0.030290321
0.0082093403 0.0027683675 -0.030785711
0.0082093338 0.0027683633 -0.030290322
0.007714801 0.0032627201 -0.039207377
0.0072202543 0.0032627191 -0.039207377
0.0082093263 0.0027683696 -0.037225813
0.008011519 0.0037570738 -0.037225813
0.0081104264 0.0032627175 -0.038216591
0.0086840969 0.0012457687 -0.036730416
0.0086840959 0.0012457639 -0.03871198
0.0087038688 0.00079095748 -0.038216591
0.0086049661 0.0021751532 -0.029299542
0.0086049661 0.0017796694 -0.029299542
0.0081104236 0.0032627259 -0.031281099
0.0080115218 0.0037570677 -0.030785717
0.0086049708 0.0021751435 -0.030785713
0.0086840941 0.0012457729 -0.029299535
0.0086840931 0.0012457635 -0.028705068
0.008684095 0.0012457683 -0.022264967
0.0086049698 0.0017796706 -0.021769581
0.0086049642 0.0021751444 -0.024741927
0.0086049633 0.0017796637 -0.025237322
0.0087038763 0.00079096761 -0.025237322
0.0087038679 0.0007909644 -0.024741929
0.0086049652 0.0017796623 -0.028705068
0.0071015633 0.0052005798 -0.024741936
0.0071015703 0.0052005751 -0.026228115
0.0076950206 0.0042118751 -0.023751147
0.007695009 0.0042118831 -0.025732718
0.0076950183 0.0042118747 -0.026228113
0.0072202641 0.0047457735 -0.025732724
0.0080115134 0.0037570728 -0.026228106
0.0071015679 0.0052005774 -0.027218895
0.0076950188 0.0042118835 -0.030290328
0.0072202599 0.0047457819 -0.030785713
0.0081104226 0.0032627243 -0.027714279
0.008110431 0.0032627189 -0.027218899
-0.0012857999 0.0022740157 -0.039801855
-0.0080115208 0.003757067 -0.028209677
-0.0080115143 0.0037570784 -0.028705074
-0.0081104264 0.0032627191 -0.028705059
-0.0086049633 0.00217515 -0.028705064
-0.0072202636 0.004745773 -0.027714284
-0.0080115208 0.0037570803 -0.029299542
-0.0076950109 0.0042118798 -0.029794928
-0.0086049633 -0.0017796644 -0.02979493
0.00227488 -0.0047457847 -0.039702766
0.0022748786 -0.0052401228 -0.039702758
0.0017803379 -0.0047457744 -0.039702758
0.001285799 -0.0057344763 -0.039702766
0.0012857985 -0.0047457828 -0.039702758
0.0037584899 -0.0080084968 -0.031281095
0.003758494 -0.0080085052 -0.032271888
0.0042134696 -0.0076921177 -0.033262677
0.0037584845 -0.0080085015 -0.032767281
0.0052025416 -0.0070988964 -0.032767288
0.0042134663 -0.0076921145 -0.032767288
0.0042134724 -0.0076921145 -0.032271888
0.0037584868 -0.0080084968 -0.033262663
0.0052025476 -0.0070988964 -0.033262663
0.0052025439 -0.0070988932 -0.035739623
0.0037584924 -0.0080085052 -0.03573963
0.0042134658 -0.0076921158 -0.035739634
0.008703867 0.00029661698 -0.031281106
-0.0072202641 0.0047457758 -0.035244245
-0.0051926491 0.0070692264 -0.022760373
-0.0037584952 0.0080085052 -0.022760373
-0.0047475672 0.0072175339 -0.023255765
-0.0047475691 0.0072175385 -0.022760361
-0.0057036756 0.0066902325 -0.02771429
-0.0051926482 0.0070692291 -0.027714282
-0.0051926496 0.0070692259 -0.028209677
-0.0076950095 0.004211877 -0.0092857154
-0.0076950197 0.0042118798 -0.015725801
-0.0061652423 0.006162921 -0.019292621
-0.0061652493 0.0061629144 -0.018797237
-0.0057036695 0.0066902265 -0.018797239
-0.0066927513 0.005701527 -0.019292621
-0.0066927499 0.0057015219 -0.01622119
-0.0061652432 0.0061629182 -0.016221199
-0.0066927471 0.0057015247 -0.010276501
-0.0076950104 0.0042118789 -0.0067096744
-0.0076950118 0.0042118845 -0.0077004554
-0.0047475612 0.0027683706 -0.039702758
-0.0042530335 0.0032627229 -0.039702766
-0.0042530298 0.0027683752 -0.039702762
-0.0082093319 0.0027683701 -0.031281106
-0.008110431 0.0032627278 -0.031776499
-0.0086049642 0.0021751504 -0.031776492
-0.007220258 0.0047457772 -0.036235023
0.00029671847 0.0072175409 -0.039603688
-0.0012857978 0.0037570745 -0.039801855
-0.00029672365 -0.0027683645 -0.039801851
-0.00079126208 -0.0027683687 -0.039801843
0.00029671867 -0.0022740245 -0.039801843
-0.0017803316 -0.00079096365 -0.039801843
-0.0037584887 -0.00029660887 -0.03980184
-0.0037584889 -0.00079096487 -0.039801836
0.0032639457 -0.00029661067 -0.039801851
0.0017803428 -0.00029660572 -0.039801851
0.0037584866 0.00079096894 -0.039801843
0.0032639473 0.00029661282 -0.039801843
0.0032639492 0.00079095666 -0.039801843
0.0037584964 0.0012853157 -0.03980184
-0.00079126685 -0.0012853147 -0.039801843
-0.00079126452 -0.00079095818 -0.039801836
-0.00079125882 -0.00029661239 -0.039801836
0.00029671859 -0.00079096592 -0.039801843
0.00079125538 -0.002768374 -0.039801843
0.00079126691 -0.0022740171 -0.039801843
0.0012858007 -0.0017796725 -0.039801843
0.0017803416 -0.0017796645 -0.039801836
0.00079125568 -0.0017796608 -0.039801843
0.0022748774 -0.00079096004 -0.039801836
0.0022748704 -0.0012853214 -0.03980184
0.0066927504 -0.0057015237 -0.034748845
0.0061652376 -0.0061629214 -0.034253452
0.0066927439 -0.0057015223 -0.034253452
0.0087038754 0.0002966118 -0.033262677
0.0087038707 -0.00029660526 -0.030785715
0.0087038763 -0.00079095893 -0.030785711
0.0087038781 0.00079096295 -0.02870506
0.0066927476 -0.0057015205 -0.013248849
0.0061652376 -0.0061629186 -0.01324885
0.0080115153 -0.0037570766 -0.011762678
0.0076950197 -0.0042118826 -0.012258068
0.0080115246 -0.0037570773 -0.012258068
0.0070930943 -0.0051977541 -0.012243907
0.0057036746 -0.0066902274 -0.015230415
0.0057036751 -0.0066902228 -0.014735028
0.0066927569 -0.0057015303 -0.015230412
-0.00029671911 -0.0087005915 -0.01324885
-0.00029671928 -0.0087005869 -0.014239628
0.0071015633 -0.0052005844 -0.0082949242
0.0021759674 -0.008601726 -0.014239633
0.0012462309 -0.0086808205 -0.012753451
0.0021759616 -0.0086017223 -0.014735023
0.0037584922 -0.0080085043 -0.015230408
0.0052025411 -0.0070988922 -0.011762675
0.0052025411 -0.0070988918 -0.012258071
0.0042134714 -0.0076921172 -0.011762669
0.003758484 -0.0080085043 -0.011762674
0.0037584931 -0.008008494 -0.012753461
0.0057036751 -0.0066902284 -0.012258062
0.0057036704 -0.0066902237 -0.012753451
0.0052025421 -0.0070988955 -0.014735021
0.0042134658 -0.0076921145 -0.014735026
0.00079126505 -0.008700599 -0.012258068
0.0012462391 -0.0086808214 -0.012258068
0.0021759695 -0.0086017223 -0.011762674
0.0027694169 -0.0082062399 -0.011762667
0.0032639534 -0.0081073744 -0.011762676
0.0027694183 -0.008206238 -0.012258066
-0.0027694139 -0.0082062399 -0.010276493
0.0081046075 -0.0032510848 -0.012258067
0.0086049624 -0.0021751493 -0.012258065
0.0082093384 -0.0027683673 -0.011762666
0.0082093356 -0.0027683664 -0.012258062
0.0061652469 -0.0061629182 -0.011762677
0.006165239 -0.0061629242 -0.011267273
0.0061652372 -0.0061629266 -0.012258069
0.0037584908 -0.0080084968 -0.0097811082
0.0032639492 -0.0081073688 -0.010276496
0.0037584887 -0.0080085024 -0.010771894
0.0042134654 -0.007692114 -0.010771892
0.0052025365 -0.0070988867 -0.010771886
0.0042134668 -0.0076921103 -0.010276491
0.0047475724 -0.0072175423 -0.010771886
0.0061652367 -0.0061629154 -0.0062142871
0.0066927513 -0.0057015195 -0.0057188971
0.0032639469 -0.0081073707 -0.0077004647
0.0032639517 -0.0081073707 -0.0067096781
0.00029671853 -0.0042514266 -0.00026958808
-0.00079125742 -0.0047457837 -0.0002695825
0.00029671731 -0.00079096277 -0.00026958063
0.0007912576 -0.0061892886 -0.00028939731
0.0007912608 -0.0057344749 -0.00026958995
0.00079126313 -0.0042514307 -0.00026958995
0.0022748709 -0.0052401358 -0.00026958063
0.001780335 -0.0047457796 -0.00026958063
0.00227488 -0.0047457814 -0.00026957877
0.0012858023 -0.0047457796 -0.00026958995
0.001285805 -0.0042514284 -0.00026958622
0.0017803336 0.0017796624 -0.00026958808
0.0022748734 0.0012853089 -0.00026958436
0.00029671958 0.0022740187 -0.00026958808
-0.0022748751 0.00079095759 -0.0002695825
-0.0027694171 0.00079095823 -0.00026958808
-0.0027694139 0.00029661693 -0.00026957877
0.00079125556 -0.00029660502 -0.00026958808
0.00079126633 -0.0012853179 -0.00026958622
-0.0042530266 0.0032627217 -0.00026958808
-0.0042530331 0.0027683668 -0.00026958995
-0.0037584933 0.0027683671 -0.00026958063
-0.0012462423 -0.0086808186 -0.0082949316
-0.00079125544 -0.0087005869 -0.0087903179
0.0021759651 -0.0086017149 -0.0057188878
0.0017803424 -0.0086017149 -0.0042327177
0.00029672807 -0.0087005943 -0.003737323
0.00029672217 -0.0087005952 -0.0042327177
-0.00029672403 -0.008700598 -0.0042327177
-0.00029672545 -0.0087005924 -0.0037373267
0.00079126121 -0.0087005962 -0.0057188934
0.00079126126 -0.0087005915 -0.0052235024
0.00029672807 -0.0087005887 -0.0052235052
0.0042134621 -0.0076921168 -0.038216591
0.0052025383 -0.0070988899 -0.038711987
0.0042134626 -0.0076921191 -0.036235027
0.0072126514 -0.0042438232 -0.039199762
0.0076950188 -0.004211877 -0.0042327214
0.0080115153 -0.0037570754 -0.0042327121
0.0086049661 -0.0017796613 -0.0062142909
0.0086049633 -0.0017796627 -0.0067096828
0.007220258 -0.0047457763 -0.0062142815
0.0072202524 -0.004745774 -0.0067096716
0.0070883818 -0.0051961928 -0.0062032789
0.007695009 -0.0042118714 -0.0062142862
0.008209331 -0.0027683761 -0.0062142881
0.0081104217 -0.0032627205 -0.027218889
0.0081046121 -0.0032510855 -0.026735164
0.0070930878 -0.0051977579 -0.027714279
0.0072202561 -0.0047457791 -0.02771429
0.0087038726 -0.00079095847 -0.025237324
0.0081104292 -0.003262717 -0.037225805
0.0076950141 -0.0042118821 -0.036235027
0.0070883785 -0.0051961872 -0.035750646
0.0066927481 -0.0057015182 -0.03623502
0.0087038763 0.00079095917 -0.036235027
0.0087038679 -0.00029661032 -0.036730416
0.0086840969 -0.0012457664 -0.031776495
0.0086049642 -0.0021751507 -0.031776495
0.008604967 -0.0021751432 -0.031281102
0.0087038754 -0.00029661736 -0.015230419
0.0087038763 -0.00079096312 -0.014735019
0.0086840969 -0.001245762 -0.010276501
0.0087038735 -0.00079096481 -0.012753459
0.0086840857 -0.0012457719 -0.014735023
0.0080115162 0.0037570777 -0.01770737
0.0086049614 0.0017796661 -0.015725812
0.0086049624 0.0021751425 -0.016716585
0.0082093291 0.0027683673 -0.01572581
0.008209331 0.0027683703 -0.016221194
0.0086840941 0.0012457602 -0.017211974
0.0086840866 0.0012457704 -0.01671659
0.0086049642 0.0017796626 -0.016716594
0.008684095 0.0012457655 -0.018202765
0.0086840866 0.0012457693 -0.018797232
0.0087038735 0.00079096761 -0.018797228
0.0087038781 0.00079096691 -0.013248842
0.0087038781 0.00079096569 -0.017211985
0.008703866 0.0002966137 -0.017211976
0.0087038716 0.00079096394 -0.016221197
0.0087038726 -0.00029660581 -0.030290332
0.0087038744 0.00029660758 -0.027218886
0.0087038716 0.0002966169 -0.027714279
0.0086840941 0.0012457637 -0.025237327
0.0086840866 0.0012457662 -0.026723502
0.0087038744 -0.0002966054 -0.026228117
0.0087038744 -0.0007909651 -0.028209675
0.008703867 -0.00079096679 -0.027714279
0.0087038707 -0.00079096545 -0.029299539
0.0086840922 -0.0012457677 -0.027218891
0.0086840848 -0.0012457722 -0.027714284
0.0087038679 -0.00029660514 -0.027714279
0.0087038744 0.00029660657 -0.019292625
0.0087038754 0.00029661108 -0.018797237
0.0087038754 -0.00079096109 -0.018797237
0.0087038707 -0.00029661323 -0.018202765
0.0087038735 -0.00029660793 -0.018797232
0.0087038707 -0.00079095649 -0.018202772
0.0087038754 -0.00029660782 -0.023255762
0.0087038781 -0.00029660962 -0.033758067
0.0087038679 0.00029661428 -0.033758059
0.0087038754 -0.00029661745 -0.035739623
0.0086840969 -0.0012457704 -0.032767277
0.0087038698 0.00079096295 -0.033758063
0.0007912583 0.0012853086 -0.039801843
