# .PCD v0.7 - Point Cloud Data file format
VERSION 0.7
FIELDS x y z
SIZE 4 4 4
TYPE F F F
COUNT 1 1 1
WIDTH 762
HEIGHT 1
VIEWPOINT 0 0 0 1 0 0 0
POINTS 762
DATA ascii
-0.00023531938 -0.0022214246 -0.004751063
-0.00073351071 -0.002171346 -0.006253236
-0.0002353194 -0.0022214251 -0.006253235
-0.00073351065 -0.0021713455 -0.0052618026
-0.00023531979 -0.0022214237 -0.0052618152
-0.00023531931 -0.0022214237 -0.0057425052
-0.00093862839 5.0877417e-05 0.002741009
-0.0010948124 -8.392673e-05 0.0026931791
-0.0010818425 4.6839508e-05 0.0027296143
-0.00093823858 4.8930586e-05 0.0022188844
-0.0022238649 0.00023506067 -0.006253235
-0.002173733 0.00073270383 -0.006253235
-0.0022238693 0.00023506064 -0.0052618179
-0.0022238677 0.0002350607 -0.0067639379
-0.0022238654 0.00023506068 -0.0027382066
-0.0021737325 0.00073270389 -0.0022575143
-0.0022238661 0.00023506074 -0.0032489297
-0.0021737337 0.00073270383 -0.0017467786
-0.0007335103 -0.0021713451 -0.0042403499
-0.00073351053 -0.0021713448 -0.0047510741
-0.0011791711 -0.0020776666 -0.0042403433
-0.0011791713 -0.0020776659 -0.0047510741
-0.0011791713 -0.0020776666 -0.0022575106
-0.00073351135 -0.002171346 -0.0017467781
-0.001179171 -0.0020776666 -0.0027381973
-0.0022238647 -0.00023506074 -0.006253235
-0.0022238649 -0.00023506071 -0.006763937
-0.00073351059 -0.0021713458 -0.0032489281
-0.001179171 -0.0020776661 -0.0032489253
-0.0011791708 -0.0020776661 -0.0037596577
-0.002068697 0.0011711218 -0.010634681
-0.0017483651 0.00075277785 -0.010669523
-0.0021609671 0.00072995701 -0.010651683
-0.0021737311 0.00073270395 -0.010248929
-0.0020724144 0.0011818615 -0.010248922
-0.0016579322 0.0016561111 -0.010248909
-0.0020724144 0.0011818614 -0.0097682429
0.0002353196 -0.0022214246 -0.0042403443
0.00023531933 -0.0022214234 -0.0037596403
-0.00023531931 -0.0022214237 -0.003759644
0.00023531965 -0.0022214248 -0.003248929
0.00073351059 -0.0021713462 -0.0032489288
-0.0022143845 0.00023073189 -0.01065309
-0.00075276691 0.0002401544 -0.010729026
-0.0012598168 -0.00024069198 -0.010705598
-0.00023495598 0.0021930458 -0.00077220984
-0.00072962168 0.002150523 -0.00077869557
-0.00023531946 0.0022214239 -0.0012360518
-0.00023500205 0.0022120406 -0.00035826676
0.00023531956 0.0022214244 -0.0012360504
-0.0022021635 -0.00023394002 -0.00077167666
-0.0021487048 -0.00071964727 -0.00077989837
-0.0021737344 -0.00073270401 -0.0012360513
-0.0022238663 -0.00023506068 -0.0012360499
-0.0021737341 -0.00073270389 -0.0017467795
-0.0022238668 -0.0002350608 -0.0017467779
-0.0022238672 -0.00023506083 -0.00324893
-0.0022238661 -0.00023506072 -0.0027382069
-0.0022238665 0.00023506068 -0.0012360499
-0.0022238661 0.00023506086 -0.0017467777
-0.0022238642 -0.00023506078 -0.0022575115
-0.0021737355 0.00073270389 -0.0012360523
-0.0020724144 0.0011818614 -0.0012360523
-0.0020724153 0.0011818615 -0.0017467814
-0.0011791713 -0.0020776663 -0.0057424875
-0.0011791713 -0.0020776661 -0.0067639425
-0.0011791711 -0.0020776659 -0.0062532211
-0.0016400689 -0.0016397545 -0.00079579232
-0.0020701981 -0.0011769906 -0.00034359982
-0.0020613328 -0.001157507 -0.00083488971
-0.0016521901 -0.0016522881 -0.00035145413
-0.0017444156 -0.0012613009 -0.00036211917
-0.0012621559 -0.0017421707 -0.00036158459
-0.0011747873 -0.0020751585 -0.00034310902
-0.00073102699 -0.0021630817 -0.00035571028
-0.0007462175 -0.0017272565 -0.00033888733
-0.00023531952 -0.0022214246 -0.0032489288
-0.00023531953 -0.0022214237 -0.0027382055
-0.00023531938 -0.0022214237 -0.0042403489
0.00023531975 -0.0022214248 -0.001746777
-0.0007335103 -0.0021713451 -0.0027382004
-0.00073350989 -0.0021713453 -0.0077553336
-0.00023531922 -0.0022214248 -0.007755327
-0.00073351047 -0.0021713453 -0.006763937
0.0002353195 -0.0022214237 -0.010248956
0.00073259871 -0.002167895 -0.010650147
0.00023519952 -0.0022142823 -0.010647431
0.000733511 -0.0021713453 -0.010248929
-0.00090600178 -0.00011542601 0.0026962329
0.00074817124 0.00074754091 -0.010720527
0.0022059763 0.0002347215 -0.01065394
0.0020721212 0.0011782442 -0.010634804
0.0021657897 0.0007324054 -0.010640587
0.0011791715 0.0020776663 -0.0082660932
0.0016579326 0.0016561107 -0.0072446242
0.0016579326 0.0016561106 -0.0087467665
-0.0016575194 0.0016519871 -0.010646887
-0.0020724153 0.0011818616 -0.0092575112
0.00072251068 -0.0021453078 -0.00077989791
0.00023434058 -0.0022104864 -0.00035883952
0.00023531934 -0.0022214237 -0.0012360513
0.00023598627 -0.0021895082 -0.00077253161
0.0016579324 -0.0016561107 -0.0092575299
0.0016579323 -0.0016561111 -0.0097682448
0.0011791711 -0.0020776661 -0.0092575187
0.0011791711 -0.0020776663 -0.0097682439
0.00023531962 -0.0022214234 -0.0057425089
0.00073351001 -0.0021713446 -0.0037596442
0.00023531955 -0.0022214237 -0.0027382059
0.00023531987 -0.0022214248 -0.0047510657
-0.0022238647 0.0002350607 -0.0057425061
-0.0021737327 0.00073270389 -0.0057425024
-0.0022238661 0.00023506075 -0.0037596426
-0.0022238679 -0.00023506086 -0.0047510639
-0.0022238668 -0.00023506075 -0.0037596419
-0.0020724146 0.0011818616 -0.0027381957
-0.0020724155 0.0011818616 -0.003248926
0.0022238661 0.00023506074 -0.0042403433
0.0022238642 -0.00023506072 -0.0037596433
0.0022238714 -0.0002350608 -0.004751062
0.0022238651 -0.00023506074 -0.0042403424
0.0022238668 -0.00023506074 -0.007755328
0.0021737327 -0.00073270383 -0.0077553345
0.0021737339 -0.00073270389 -0.0087468112
0.0020724155 0.0011818615 -0.0077553689
0.0016579324 0.0016561111 -0.0067639397
0.0020724146 0.0011818619 -0.0072446372
0.0022238651 -0.00023506077 -0.0072446074
0.0022238663 0.00023506071 -0.0072446056
0.0022238684 0.00023506065 -0.006763937
-0.001748365 0.00024088878 -0.010669504
-0.0012640757 0.00023571824 -0.010676338
-0.0016579326 -0.0016561103 -0.0062532295
-0.0016579326 -0.0016561107 -0.0067639397
-0.00073351007 0.0021713453 -0.0012360523
-0.00073351129 0.002171346 -0.0017467777
-0.0011791713 0.0020776663 -0.0012360504
-0.0011557826 0.0020654702 -0.0008241972
-0.0016579328 0.0016561106 -0.0057424884
-0.0016579326 0.0016561105 -0.0062532276
-0.0020724165 0.0011818617 -0.0062532192
-0.0016579326 0.0016561107 -0.0067639388
-0.0021654605 0.00073022471 -0.00035570981
-0.0022053726 0.00023443635 -0.00077145873
-0.001639566 0.0016345754 -0.00080013042
-0.0016531087 0.0016512939 -0.0003503859
-0.0020666309 0.0011638299 -0.00081824511
-0.0020701988 0.0011769908 -0.00034359982
-0.0022144709 -0.00023474374 -0.00035826676
-0.0017288437 0.0007456087 -0.00033419114
-0.0012622572 -0.0017420052 -0.010665069
-0.0017416864 -0.0012589712 -0.010664951
-0.0016467677 -0.0016587884 -0.010636812
-0.0011763173 -0.0020748985 -0.010644322
-0.0016579324 -0.0016561107 -0.0097682467
-0.0016579324 -0.0016561104 -0.0092575308
-0.0020724153 -0.0011818614 -0.0097682429
-0.00075360719 -0.00024088885 -0.010729657
0.0011791715 -0.0020776666 -0.0087467805
0.0011791711 -0.0020776663 -0.007244641
0.0011791711 -0.0020776663 -0.0082660923
0.00073351036 -0.0021713458 -0.0077553336
0.0016579328 -0.0016561105 -0.01024891
0.0016579324 -0.001656111 -0.0067639388
0.0011791709 -0.0020776663 -0.0067639425
0.0011791709 -0.0020776663 -0.0062532211
0.00023500195 0.0022120404 -0.00035826676
-0.00023856253 0.0017212392 -0.00029914733
0.00023925293 0.0017206742 -0.00029795431
-0.0012614231 -0.0012604963 -0.010676396
-0.0021623925 -0.00072702928 -0.010650284
-0.0021737337 -0.00073270389 -0.010248928
-0.0020680637 -0.001174334 -0.010626794
-0.0020724151 -0.0011818617 -0.010248921
-0.0022238647 -0.00023506074 -0.0072446037
-0.0022238686 -0.0002350609 -0.0077553252
-0.0021737337 -0.00073270389 -0.0067639379
-0.0021737337 0.00073270401 -0.0067639379
-0.0021737341 0.00073270395 -0.0077553317
-0.0020724153 -0.0011818616 -0.0017467805
-0.0020724148 -0.0011818613 -0.0012360518
-0.0020724165 -0.0011818615 -0.0032489251
-0.0022238626 0.00023506077 -0.0022575124
-0.0021737295 0.00073270389 -0.0027382041
-0.0011791714 -0.0020776661 -0.005261803
-0.00073351071 -0.0021713453 -0.0057425005
-0.0012429338 -0.001249466 -0.00031201262
-0.00126139 -0.00074869802 -0.00025374489
-0.0017376881 -0.0007446229 -0.00035166321
-0.0011791708 -0.0020776659 -0.0012360509
-0.00073350966 -0.0021713453 -0.0012360518
-0.0011600662 -0.0020744293 -0.0008183578
-0.00072962145 -0.0021505235 -0.0007786951
-0.00075092691 -0.0012616861 -0.010696312
-0.00075249764 -0.0017452686 -0.010670976
-0.00072845217 -0.0021652079 -0.010658761
-0.00073351001 -0.0021713446 -0.010248928
-0.00073351001 -0.0021713453 -0.0037596442
-0.00023531928 -0.0022214237 -0.0022575147
-0.00023531959 -0.0022214244 -0.001746777
0.00023531955 -0.0022214232 -0.0072446074
-0.00023531936 -0.0022214234 -0.0072446056
0.00023531905 -0.0022214239 -0.0077553261
0.00023531934 -0.0022214244 -0.0087467982
0.00023531938 -0.0022214234 -0.0082661044
-0.00023531949 -0.0022214246 -0.0087467991
-0.00073351042 -0.0021713446 -0.0072446093
-0.00023531959 -0.0022214246 -0.010248954
-0.00024214962 -0.002211856 -0.010652455
0.00073351042 -0.0021713448 -0.0087468112
0.00073351071 -0.0021713451 -0.0092575159
-0.00023531943 -0.0022214237 -0.0082661007
-0.00090906047 -0.00011472095 0.0022506649
0.00093447056 -4.3493845e-05 0.0027329521
0.0010940577 -3.36536e-05 0.0027243122
0.001085192 -3.0111119e-05 0.002248927
0.00093447062 -3.0111123e-05 0.0022489275
0.0010851918 -3.0111112e-05 0.0017682407
-0.00024115387 0.0012646659 -0.00024463516
0.00024115377 0.001264666 -0.00024463516
-0.0010981109 -8.1730162e-05 0.0012575113
-0.0010966258 4.4647517e-05 0.0012616548
-0.0010981109 -8.1730162e-05 0.0017682402
-0.00091035606 -0.00011442236 0.0012575113
0.00075192045 0.0017453923 -0.010668477
0.00023899561 0.0012536107 -0.010694853
0.00075425702 0.0012592161 -0.01068404
-0.0017421398 0.0012597586 -0.010663293
-0.00074197096 0.00074596377 -0.010714817
0.00023914421 0.0017442836 -0.010672743
-0.0011784619 0.0020755415 -0.010640194
-0.0011791713 0.0020776663 -0.010248917
-0.0020724153 0.0011818619 -0.0077553689
-0.0016579324 0.001656111 -0.0082660923
-0.0016579325 0.0016561105 -0.0077553829
-0.0020724144 0.0011818619 -0.0082660923
-0.0020724146 0.0011818616 -0.0087467814
-0.0016579322 0.0016561107 -0.0072446242
-0.00072890846 0.0021623163 -0.0003563608
0.0022238665 -0.00023506077 -0.0057425024
0.0022238658 0.00023506072 -0.0052618175
0.0022238637 -0.00023506077 -0.005261817
0.0022238668 -0.00023506077 -0.0092574898
0.002173732 -0.00073270389 -0.009257515
0.00093447062 -3.0111114e-05 0.0017682402
0.00093447056 -3.0111112e-05 0.0012575109
0.001085192 -3.0111114e-05 0.0012575109
0.0021737318 -0.00073270395 -0.0072446102
0.002173732 -0.00073270395 -0.0067639379
0.00073351013 -0.0021713448 -0.0042403527
0.00073351077 -0.0021713455 -0.0047510704
0.001179171 -0.0020776663 -0.0042403433
-0.0022238663 0.00023506083 -0.0047510574
-0.0021737311 0.00073270383 -0.0032489304
-0.001179171 0.0020776661 -0.0077553699
-0.0011791707 0.0020776661 -0.007244641
0.0016579326 0.0016561105 -0.0082660923
0.0020724165 0.0011818617 -0.0047510732
0.0016579322 0.0016561111 -0.0052617984
0.0020724153 0.0011818615 -0.005261797
0.0016579325 0.0016561106 -0.0047510779
0.0011098555 0.00011223241 0.002248927
0.0011098554 0.00011223237 0.0026995707
0.0011098556 0.00011223241 0.0017682412
0.0022238665 -0.00023506077 -0.0087468
0.0022238665 0.00023506074 -0.0087467991
0.0022238712 0.00023506083 -0.004751063
0.0022238668 -0.00023506083 -0.0062532369
-0.0012597528 -0.00075003487 -0.010691749
-0.001748365 -0.00075277785 -0.010669528
-0.0017483658 -0.00024088875 -0.010669506
-0.0020724155 -0.0011818617 -0.006253222
-0.0020724146 -0.0011818614 -0.0067639425
-0.0020724148 -0.0011818617 -0.00724464
-0.0011791714 -0.0020776663 -0.0097682448
-0.001179171 -0.0020776666 -0.0087467805
-0.0016579326 -0.0016561106 -0.0087467637
-0.0016579323 -0.0016561112 -0.010248909
-0.0021737341 0.00073270401 -0.0082660988
-0.0020724148 0.0011818617 -0.0057424884
-0.0016579323 0.0016561111 -0.0052617961
-0.001179171 0.0020776661 -0.005261803
-0.0021737325 0.00073270412 -0.005261804
-0.0021508192 0.00072392513 -0.00077921525
-0.0021654591 -0.00073022459 -0.00035570981
-0.001090216 5.0185212e-05 0.0022088699
0.00024115387 -0.00075277762 -0.010729656
0.00024115389 -0.00024088861 -0.010729639
0.00075360754 0.00024088881 -0.010729662
-0.0002411538 -0.00075277756 -0.01072966
-0.0011791709 -0.0020776663 -0.010248918
0.00024115371 0.00024088869 -0.01072964
0.00075192132 -0.00023962541 -0.010728398
-0.00074837339 -0.00074754935 -0.010720878
-0.002214967 -0.00023205376 -0.010652411
-0.0022238675 -0.00023506072 -0.010248954
-0.001179171 -0.0020776661 -0.0082660923
-0.0016579323 -0.0016561106 -0.0082660923
-0.0020724144 -0.0011818616 -0.0082660951
-0.0016579323 -0.0016561106 -0.0077553829
-0.0020724153 -0.0011818616 -0.0087467805
0.0016579322 -0.0016561109 -0.0062532267
0.0016579322 -0.001656111 -0.0087467637
0.0020724162 -0.0011818615 -0.0092575205
0.0016579323 -0.0016561104 -0.0082660913
0.0020724153 -0.0011818617 -0.0062532211
0.0020724146 -0.0011818614 -0.0067639425
0.0022238658 -0.0002350607 -0.010248954
0.0022238663 0.00023506075 -0.010248954
-0.0021737337 -0.00073270395 -0.0082660969
-0.0022238654 0.0002350607 -0.010248955
-0.0021737332 -0.00073270395 -0.0097682346
-0.0022238677 -0.00023506077 -0.0092574861
-0.0021737334 -0.00073270383 -0.0092575112
-0.0021737337 -0.00073270389 -0.0077553326
-0.00023531936 -0.0022214239 -0.006763937
0.002173732 -0.00073270383 -0.0037596482
0.0021737327 -0.00073270389 -0.0042403461
0.0020724148 -0.0011818617 -0.009768242
-0.0022238644 -0.00023506071 -0.0057425098
-0.0021737327 -0.00073270389 -0.0027382034
-0.0021737332 -0.00073270395 -0.0052618026
-0.0020724162 -0.0011818617 -0.0047510704
-0.0020724155 -0.0011818617 -0.0052617998
-0.0011791708 0.0020776661 -0.0047510751
-0.0011791709 0.0020776666 -0.0042403433
-0.00073351007 0.0021713451 -0.0042403508
-0.00073351065 0.0021713455 -0.0052618044
-0.0016579325 0.0016561105 -0.0047510779
-0.00023531963 0.0022214239 -0.0057425089
-0.00023531965 0.0022214239 -0.0047510639
-0.00023531949 0.0022214246 -0.004240348
-0.00023531965 0.0022214244 -0.006253235
-0.0020724146 0.0011818616 -0.0022575099
-0.00023434043 -0.0022104862 -0.00035883952
-0.0002359865 -0.0021895077 -0.00077253114
-0.00023759135 -0.0017198926 -0.00029925862
-0.00074861624 -0.0012592954 -0.0002513323
-0.00024115377 -0.001264666 -0.00024463516
-0.001179171 -0.0020776656 -0.00174678
-0.00073351088 -0.0021713455 -0.0097682374
-0.00073351036 -0.0021713448 -0.002257514
0.00073351053 -0.0021713448 -0.0072446093
-0.0011791709 -0.0020776663 -0.00724464
0.00023531938 -0.0022214248 -0.0092574889
-0.00023531946 -0.0022214248 -0.009257488
-0.0002353196 -0.0022214237 -0.0012360513
-0.00023981064 -0.0017385446 -0.010679928
0.0011763097 -0.0020742451 -0.010646314
0.00073351036 -0.0021713455 -0.0082660941
0.0011791713 -0.0020776659 -0.0077553708
-0.00073351065 -0.0021713451 -0.0082661007
-0.0011791711 -0.0020776663 -0.009257515
-0.00073351001 -0.0021713448 -0.0087468112
0.001179171 -0.0020776661 -0.01024892
-0.00090778637 -0.00011501471 0.0017702105
0.001245654 -0.0012442897 -0.00031837635
0.0010851918 -3.0111119e-05 0.00074678147
0.001744417 -0.0012613008 -0.00036211917
0.001258592 -0.00074832386 -0.00025303941
0.00093447062 -3.0111114e-05 0.00074678147
0.00090139266 0.00011644753 0.0027016979
-0.0017266114 0.00024057836 -0.00032671122
-0.00093447062 3.0111114e-05 0.00074678147
-0.00074861612 0.0012592955 -0.0002513323
-0.0010899515 3.6450299e-05 0.0017729839
-0.00093447074 4.8641054e-05 0.0012667547
-0.0017234223 -0.00023706749 -0.00032164855
-0.0009052995 -0.00011558794 0.00074484246
-0.00023973617 -0.00075655332 -0.00024793111
0.00024115368 -0.00023247529 -0.00025700545
0.0011791708 0.0020776663 -0.0067639444
0.0007232395 0.0021631287 -0.010643672
0.0002339435 0.0022113011 -0.010658849
0.0017440357 0.00074547366 -0.010659101
0.0017426369 0.0012628855 -0.010641144
0.0017483654 0.00024088875 -0.0106695
-0.0012659719 0.0017384432 -0.010661681
-0.00023301147 0.0022121286 -0.010659141
-0.00073226279 0.0021693187 -0.010642097
0.0002411537 0.00075277762 -0.010729658
-0.00024115371 0.00024088871 -0.010729642
-0.0012652411 0.00075359171 -0.010675218
-0.00024115382 0.00075277762 -0.010729659
-0.00024150198 0.0012566707 -0.010694297
-0.00074788387 0.0012600808 -0.010679287
0.0012583744 0.00075200404 -0.010685304
0.001650396 0.0016499958 -0.010629626
0.0016579324 0.001656111 -0.01024891
0.0020724146 0.0011818614 -0.010248921
0.0021737346 0.00073270389 -0.0052618058
0.0021737339 0.00073270395 -0.0047510704
-0.0011764616 0.0020709762 -0.00034895074
-0.0012614754 0.001741871 -0.00036119437
-0.00074370077 0.0017265123 -0.00033109635
-0.001085192 3.0111116e-05 0.00074678147
-0.0017431019 0.001259984 -0.00036080088
-0.0012606811 0.00074779114 -0.00025133276
0.00023531943 0.0022214246 -0.0022575085
0.00073351065 0.002171346 -0.0032489286
0.0007335096 0.0021713453 -0.0027382004
0.00023531955 0.0022214244 -0.0027382076
0.00023531959 0.0022214246 -0.0032489288
-0.00023531952 0.0022214246 -0.0022575129
-0.00023531943 0.0022214248 -0.0017467772
0.0021737339 -0.00073270383 -0.0052618044
0.002072416 -0.0011818614 -0.0047510741
0.0020724146 -0.0011818615 -0.0052617984
0.0020724146 -0.0011818616 -0.0057424884
0.0022238665 0.00023506077 -0.0092574898
0.0022238656 0.00023506072 -0.0097682141
0.002173732 0.00073270395 -0.0097682346
0.0021737318 0.00073270395 -0.0092575159
0.00023925283 -0.0017206742 -0.00029795477
0.0007310271 -0.0021630817 -0.00035570981
0.00074369967 -0.0017265116 -0.00033109635
0.0011747871 -0.0020751585 -0.00034310902
0.00073350995 -0.0021713448 -0.0012360509
-0.0020724146 -0.0011818617 -0.0057424875
0.0011791715 -0.0020776663 -0.0032489256
0.0016579324 -0.0016561107 -0.0042403387
0.0016579323 -0.001656111 -0.0047510788
0.0011791709 -0.0020776661 -0.0047510751
-0.0020724142 0.0011818615 -0.00724464
-0.0022238658 0.00023506078 -0.0042403461
-0.00074921676 0.0017401599 -0.010662374
-0.0011791709 0.0020776663 -0.0097682439
-0.0011791713 0.0020776663 -0.0057424884
0.00073351013 0.0021713453 -0.0042403517
0.001179171 0.0020776666 -0.0042403433
0.0011791713 0.0020776663 -0.0047510741
0.0011791708 0.0020776663 -0.003759657
0.00073351065 0.0021713448 -0.0037596428
0.00023531949 0.0022214237 -0.004240348
0.00023531978 0.0022214246 -0.004751063
0.00023531955 0.0022214244 -0.0052618152
0.00073350966 0.0021713453 -0.005261803
-0.00023531936 0.0022214232 -0.0052618152
0.00023531933 0.002221423 -0.0057425061
0.0016579325 0.0016561104 -0.0077553811
0.0020724144 0.0011818616 -0.0087467767
0.0020724142 0.0011818615 -0.0082660932
0.0020724162 0.0011818615 -0.0092575196
0.0016579322 0.0016561106 -0.0092575289
0.0022238663 0.0002350607 -0.007755327
0.0011791711 0.0020776666 -0.0052618021
0.001179171 0.0020776666 -0.0027381962
0.0020724146 0.0011818616 -0.0067639407
0.0017362448 -0.00074470713 -0.00034963014
0.0021654591 -0.00073022471 -0.00035570981
0.0017275919 -0.00023761248 -0.00032822601
0.0022144718 -0.0002347437 -0.00035826676
0.0011098556 0.00011223239 0.00074678147
0.0022144723 0.00023474374 -0.00035826676
0.0021980272 -0.00023686465 -0.00077197747
0.0021906723 0.00023394007 -0.00077269599
0.0021532171 -0.00072717958 -0.00077869464
0.0022238651 -0.00023506074 -0.0012360495
0.0011791715 0.0020776663 -0.0087467805
0.0016579324 0.0016561106 -0.0062532304
0.0020724153 0.0011818612 -0.0062532211
0.0022238665 -0.00023506072 -0.0082661081
0.0022238658 0.00023506075 -0.0057425052
0.0022238654 -0.00023506074 -0.006763937
0.0021737304 -0.00073270395 -0.006253236
0.0007335096 -0.0021713451 -0.005261803
-0.00073351001 0.0021713448 -0.0027382032
-0.00073350995 0.0021713448 -0.0022575154
-0.001179171 0.0020776659 -0.0017467809
-0.0011791709 0.0020776666 -0.0022575099
-0.001179171 0.0020776663 -0.0027381964
0.0011748099 0.0020744123 -0.010621624
0.00073351071 0.0021713453 -0.002257514
0.00073351036 0.0021713448 -0.0012360518
0.0011791708 0.0020776666 -0.0012360513
-0.0020724148 0.0011818617 -0.0037596577
-0.0016579326 0.0016561103 -0.0032489293
-0.0016579323 0.0016561107 -0.0037596582
-0.002072416 0.0011818614 -0.0047510741
-0.0021737327 0.00073270383 -0.0047510676
-0.0010981109 -8.173017e-05 0.0022489275
-0.0022144702 0.00023474377 -0.00035826676
-0.00024115374 -0.00024088871 -0.010729642
0.0016579323 -0.001656111 -0.0057424903
0.0020724148 -0.0011818614 -0.0082660923
0.0020724153 -0.0011818615 -0.0077553708
0.0022238654 -0.0002350607 -0.0097682197
0.0021737325 -0.00073270389 -0.0097682411
0.0017462421 -0.00075079873 -0.010667408
0.0020724148 -0.0011818615 -0.010639486
0.0017378656 -0.0012653447 -0.010657686
0.001748365 -0.00024088874 -0.010669501
0.0012638707 -0.00023565203 -0.010685923
0.0012643957 -0.0007537448 -0.010671465
-0.0021737318 0.00073270377 -0.0097682411
-0.0021737346 0.00073270395 -0.0087468103
-0.0021737323 0.00073270377 -0.0092575084
-0.0022238665 0.0002350608 -0.0077553252
-0.0022238642 0.00023506072 -0.0072446046
-0.0021737323 -0.00073270383 -0.0072446074
-0.0020724148 0.0011818616 -0.0067639435
0.0020724148 -0.0011818616 -0.0042403443
0.00073351047 -0.0021713453 -0.0022575136
0.0021737344 -0.00073270395 -0.0032489286
-0.0016579326 -0.001656111 -0.0012360518
-0.0016579323 -0.0016561104 -0.0017467819
-0.0016579328 -0.0016561106 -0.0022575115
-0.0016579326 -0.0016561106 -0.0042403387
-0.0022238682 -0.00023506072 -0.0052618179
-0.0020724137 -0.0011818614 -0.0022575099
-0.0016579326 -0.0016561106 -0.0037596582
-0.0021737339 -0.00073270383 -0.0037596459
-0.0016579324 -0.0016561104 -0.0047510779
-0.0016579319 -0.0016561111 -0.0052617947
-0.0020724162 -0.0011818616 -0.0077553708
-0.00073351065 0.0021713455 -0.0032489288
-0.0011791714 0.0020776663 -0.0032489256
-0.00073351053 0.0021713453 -0.0047510751
0.00024115331 0.00075277756 -0.00024463469
0.00090055889 0.00011668071 0.00074678147
0.00073351088 -0.0021713455 -0.0067639379
0.00023531943 -0.0022214246 -0.0062532369
-0.0011791713 -0.0020776663 -0.0077553708
-0.00023531969 -0.0022214244 -0.0097682131
0.00073351053 -0.0021713453 -0.0097682429
0.00023920668 -0.0017415434 -0.010671756
0.0020701985 -0.0011769907 -0.00034359982
-0.00093447056 3.6802481e-05 0.0017715786
0.00090055901 0.00011668069 0.0017682402
0.00073102693 0.002163081 -0.00035570981
0.00074369967 0.0017265122 -0.00033109682
0.0016531085 -0.0016512941 -0.0003503859
0.00090055889 0.00011668068 0.0012575109
0.0011098556 0.00011223242 0.0012575109
0.00074861594 -0.0012592955 -0.00025133276
-0.00109524 -8.3641986e-05 0.00074678147
0.001179171 0.0020776663 -0.00724464
0.001179171 0.0020776659 -0.0077553689
0.00073351077 0.0021713453 -0.010248927
0.0021737304 0.00073270377 -0.010248927
0.0012536595 0.00023976309 -0.010692972
-0.0012660542 0.001264668 -0.010669506
-0.00024177553 0.0017445827 -0.010671674
0.0012607811 0.0012639605 -0.010669903
-0.00075360801 0.00075277762 -0.00024463469
-0.0012488099 0.0012474414 -0.00030541979
0.0021737334 -0.00073270389 -0.0047510685
0.0021737332 -0.00073270395 -0.0057425015
0.0011791708 -0.0020776666 -0.0012360513
0.0011579399 -0.0020640171 -0.00083347643
0.0016579323 -0.0016561107 -0.0012360504
-0.0021737323 -0.00073270377 -0.006253235
-0.0021737309 -0.00073270383 -0.0057425024
-0.0022238658 -0.00023506074 -0.0042403489
0.0016579326 -0.0016561106 -0.0027381973
0.0011791715 -0.0020776661 -0.0027381959
0.00023531956 -0.0022214234 -0.0022575106
-0.00073351082 0.0021713458 -0.009257515
-0.0002353193 0.0022214246 -0.009257488
-0.00023531955 0.0022214244 -0.0087467991
-0.00023531911 0.0022214244 -0.0077553261
-0.0011791709 0.0020776663 -0.0087467795
-0.0016579324 0.0016561106 -0.0092575289
-0.00073351001 0.0021713453 -0.010248928
-0.00073351007 0.0021713453 -0.0057425015
-0.0002353195 0.0022214246 -0.006763937
-0.0011791714 0.0020776666 -0.0037596582
-0.0011791709 0.0020776663 -0.0082660923
0.00023531965 0.0022214239 -0.0037596412
-0.0002353192 0.0022214237 -0.0037596426
0.0007335103 0.0021713441 -0.0047510723
0.002173732 0.00073270383 -0.0087468121
0.0020724142 0.0011818617 -0.0097682439
0.0016579323 0.0016561111 -0.0097682467
0.0011791711 0.0020776663 -0.0097682448
0.00073351071 0.0021713455 -0.006253235
0.0011791715 0.0020776659 -0.0062532211
0.0016579326 0.0016561106 -0.0042403406
0.0020724151 0.0011818615 -0.0042403443
0.0022238654 0.0002350608 -0.0032489283
0.0022238633 0.00023506071 -0.0037596438
0.0021737318 0.00073270395 -0.0037596468
0.0011791713 0.0020776663 -0.0032489256
0.0022238661 0.00023506074 -0.001236049
0.0021725527 -0.00072873256 -0.010644659
0.0022114757 -0.0002366368 -0.010659723
0.0020724144 -0.0011818616 -0.0087467758
0.0021737334 0.00073270377 -0.006763937
0.0021737316 0.00073270395 -0.0072446084
0.002223867 0.0002350608 -0.006253235
0.0021737318 -0.00073270412 -0.0082661128
0.00073350989 -0.0021713453 -0.0057425005
0.00023531957 -0.0022214244 -0.0052618142
0.0011791711 -0.0020776663 -0.0052618016
-0.0016579323 0.0016561107 -0.0022575115
0.0021737334 -0.00073270395 -0.0012360513
0.0021737316 -0.00073270377 -0.0017467774
0.002072416 -0.0011818619 -0.0017467805
0.0011552672 0.0020659356 -0.00083144754
0.0011747873 0.0020751583 -0.00034310902
0.0016579323 0.001656111 -0.0012360504
0.0012627906 0.0017431839 -0.00036251079
0.00023531975 0.0022214246 -0.0017467781
0.001179171 0.0020776663 -0.009257515
0.0016579324 0.0016561107 -0.0032489265
0.0016579324 0.0016561105 -0.0027381969
0.0011791709 0.0020776663 -0.0022575113
0.0022238658 0.00023506074 -0.001746777
0.0021737346 0.00073270401 -0.0012360513
0.0016579321 0.0016561107 -0.0017467819
0.002072416 0.0011818615 -0.00174678
0.0021737318 0.00073270383 -0.0022575173
0.002223863 0.00023506072 -0.0027382069
0.0021737316 0.00073270389 -0.0027382004
0.0022238628 0.00023506074 -0.002257511
-0.0020724148 0.0011818615 -0.0052618007
-0.0021737323 0.00073270389 -0.0042403443
-0.0020724144 0.0011818616 -0.0042403424
-0.0016579323 0.0016561111 -0.0012360518
0.001262942 -0.0017416995 -0.010662972
0.00073971105 -0.00074502011 -0.010711636
0.0016571285 -0.0016524985 -0.010651503
0.0020724146 -0.0011818619 -0.00724464
0.0020724148 -0.0011818614 -0.010248917
-0.0022238661 -0.00023506072 -0.0097682253
-0.0022238663 0.00023506074 -0.0097682271
0.00073351065 -0.002171346 -0.0017467784
0.0016579322 -0.0016561109 -0.0032489274
0.001179171 -0.0020776666 -0.0022575101
0.0022238649 -0.00023506067 -0.0027382062
0.0020724153 -0.0011818616 -0.003248926
0.0020724148 -0.0011818617 -0.0027381973
0.0016579323 -0.0016561107 -0.003759657
-0.0020724148 -0.0011818619 -0.0027381969
-0.0016579322 -0.0016561107 -0.0027381948
-0.0021737318 -0.00073270389 -0.00324893
-0.0021737325 -0.00073270389 -0.0047510779
-0.0020724148 -0.0011818616 -0.0037596584
-0.002072416 -0.0011818613 -0.0092575094
-0.00023531943 0.0022214241 -0.0032489279
-0.00024115368 0.00075277744 -0.00024463423
-0.0016579322 0.0016561107 -0.0017467821
0.00073351071 -0.0021713458 -0.006253235
0.0002353192 -0.0022214246 -0.006763937
-0.0016579329 -0.0016561104 -0.0072446242
0.00023531956 -0.0022214232 -0.0097682402
0.00023700323 -0.0012553555 -0.010699301
0.00075360708 -0.001261806 -0.010674288
0.00090055907 0.00011668068 0.0022489275
0.0012627912 -0.0017431845 -0.00036251033
0.00074861536 0.0012592954 -0.0002513323
0.0012447858 0.0012452565 -0.00031920895
0.0012599902 0.0007470054 -0.00025164196
0.0017372743 0.00074404123 -0.00035064155
0.00075360679 -0.00075277739 -0.00024463516
0.00072948996 0.002141553 -0.00078018196
0.00023598656 0.0021895082 -0.00077253161
0.00023531952 0.0022214234 -0.010248956
0.00073351071 0.0021713455 -0.0097682336
0.00023531962 0.0022214239 -0.0097682374
0.0012590853 0.0017347831 -0.010654052
-0.002173732 0.00073270383 -0.0072446056
0.0016382296 -0.0016364317 -0.00079954509
0.0011791708 -0.0020776666 -0.003759657
0.0007335103 -0.0021713453 -0.0027382008
-0.001179171 0.0020776661 -0.0092575159
-0.0016579322 0.001656111 -0.0097682467
-0.00073351123 0.0021713451 -0.0062532341
-0.0016579324 0.0016561111 -0.0042403387
-0.00073351042 0.0021713448 -0.0037596438
-0.00073350995 0.0021713448 -0.0072446112
-0.00073351036 0.0021713444 -0.0077553326
0.0021737327 0.00073270395 -0.008266109
0.00023531922 0.0022214246 -0.007755328
-0.0002353196 0.0022214239 -0.0082661035
0.00023531971 0.0022214234 -0.0082661081
0.00023531956 0.0022214244 -0.0072446037
0.00073350972 0.0021713451 -0.0057424987
0.001179171 0.0020776666 -0.0057424884
0.0016579322 0.0016561111 -0.0022575108
0.0021737334 0.00073270366 -0.0042403461
0.0020724144 0.0011818615 -0.0037596554
0.00073351018 0.0021713451 -0.0082661044
0.0021737337 0.00073270389 -0.0057424968
0.0021737318 0.00073270383 -0.006253235
-0.0022238661 0.00023506074 -0.0092574852
-0.002173733 -0.00073270389 -0.0087468103
-0.0022238658 -0.00023506072 -0.0087467982
-0.0022238665 -0.00023506072 -0.0082660858
-0.0016579324 0.001656111 -0.0027381959
0.0020724146 -0.0011818617 -0.0012360499
0.0020628416 -0.0011556164 -0.00082844216
0.0011791713 0.0020776663 -0.01024892
0.0016377007 0.001635903 -0.00080073113
0.00216546 0.00073022471 -0.00035570981
0.002070199 0.0011769905 -0.00034359982
0.00073351082 0.0021713448 -0.0017467786
0.0022238668 -0.00023506077 -0.0017467767
0.0021737311 0.00073270401 -0.0017467786
-0.0021737325 0.00073270383 -0.0037596456
0.0012660541 -0.001264668 -0.010669511
0.0016579324 -0.001656111 -0.0052617984
0.0021737327 -0.00073270395 -0.010248928
0.00023531938 0.0022214246 -0.006763937
-0.0022238663 0.00023506071 -0.0087467972
0.0020724151 -0.0011818619 -0.003759657
0.0011791709 -0.0020776659 -0.0017467805
0.0021737309 -0.00073270401 -0.0027381987
0.0021737297 -0.00073270383 -0.0022575161
0.0022238623 -0.0002350607 -0.0022575129
-0.0016579326 -0.0016561104 -0.0032489279
-0.0020724142 -0.0011818615 -0.0042403424
-0.00023531963 0.0022214232 -0.002738205
0.0016579322 0.0016561112 -0.0037596573
0.0011791711 -0.0020776663 -0.0057424894
-0.00024017293 -0.0012593764 -0.01070636
0.00075360708 -0.0017464452 -0.010669526
0.0016579325 -0.0016561104 -0.0077553829
-0.00073351077 -0.0021713455 -0.009257515
0.00024115366 -0.00075277744 -0.00024463469
-0.00023531953 0.0022214237 -0.0072446037
0.00073351059 0.0021713462 -0.009257515
-0.00023531957 0.0022214234 -0.0097682197
0.00023531949 0.0022214241 -0.0092574935
0.0016579323 -0.0016561109 -0.0017467826
0.0020724148 -0.0011818617 -0.002257511
-0.0016579321 0.001656111 -0.0087467637
-0.00023531962 0.0022214234 -0.010248955
-0.00073351065 0.0021713451 -0.0067639379
-0.0011791711 0.0020776663 -0.0062532211
-0.00073350978 0.0021713451 -0.0087468103
0.0022238661 0.00023506071 -0.0082660997
0.0021737325 0.00073270395 -0.0077553345
0.00073351053 0.0021713446 -0.0072446112
0.0021737334 0.00073270383 -0.0032489281
0.0020724153 0.0011818613 -0.0032489253
0.00073351018 0.0021713455 -0.0077553326
0.0016579324 0.0016561111 -0.0057424968
0.0016531091 0.0016512941 -0.00035038637
0.0011791714 0.0020776663 -0.0017467805
0.0021439109 0.00072868925 -0.00078018196
0.0002353193 0.0022214239 -0.0062532341
-0.0022238658 0.00023506071 -0.0082660895
0.0022238658 -0.00023506074 -0.0032489283
-0.0021737311 -0.00073270389 -0.0042403499
-0.0021737316 -0.00073270395 -0.002257514
-0.0016579326 -0.0016561106 -0.0057424875
0.0016579328 -0.0016561105 -0.0072446233
0.00024115382 -0.001264666 -0.00024463516
0.00073351013 0.0021713448 -0.0087468103
0.00023531943 0.0022214237 -0.0087467991
-0.00073351077 0.0021713453 -0.0082660988
0.00073351071 0.0021713453 -0.006763937
0.0020724151 0.0011818619 -0.002257511
0.0020724148 0.001181862 -0.0027381973
0.0020724151 0.0011818617 -0.0057424903
0.0020628418 0.0011556164 -0.00082844216
0.0017444168 0.0012613008 -0.00036211917
0.0016579328 -0.001656111 -0.0022575106
-0.0011791713 0.0020776663 -0.0067639416
0.0020724144 0.0011818615 -0.0012360509
-0.0007335103 0.0021713453 -0.0097682374
