# .PCD v0.7 - Point Cloud Data file format
VERSION 0.7
FIELDS x y z
SIZE 4 4 4
TYPE F F F
COUNT 1 1 1
WIDTH 1189
HEIGHT 1
VIEWPOINT 0 0 0 1 0 0 0
POINTS 1189
DATA ascii
-0.0022824041 0.004163574 -0.026769228
-0.0040487857 0.0026836309 -0.014798535
-0.0040487857 0.0026836309 -0.016688645
-0.0036121516 0.0031966779 -0.013695972
-0.0040487857 0.0026836309 -0.014247254
-0.0040487857 0.0026836309 -0.017791208
-0.0036121514 0.0031966777 -0.017239926
-0.0045251134 0.0018153973 -0.017791208
-0.0041621975 0.002266428 -0.018263733
-0.0045251134 0.0018153973 -0.018263739
-0.0046045007 0.0012628849 -0.018263735
-0.0045251134 0.0018153973 -0.018736266
-0.0040487857 0.0026836309 -0.019208791
-0.0041621975 0.002266428 -0.019208789
-0.0041621975 0.002266428 -0.018736267
-0.0036121516 0.0031966779 -0.0097582433
-0.0036121516 0.0031966779 -0.0092857163
-0.0040487857 0.0026836309 -0.0092857154
-0.0036121516 0.0031966779 -0.0088131875
-0.0032152117 0.0035913293 -0.031258244
-0.0026991905 0.0040254463 -0.031809524
-0.0026991905 0.0040254463 -0.03125824
-0.0015083711 0.0046568885 -0.030706961
-0.0026991905 0.0040254463 -0.030706961
-0.0026991905 0.0040254463 -0.029761903
-0.0046838899 0.00071037287 -0.018263733
-0.0046838885 0.00023679102 -0.019208789
-0.0046838885 0.00023679101 -0.018736267
-0.0046045007 0.0012628851 -0.017239925
-0.0046838876 0.00071037299 -0.019760072
0.0032152117 0.0035913293 -0.03125824
0.0026991905 0.0040254463 -0.03125824
0.0032152117 0.0035913296 -0.030706961
0.0040487857 0.0026836309 -0.03724359
0.0040487857 0.0026836309 -0.037794873
0.0045251134 0.0018153973 -0.03724359
0.0036121516 0.0031966779 -0.034802198
0.0026991905 0.0040254463 -0.030706961
0.0032152117 0.0035913296 -0.02330403
0.0032152117 0.0035913296 -0.024249082
0.0022824039 0.0041635744 -0.023304025
0.0022824036 0.004163574 -0.022752753
0.0026991905 0.0040254463 -0.022752749
0.0026727275 0.0040254463 -0.00067521445
0.0040487857 0.0026836309 -0.0017252751
0.0045251134 0.0018153975 -0.0021978021
0.0032152117 0.0035913296 -0.0051904768
0.0036121516 0.0031966779 -0.0042454228
0.0032152117 0.0035913296 -0.0047179498
0.0032152117 0.0035913296 -0.0042454228
0.0026991905 0.0040254463 -0.018263737
0.0026991905 0.0040254463 -0.011805862
0.0022824039 0.0041635744 -0.011254582
0.0026991905 0.0040254463 -0.01125458
0.0011511253 0.0046963543 -0.020783881
0.00071449147 0.0047358195 -0.021728938
0.0022824039 0.0041635744 -0.019760076
0.0011511253 0.0046963538 -0.014798537
0.0011511253 0.0046963538 -0.014247254
0.0036121516 0.0031966779 -0.016688645
0.0040487857 0.0026836309 -0.016688645
0.0036121516 0.0031966779 -0.018736264
0.0040487857 0.0026836309 -0.018736264
0.0040487857 0.0026836309 -0.019208791
0.001508371 0.0046568885 -0.010703297
0.0015083711 0.0046568885 -0.01125458
0.0015083711 0.0046568885 -0.01023077
0.0015083711 0.0046568885 -0.0097582424
0.0011511254 0.0046963543 -0.0097582415
0.0011511253 0.0046963538 -0.01023077
0.0011511253 0.0046963538 -0.010703299
0.0032152117 0.0035913296 -0.0017252751
0.00023816378 0.0047358195 -0.0047179498
-0.00023816389 0.0047358195 -0.0042454228
-0.0022824041 0.0041635744 -0.026296705
-0.0026991905 0.0040254463 -0.026296703
0.0011511253 0.0046963538 -0.017239928
0.00071449165 0.0047358195 -0.017239925
0.0011511253 0.0046963543 -0.016688645
0.0015083711 0.0046568885 -0.018263737
0.0022824041 0.004163574 -0.018263733
0.0011511253 0.0046963538 -0.01779121
0.0015083711 0.0046568885 -0.017239926
0.0015083711 0.0046568885 -0.015743589
0.0015083711 0.0046568885 -0.016688645
0.00071449165 0.0047358195 -0.012750918
-0.00023816383 0.0047358195 -0.014798535
0.0040487857 0.0026836309 -0.028186813
0.0040487857 0.0026836309 -0.028738096
0.0022824041 0.004163574 -0.029289383
0.0026991905 0.0040254463 -0.02928938
0.0032152117 0.0035913296 -0.030234434
0.0026991905 0.0040254463 -0.029761907
0.0032152117 0.0035913291 -0.029761907
0.0036121516 0.0031966774 -0.030234434
0.0032152117 0.0035913291 -0.025194138
0.0046045003 0.0012628851 -0.010703297
0.0046045003 0.0012628848 -0.011254579
0.0045251134 0.0018153973 -0.01125458
0.0045251134 0.0018153973 -0.010703297
0.0046838885 0.00023679098 -0.035274725
0.004683889 -0.00023679098 -0.034802202
0.0046838885 0.00023679098 -0.034802198
0.0046838885 0.00071037299 -0.034802202
0.004683889 -0.00023679105 -0.036692303
0.004683889 -0.00071037299 -0.036219787
0.0032152117 0.0035913296 -0.026769228
0.0046838899 -0.00071037293 -0.014798535
0.0046838899 0.00023679106 -0.013695972
0.004683889 0.00023679103 -0.015743587
0.0046045007 0.0012628849 -0.014798533
0.004683889 0.00023679101 -0.028186813
0.0046838885 0.00023679093 -0.027714286
0.0046838885 -0.00023679102 -0.02771429
0.0032152117 -0.0035913293 -0.022752747
0.0032152117 -0.0035913298 -0.022201464
0.0036121514 -0.0031966777 -0.022752745
0.0046838899 0.00023679095 -0.030706964
0.004683889 -0.00023679095 -0.030706961
0.0046838885 -0.00023679096 -0.031258244
0.0046838899 -0.00023679096 -0.031809527
0.004683889 -0.00023679102 -0.013695974
0.004683889 -0.00023679103 -0.013223441
0.0045251134 -0.0018153973 -0.019760076
0.0040487857 -0.0026836309 -0.020311356
0.0040487857 -0.0026836309 -0.019760072
0.0040487857 -0.0026836309 -0.019208791
0.004683889 0.00023679099 -0.022201465
0.004683889 -0.00023679095 -0.022201465
0.0046838885 0.00023679106 -0.02172894
0.004683889 -0.00023679102 -0.023776557
0.004683889 0.00071037287 -0.023776557
0.004683889 0.00071037293 -0.020783879
0.0046045012 0.0012628851 -0.019208791
0.003175518 0.0026047004 -0.039527472
0.0036783086 0.0017890871 -0.039527472
0.0011908192 0.0027428288 -0.039596383
-0.00071449153 0.0027625612 -0.039606228
-0.00023816385 0.0018153972 -0.039684985
-0.00023816383 0.0022889795 -0.039606228
0.0002381638 0.0022889795 -0.039606228
0.0040487857 0.0026836309 -0.019760074
0.0045251134 0.0018153973 -0.020311356
0.0040487857 0.0026836309 -0.020783884
0.0046045007 0.0012628852 -0.013695972
0.0045251134 0.0018153973 -0.013223443
0.0045251134 0.0018153973 -0.013695972
0.0046045007 0.0012628852 -0.013223443
0.0046838876 0.00023679101 -0.011254581
0.0046838885 -0.00023679095 -0.01125458
0.0046838885 0.00023679098 -0.011805862
0.0046838885 0.00071037293 -0.011254581
0.0036121516 -0.0031966779 -0.016688645
0.0036121514 -0.0031966779 -0.017239928
0.0032152117 -0.0035913291 -0.017239925
-0.0011511253 -0.0046963543 -0.0042454228
0.0037312333 -0.0022889795 -0.00038644671
0.0045251134 -0.0018153973 -0.0057417592
0.0045251134 -0.0018153973 -0.0051904768
0.004162197 -0.002266428 -0.0057417573
0.0040487857 -0.0026836309 -0.0057417592
0.0036121516 -0.0031966779 -0.016216118
0.0040487857 -0.0026836309 -0.015743589
0.0036121516 -0.0031966779 -0.015271062
0.0036121516 -0.0031966774 -0.015743589
0.0036121514 -0.0031966777 -0.019760076
0.0036121516 -0.0031966779 -0.020311356
0.0032152117 -0.0035913293 -0.019760074
0.0036121516 -0.0031966779 -0.019208791
-0.0017244823 0.0012497299 -0.039632484
-0.001746535 0.0018153973 -0.039606232
-0.0040487857 0.0026836309 -0.0042454209
-0.0036121516 0.0031966779 -0.0051904768
-0.0036121516 0.0031966779 -0.0047179498
-0.0036121516 0.0031966779 -0.0017252751
-0.0040487857 0.0026836307 -0.0014102571
-0.0035989208 0.0031572124 -0.0013315026
-0.0036157602 -0.0031787388 -0.039198134
-0.0032487994 -0.0032300712 -0.039206393
-0.0032152117 -0.0035913296 -0.038739923
-0.0023022506 -0.0032361429 -0.039527472
-0.0030961302 -0.0026047004 -0.039527472
-0.0036121516 -0.0031966779 -0.038739923
-0.0036121516 -0.0031966774 -0.0382674
-0.0040487857 -0.0026836309 -0.0382674
-0.004162197 0.002266428 -0.038739931
-0.0032549056 -0.0027625612 -0.00038644671
-0.0023022508 -0.0037097249 -0.00038644671
-0.0017465347 -0.0037097251 -0.00038644671
0.00023816385 0.0022889795 -0.00030769221
0.00071449165 0.0018153975 -0.00030769221
0.00071449159 0.0022889795 -0.00030769221
0.00023816379 0.002762561 -0.00030769221
-0.002281541 -0.0041558524 -0.0392056
-0.0015083711 -0.0046568885 -0.039133698
-0.0046045007 0.0012628851 -0.035274725
-0.0046045007 0.0012628852 -0.034802206
-0.004683889 0.00071037299 -0.035274722
-0.0046838885 0.00071037293 -0.035747249
-0.0046711876 -0.00023047664 -0.039199848
-0.0032152117 -0.0035913291 -0.0057417583
-0.0032152117 -0.0035913291 -0.0062930407
-0.0032152117 -0.0035913296 -0.0051904768
-0.0036121516 -0.0031966779 -0.0062930407
-0.0036121514 -0.0031966777 -0.0057417592
-0.0040487857 -0.0026836309 -0.0062930407
-0.0040487857 -0.0026836309 -0.0057417592
-0.0045251134 -0.0018153973 -0.0057417583
-0.0045251134 -0.0018153973 -0.0062930407
-0.004636256 0.00022889799 -0.0012842491
-0.0046838885 -0.00023679096 -0.0017252751
-0.004683889 0.00023679102 -0.0017252751
-0.0046838894 0.0002367909 -0.00038644671
-0.004683889 0.00071037293 -0.0017252751
-0.0046309638 0.00071037281 -0.0013052505
-0.0022824041 -0.0041635744 -0.0062930416
-0.0040487857 -0.0026836309 -0.0017252751
-0.0036121516 -0.0031966779 -0.0017252751
-0.0045251134 -0.0018153973 -0.0017252751
-0.0045251134 -0.0018153973 -0.0077106236
-0.0041621975 -0.002266428 -0.0072380947
-0.004162197 -0.002266428 -0.0077106245
-0.0040487857 -0.0026836309 -0.0077106236
-0.0045251134 -0.0018153973 -0.0072380956
-0.0045251134 -0.0018153972 -0.01125458
-0.0040487857 -0.0026836309 -0.011805862
-0.0040487857 -0.0026836309 -0.01125458
-0.0045251134 -0.0018153973 -0.010703298
-0.0045251134 -0.0018153974 -0.0082619051
-0.0045251134 -0.0018153973 -0.0088131875
0.00023816385 -0.00023679096 -0.039763734
-0.00023816382 -0.00023679098 -0.039763737
-0.00023816383 -0.00069602201 -0.039742257
0.0045972834 -0.0012485341 -0.039198134
0.0042075613 -0.0018153971 -0.03921245
0.0046045003 -0.0012628851 -0.038739935
0.0036359683 -0.0017838251 -0.039527472
0.0036994785 -0.001231313 -0.039527472
0.0022757878 -0.0022626691 -0.039566852
0.0027785783 -0.0022889792 -0.039527472
0.0027497101 -0.0018010463 -0.039556112
0.0045251134 0.0018153973 -0.033227105
0.0046045007 0.0012628851 -0.033227108
0.0041621975 0.0022664282 -0.033227105
0.0037312333 -0.0027625614 -0.03921245
0.0036157602 -0.003178739 -0.039198134
0.0036121516 -0.0031966779 -0.038739923
0.0031971692 -0.003594917 -0.039198138
0.0032152117 -0.0035913296 -0.038739923
0.0011908192 -0.0027428286 -0.039596386
0.0011114313 -0.0040254463 -0.039527472
0.0026833129 -0.0040254463 -0.039180949
0.0027785783 -0.0037097251 -0.039212447
0.0027785785 -0.00023679102 -0.039606228
0.0037312338 -0.00023679093 -0.039527472
0.0040487857 0.0026836309 -0.0033003669
0.0036121516 0.0031966779 -0.0033003669
0.0036121516 0.0031966779 -0.0037728939
0.0040487857 0.0026836309 -0.0037728939
0.0032152117 0.0035913298 -0.0037728939
0.0026991905 0.0040254463 -0.0062930407
0.0036121516 0.0031966779 -0.0051904768
0.004683889 0.00071037293 -0.036692303
0.0046045007 0.0012628849 -0.036219779
0.0046838885 0.00071037287 -0.036219779
0.0015083711 0.0046568885 -0.0017252751
0.00071449147 0.0047358195 -0.0033003669
0.0011511253 0.0046963543 -0.0062930407
0.0007144917 0.0047358195 -0.0062930407
0.00071449165 0.0047358195 -0.0047179498
-0.00023816389 0.0047358195 -0.0021978021
0.00071449159 0.0042622369 -0.00038644671
0.00071449159 0.0047095087 -0.00041269884
0.0011378939 0.0046831989 -0.00067521445
0.001137894 0.0046831989 -0.0013577547
0.00069861393 0.0047042468 -0.0013315026
-0.00023816386 0.0047358195 -0.0037728939
-0.0007144917 0.0047358195 -0.0037728939
-0.00023816382 0.0047358195 -0.0033003669
0.00071449165 0.0047358195 -0.014247254
0.00071449165 -0.0032361429 -0.00030769221
0.0011847123 -0.0032300714 -0.0003137514
0.0011908191 -0.002762561 -0.00030769221
0.0023022506 -0.0032361427 -0.00038644671
0.0027785783 -0.0032361432 -0.00038644671
0.0022890198 -0.002749406 -0.00032738224
0.0017359494 -0.004246451 -0.00039169751
0.001137894 -0.0046831989 -0.00041269884
0.0015083711 -0.0046568885 -0.00046520121
0.0017465347 -0.0037097253 -0.00038644671
0.0032152117 -0.0035913298 -0.011805862
0.0026991905 -0.0040254463 -0.011805862
0.0032152117 -0.0035913296 -0.012278387
0.0026991905 -0.0040254463 -0.012278389
0.0015083711 -0.0046568885 -0.012750916
0.0026991905 -0.0040254463 -0.012750916
0.0022824041 -0.004163574 -0.012750918
0.0015083711 -0.0046568885 -0.012278389
0.00071449159 -0.0047358195 -0.0021978021
0.0011511253 -0.0046963543 -0.0017252751
0.00071449159 -0.0047358195 -0.0027490854
0.0011511252 -0.0046963538 -0.0021978021
0.0026991905 -0.0040254463 -0.02928938
0.0026991905 -0.0040254463 -0.030234434
0.0015083711 -0.0046568885 -0.029761907
0.0026991905 -0.0040254463 -0.030706964
0.0011511253 -0.0046963538 -0.027714286
0.0015083711 -0.0046568885 -0.020783883
0.0015083711 -0.0046568885 -0.022201465
0.0011511253 -0.0046963543 -0.021256411
0.0015083711 -0.0046568885 -0.019760074
0.0026991905 -0.0040254463 -0.020783884
0.0015083711 -0.0046568885 -0.021728938
0.0011511253 -0.0046963543 -0.022201464
0.0026991905 -0.0040254463 -0.038739931
0.0026991905 -0.0040254463 -0.0382674
0.0032152117 -0.0035913296 -0.037794869
0.0032152117 -0.0035913296 -0.030234434
0.0032152117 -0.0035913296 -0.02976191
-0.0026991905 0.0040254463 -0.014247254
-0.0026991905 0.0040254463 -0.014798537
-0.0022824041 0.0041635749 -0.014798537
-0.0026991905 0.0040254463 -0.015271064
-0.0015083711 0.0046568885 -0.01369597
-0.0032152117 0.0035913296 -0.0088131875
-0.0026991905 0.0040254463 -0.0092857154
-0.0026991905 0.0040254463 -0.0088131875
-0.0026991905 0.0040254463 -0.008261906
0.00023816382 0.0047358195 -0.037794873
-0.0011619509 0.0046855905 -0.039198134
0.0015083711 0.0046568885 -0.0057417592
0.0015083711 0.0046568885 -0.0062930407
0.0022824041 0.0041635744 -0.0062930416
0.0015083711 0.0046568885 -0.0051904768
0.0011511252 0.0046963538 -0.0051904768
0.0026991905 0.0040254463 -0.0047179498
0.0026991905 0.0040254463 -0.0033003669
0.0022824039 0.004163574 -0.0033003669
0.0037312333 0.0018153973 -0.00038644671
0.0032344188 0.0012552463 -0.00033309683
0.0036042132 0.0031098544 -0.0007172171
0.0032549056 0.0032361429 -0.00038644671
0.0046838881 -0.00071037299 -0.037794869
0.0046045003 -0.0012628851 -0.037794869
0.0046044998 -0.0012628849 -0.03724359
0.0046838885 -0.00071037305 -0.032754578
0.004683889 -0.00071037316 -0.032282047
0.0046045012 -0.0012628849 -0.032754574
0.004683889 -0.00071037299 -0.033227108
0.0045251134 -0.0018153973 -0.032754578
0.004683889 -0.00023679103 -0.032754574
0.0046838899 0.00071037287 -0.033227105
0.004683889 -0.00071037299 -0.0017252751
0.004683889 -0.00023679105 -0.0017252751
0.0046460847 -0.00022175669 -0.00075021945
0.0042075613 -0.0012628851 -0.00038644671
0.0037312333 -0.00071037299 -0.00038644671
0.0046309638 -0.00071037299 -0.00072771683
0.0046309638 -0.00071037293 -0.0013052505
0.0007144917 0.0027625607 -0.00030769221
0.0011908188 0.002762561 -0.00030769221
0.0007144917 0.0032361429 -0.00030769221
0.0011908191 0.0022889795 -0.00030769221
0.0011908191 0.0018153974 -0.00030769221
0.0023929796 0.00010148186 0.00079487078
0.0017465348 0.0012628849 -0.00030769221
0.0017465347 0.00071037299 -0.00030769221
0.0023022511 0.0012628851 -0.00030769221
0.0011908191 -0.0007103731 -0.00030769221
0.00071449176 -0.0012628851 -0.00030769221
0.0011908191 -0.0012628849 -0.00030769221
0.0027785781 0.0012628851 -0.00030769221
0.0023022508 0.0018153973 -0.00030769221
0.0026198023 7.8930316e-05 0.00079487078
0.0026198023 7.8930345e-05 0.0012673996
0.0032549056 0.002762561 -0.00038644671
0.0032549065 0.00071037305 -0.00030769221
0.0026198023 -7.8930258e-05 0.0012673996
0.0026198023 7.8930258e-05 0.0017399266
0.0026198023 -7.8930258e-05 0.0017399266
0.0046521337 -0.00023679095 -0.0004021991
0.0032549063 -0.00071037299 -0.00030769221
0.0017465347 -0.00071037299 -0.00030769221
0.0017465352 -0.0012628848 -0.00030769221
0.0023816386 -7.8930345e-05 0.00079487078
0.0017465343 -0.00023679099 -0.00030769221
-0.0022824039 -0.0041635744 -0.0042454209
-0.0046045003 -0.0012628852 -0.0047179498
-0.0046045007 -0.0012628848 -0.0051904758
-0.004683889 -0.00071037293 -0.0047179498
-0.004683889 -0.00071037293 -0.0051904758
0.0011511253 0.0046963543 -0.0067655677
0.00071449159 0.0047358195 -0.0067655686
0.00071449159 0.0047358195 -0.0072380966
-0.0032549056 0.0012628851 -0.039527472
-0.0032549058 0.0018153973 -0.039527472
-0.0027497101 0.0018010463 -0.039556112
-0.0011511252 0.0046963543 -0.03724359
-0.001137894 0.0046831989 -0.00041269884
-0.00071449159 0.0047095087 -0.00041269884
-0.00071449165 0.0042622373 -0.00038644671
-0.001190819 0.0042622369 -0.00038644671
-0.00023816378 0.00023679108 -0.039763726
-0.0007000576 0.00023679103 -0.039742261
-0.00070005766 -0.00023679101 -0.039742257
-0.0017248833 0.00071037299 -0.039670661
-0.0046045007 0.0012628849 -0.01369597
-0.0045251134 0.0018153973 -0.014247254
-0.0032152117 0.0035913296 -0.011805862
-0.0036121514 0.0031966777 -0.01125458
-0.0032152117 0.0035913291 -0.01125458
-0.0045251134 0.0018153973 -0.014798535
-0.0046838899 -0.00071037293 -0.0097582405
-0.0045251134 -0.0018153973 -0.0097582415
-0.0045251134 -0.0018153973 -0.010230769
-0.0046045012 -0.0012628849 -0.01023077
-0.004683889 -0.00071037305 -0.0017252751
-0.004683889 -0.00071037293 -0.013695972
-0.0046045003 -0.0012628852 -0.013695974
-0.0046838881 -0.0007103731 -0.014247254
-0.0046045003 0.0012628851 -0.0072380947
-0.0046838885 0.00071037281 -0.0072380947
-0.0045251134 0.0018153973 -0.0092857154
-0.0045251134 0.0018153972 -0.010703298
-0.0045251134 0.0018153974 -0.008261906
-0.0045251134 0.0018153973 -0.0088131875
-0.0032152117 -0.0035913298 -0.037794877
-0.0026991905 -0.0040254463 -0.035274725
-0.0026991905 -0.0040254463 -0.035747252
-0.0032152117 -0.0035913296 -0.035747256
-0.0040487857 -0.0026836309 -0.037794873
-0.0040487857 -0.0026836309 -0.036692306
-0.004683889 0.00023679105 -0.013223441
-0.0046838885 0.00023679095 -0.013695974
-0.0040487857 -0.0026836309 -0.0027490854
-0.0041621975 -0.002266428 -0.0027490836
-0.0024213325 7.8930301e-05 0.0026849806
-0.002397516 -0.00014207451 0.002700733
-0.0026198023 -7.8930323e-05 0.0026849806
-0.0026198025 7.8930316e-05 0.0026062261
-0.0027785783 0.002762561 -0.00038644671
-0.0022890198 0.0027494058 -0.00032738224
-0.0027785785 0.0032361429 -0.00038644671
-0.0032549056 0.002762561 -0.00038644671
-0.0045251134 0.0018153973 -0.00046520121
-0.0042075617 0.0018153973 -0.00038644671
-0.00459316 0.0012403335 -0.00039769895
-0.0036042132 0.0031729985 -0.00043370016
-0.0041414052 0.0022626694 -0.00039957277
-0.0046640416 0.00071037281 -0.039192762
-0.00071449188 0.0012628849 -0.00030769221
-0.00071449165 0.00071037299 -0.00030769221
-0.0011908191 0.00071037287 -0.00030769221
-0.0011908191 0.0012628849 -0.00030769221
-0.00023816389 0.0018153974 -0.00030769221
-0.0011908191 0.002762561 -0.00030769221
-0.0011908191 0.0022889795 -0.00030769221
-0.0040487857 0.0026836309 -0.03125824
-0.0040487857 0.0026836309 -0.030706957
-0.0036121516 0.0031966779 -0.030234434
-0.0045251134 0.0018153973 -0.032282051
-0.0032152117 0.0035913296 -0.0092857154
-0.0045251134 0.0018153974 -0.025745422
-0.0040487857 0.0026836309 -0.026296703
-0.0041621975 0.0022664282 -0.026296703
-0.0045251134 0.0018153973 -0.026296705
-0.0036121516 0.0031966779 -0.019208791
-0.0022824041 0.004163574 -0.025194138
-0.0015083711 0.0046568885 -0.025194138
-0.0015083711 0.0046568885 -0.024249084
-0.0011511253 0.0046963543 -0.024249086
-0.0022824041 0.0041635744 -0.024249082
-0.0022824041 0.004163574 -0.024721613
-0.0011511253 0.0046963543 -0.018736264
-0.0011511253 0.0046963538 -0.018263737
-0.0011511253 0.0046963538 -0.01779121
-0.0007144917 0.0047358195 -0.01779121
0.0046045007 0.0012628851 -0.022201465
0.0040487857 -0.0026836309 -0.028186813
0.004162197 -0.002266428 -0.028738093
0.0026991905 -0.0040254463 -0.029761907
0.0026991905 -0.0040254463 -0.022201465
0.0026991905 -0.0040254463 -0.022752749
0.0015083711 -0.0046568885 -0.023304028
0.0032152117 -0.0035913296 -0.023304028
0.0046838885 0.00071037299 -0.016688645
0.0042075617 0.00023679098 -0.00038644671
0.0037312333 0.00023679089 -0.00038644671
0.0041621975 0.002266428 -0.0021978021
0.004683889 0.00071037299 -0.013695972
0.0041621975 0.002266428 -0.0037728939
0.0041621975 0.002266428 -0.0033003669
0.0046838899 0.00071037299 -0.0382674
0.0046838899 0.00071037305 -0.033699628
0.004683889 -0.00023679102 -0.033699635
0.004683889 0.00023679102 -0.033699632
0.0046838885 -0.00023679105 -0.034250919
0.004162197 0.0022664277 -0.034802202
0.0040487857 0.0026836309 -0.034802198
0.0040487857 0.0026836309 -0.03125824
0.0045251134 0.0018153975 -0.031809524
0.0040487857 0.0026836309 -0.031809524
0.0040487857 0.0026836309 -0.032282054
0.0040487857 0.0026836309 -0.032754574
0.0036121516 0.0031966781 -0.032754574
0.0045251134 0.0018153973 -0.030706961
0.0040487857 0.0026836309 -0.030234434
0.0040487857 0.0026836309 -0.030706961
0.0045251134 0.0018153973 -0.023304028
0.0045251134 0.0018153973 -0.023776557
0.0045251134 0.0018153973 -0.024249084
0.0040487857 0.0026836309 -0.02125641
0.0040487857 0.0026836309 -0.021728938
0.0041621975 0.002266428 -0.032754574
0.0046838885 0.00071037293 -0.02928938
0.0046045007 0.0012628852 -0.023304028
0.0040487857 0.0026836309 -0.02676923
0.004162197 0.002266428 -0.026769226
0.0041621975 0.0022664282 -0.026296707
0.0040487857 0.0026836309 -0.024721609
0.0046838885 0.00071037305 -0.025194142
0.0046117175 0.0012557094 -0.02575258
0.0046838881 0.00071037293 -0.025745424
0.0046838885 0.00071037293 -0.024721611
0.0046838881 0.00023679105 -0.025745418
0.004683889 0.00023679105 -0.025194142
0.0045251134 0.0018153972 -0.026296703
0.0045251134 0.0018153973 -0.02574542
0.0045251134 0.0018153973 -0.029761903
0.0045251134 0.0018153973 -0.031258244
0.0046045003 0.0012628851 -0.032754574
0.0046045007 0.0012628849 -0.032282051
0.0046838885 0.00071037287 -0.032754574
0.004683889 0.00071037299 -0.035747252
0.0046838885 0.00023679092 -0.036219779
0.0046838885 0.00023679096 -0.035747256
0.0046838885 0.00071037299 -0.035274725
0.0046045012 0.0012628852 -0.028186813
0.0046045003 0.0012628851 -0.028738089
0.0045251134 0.0018153973 -0.028186813
0.0046838885 0.0007103731 -0.030234434
0.004683889 0.00071037299 -0.030706964
0.0046045003 0.0012628852 -0.030234434
-0.004683889 0.00023679106 -0.021256413
-0.004683889 0.00023679096 -0.02172894
-0.004683889 -0.00023679099 -0.022201465
-0.0046838885 0.00023679102 -0.022201465
-0.004683889 -0.00023679095 -0.02172894
-0.0045251134 -0.0018153973 -0.017791208
-0.0045251134 -0.0018153973 -0.018263737
-0.0040487857 -0.0026836309 -0.01779121
-0.004162197 -0.002266428 -0.018263733
-0.0045251134 0.0018153973 -0.020783883
-0.0046044998 0.0012628849 -0.019760074
0.004683889 -0.00071037281 -0.011805862
0.0046838881 -0.00023679095 -0.011805862
0.0046838885 -0.00071037316 -0.013223441
0.004683889 -0.00071037305 -0.012278387
-0.0032152117 -0.0035913291 -0.0067655677
-0.0026991905 -0.0040254463 -0.0067655677
-0.0036121516 -0.0031966779 -0.0067655686
-0.0015083712 -0.0046568885 -0.0067655686
0.0002381638 -0.0047358195 -0.012278389
-0.00071449159 -0.0047358195 -0.011805861
0.00023816386 -0.0047358195 -0.013223441
-0.00023816386 -0.0047358195 -0.012750918
-0.00071449153 -0.0047358195 -0.01369597
-0.00071449159 -0.0047358195 -0.013223441
-0.0002381638 -0.0047358195 -0.013223443
-0.00071449159 -0.0047358195 -0.0027490836
-0.00023816383 -0.0047358195 -0.0027490836
-0.00071449147 -0.0047358195 -0.0033003669
0.0026991905 -0.0040254463 -0.013223443
0.0015083711 -0.0046568885 -0.01369597
0.0026991905 -0.0040254463 -0.0027490854
0.0022824041 -0.0041635744 -0.0021978021
0.0026991905 -0.0040254463 -0.0021978021
0.0015083711 -0.0046568885 -0.0027490854
0.0032152117 -0.0035913296 -0.018263737
0.0026991905 -0.0040254463 -0.017239926
0.0026991905 -0.0040254463 -0.017791208
0.0040487857 -0.0026836309 -0.017239926
0.0040487857 -0.0026836309 -0.017791208
-0.0026991905 0.0040254463 -0.033227105
-0.0015083711 0.0046568885 -0.033699635
-0.0015083712 0.0046568885 -0.033227105
-0.0015083711 0.0046568885 -0.032754574
-0.0032152117 0.0035913296 -0.030706961
-0.0026991905 0.0040254463 -0.030234434
-0.0036121516 0.0031966779 -0.035274722
-0.0040487857 0.0026836309 -0.035747252
-0.0036121516 0.0031966774 -0.037794877
-0.0036121514 0.0031966777 -0.037243586
-0.0026991905 0.0040254463 -0.036692306
-0.0022824039 0.004163574 -0.03724359
-0.0026991905 0.0040254463 -0.03724359
-0.0015083711 0.0046568885 -0.036692306
-0.0026991905 0.0040254463 -0.035747256
-0.0032152117 0.0035913291 -0.037243593
-0.0026991905 0.0040254463 -0.037794873
0.00071449153 0.0047358195 -0.018736266
0.00071449147 0.0047358195 -0.018263735
0.00023816388 0.0047358195 -0.017791208
-0.00023816396 0.0047358195 -0.017239926
-0.00023816394 0.0047358195 -0.018736266
-0.00023816382 0.0047358195 -0.018263735
0.00071449153 0.0047358195 -0.015743589
-0.0036121516 0.0031966774 -0.016688645
-0.0032152117 0.0035913291 -0.016216116
-0.0036121516 0.0031966779 -0.012278387
-0.0036121516 0.0031966779 -0.016216116
-0.0032152117 0.0035913296 -0.015743589
-0.0032152117 0.0035913296 -0.0051904768
-0.0032152117 0.0035913296 -0.0047179498
-0.0015083711 0.0046568885 -0.0057417592
-0.0032152117 0.0035913291 -0.01779121
-0.0026991905 0.0040254463 -0.01779121
-0.0022824041 0.0041635744 -0.01779121
-0.0026991905 0.0040254463 -0.016688645
-0.0022824041 0.0041635744 -0.016688645
-0.0022824039 0.0041635744 -0.017239925
0.00071449165 0.0047358195 -0.0088131875
0.0011511251 0.0046963538 -0.0092857154
0.0011511253 0.0046963538 -0.0088131865
0.0015083711 0.0046568885 -0.0088131875
0.0026991905 0.0040254463 -0.0072380956
0.0022824041 0.004163574 -0.0077106226
0.0022824041 0.0041635744 -0.0072380947
0.0032152117 0.0035913289 -0.0057417583
0.0040487857 0.0026836309 -0.0097582424
0.0041621975 0.002266428 -0.0092857163
0.0045251134 0.0018153973 -0.0097582424
0.0045251134 0.0018153973 -0.0092857154
0.004162197 0.002266428 -0.017239923
0.0045251134 0.0018153973 -0.0047179498
0.0040487857 0.0026836309 -0.0051904768
0.0045251134 0.0018153973 -0.0057417592
0.0045251134 0.0018153973 -0.016688645
0.0045251134 0.0018153973 -0.018263737
0.0046045012 0.0012628852 -0.018263733
0.0045251134 0.0018153973 -0.018736264
-0.0041621975 0.0022664277 -0.01369597
-0.004162197 0.002266428 -0.014247255
-0.004162197 0.0022664277 -0.013223441
0.0007144917 0.0047358195 -0.029761907
0.0011511253 0.0046963538 -0.030234434
0.00023816379 0.0047358195 -0.03023443
-0.0011511253 0.0046963543 -0.028186817
-0.00071449182 0.0047358195 -0.025745422
-0.0015083712 0.0046568885 -0.029761907
-0.0026991905 0.0040254463 -0.02928938
-0.0032152117 0.0035913296 -0.029289383
0.0015083712 0.0046568885 -0.034250915
0.0026991905 0.0040254463 -0.034802198
0.0026991905 0.0040254463 -0.033699632
0.0026991905 0.0040254463 -0.034250915
0.0032152117 0.0035913293 -0.034250915
0.0032152117 0.0035913296 -0.033699632
0.0015083711 0.0046568885 -0.032754574
0.0026991905 0.0040254463 -0.032754574
0.0015083711 0.0046568885 -0.03125824
0.0011511253 0.0046963538 -0.030706964
0.00071449153 0.0047358195 -0.031258237
0.00071449165 0.0047358195 -0.030706964
0.0015083711 0.0046568885 -0.029761907
0.0022824039 0.004163574 -0.028186813
0.0015083711 0.0046568885 -0.023304028
0.001508371 0.0046568885 -0.024249084
0.0011511253 0.0046963543 -0.023304028
0.0011511252 0.0046963538 -0.022752749
-0.00023816388 0.0047358195 -0.026296703
0.00023816386 0.0047358195 -0.026296705
-0.0002381638 0.0047358195 -0.026769226
0.0007144917 0.0047358195 -0.025194138
-0.00023816389 0.0047358195 -0.025745424
0.00023816378 0.0047358195 -0.024721613
0.0007144917 0.0047358195 -0.026296705
0.0002381638 0.0047358195 -0.027241763
0.0022824041 0.004163574 -0.02676923
0.0022824041 0.004163574 -0.027241759
0.0026991905 0.0040254463 -0.027714286
-0.0032152117 0.0035913296 -0.028738096
-0.0022824041 0.0041635744 -0.02771429
-0.0026991905 0.0040254463 -0.027714286
-0.0040487857 0.0026836309 -0.018263737
-0.0045251134 0.0018153973 -0.016688645
-0.0045251134 0.0018153973 -0.017239925
-0.0041621975 0.002266428 -0.01779121
-0.004162197 0.002266428 -0.017239926
-0.0040487857 0.0026836309 -0.017239926
-0.0040487857 0.0026836309 -0.018736264
-0.0046045007 0.0012628849 -0.01779121
-0.0036121516 0.0031966779 -0.020783884
-0.0040487857 0.0026836309 -0.020783884
-0.0036121516 0.0031966779 -0.020311356
-0.0036121516 0.0031966779 -0.018263737
-0.0040487857 0.0026836309 -0.03724359
-0.0040487857 0.0026836309 -0.02928938
-0.0045251134 0.0018153973 -0.029761903
-0.0022824041 0.004163574 -0.030706961
-0.0011511252 0.0046963538 -0.031809524
-0.0015083711 0.0046568885 -0.031809524
-0.0011511252 0.0046963543 -0.03125824
-0.0015083711 0.0046568885 -0.031258244
-0.0022824039 0.0041635744 -0.031258248
-0.0022824041 0.004163574 -0.031809527
-0.0046838885 0.00023679106 -0.018263733
-0.004683889 0.00023679095 -0.017791212
-0.004683889 -0.00023679093 -0.018263731
-0.0032152117 0.0035913291 -0.033699632
-0.0032152117 0.0035913293 -0.034250915
-0.0036121516 0.0031966774 -0.033699632
-0.0032152117 0.0035913296 -0.036219776
-0.0026991905 0.0040254463 -0.036219779
-0.0032152117 0.0035913298 -0.037794873
-0.0026991905 0.0040254463 -0.0382674
-0.0015083711 0.0046568885 -0.034802198
-0.0026991905 0.0040254463 -0.034802198
-0.0026991905 0.0040254463 -0.034250919
-0.0032487994 0.0032300714 -0.039206393
-0.0037251264 0.0027564897 -0.039206389
0.0036121516 0.0031966779 -0.038739923
0.0036121516 0.0031966779 -0.033699635
0.0040487857 0.0026836309 -0.035274725
0.0036121516 0.0031966779 -0.035274725
0.0032152117 0.0035913296 -0.035747256
0.0036121516 0.0031966779 -0.036219779
0.0036121516 0.0031966774 -0.035747256
0.0032152117 0.0035913296 -0.034802198
0.0036121516 0.0031966779 -0.03180952
0.0045251134 0.0018153974 -0.034802198
0.0026991905 0.0040254463 -0.033227101
0.0032152117 0.0035913291 -0.02928938
0.0026991905 0.0040254463 -0.031809524
0.0032152117 0.0035913291 -0.031809524
0.0022824039 0.0041635744 -0.032754578
0.0022824036 0.0041241092 -0.00072115473
0.0026991905 0.0040254463 -0.008261906
0.0032152117 0.0035913296 -0.0088131875
0.0032152117 0.0035913293 -0.0082619051
0.0032152117 0.0035913296 -0.0077106236
0.0022824041 0.004163574 -0.01779121
0.0022824039 0.0041635744 -0.017239921
0.0022824041 0.004163574 -0.018736267
0.0022824041 0.004163574 -0.013223441
0.0022824041 0.0041635744 -0.012750918
0.0026991905 0.0040254463 -0.013223443
0.0040487857 0.0026836309 -0.015271064
0.0007144917 0.0047358195 -0.028738096
-0.00071449153 0.0047358195 -0.025194138
-0.00023816383 0.0047358195 -0.025194138
0.00023816389 0.0047358195 -0.023304027
-0.00071449147 0.0047358195 -0.023776559
-0.00071449165 0.0047358195 -0.02330403
-0.00023816383 0.0047358195 -0.022752745
0.0011511253 0.0046963543 -0.022201464
0.00071449159 0.0047358195 -0.022201464
0.0011511253 0.0046963538 -0.021728938
0.0011511252 0.0046963538 -0.02125641
0.00071449153 0.0047358195 -0.020783881
0.0011511253 0.0046963538 -0.020311356
0.0022824041 0.004163574 -0.020311356
0.0015083711 0.0046568885 -0.014798535
0.0011511254 0.0046963538 -0.015271064
0.0015083711 0.0046568885 -0.016216118
0.0026991905 0.0040254463 -0.012750916
0.0026991905 0.0040254463 -0.012278389
0.0032152117 0.0035913298 -0.011805862
0.0032152117 0.0035913291 -0.012278389
0.0015083711 0.0046568885 -0.012278389
0.0022824041 0.004163574 -0.012278387
0.0022824041 0.0041635744 -0.011805863
0.0022824036 0.004163574 -0.0082619051
0.0015083711 0.0046568885 -0.0077106236
0.0032152117 0.0035913296 -0.022201464
0.0026991905 0.0040254463 -0.020311356
0.0026991905 0.0040254463 -0.019760074
0.0032152117 0.0035913296 -0.013223443
0.0036121516 0.0031966779 -0.01779121
0.0032152117 0.0035913296 -0.01779121
0.0036121516 0.0031966779 -0.0097582424
0.0036121516 0.0031966779 -0.0092857154
0.0040487857 0.0026836309 -0.0092857154
0.0026991905 0.0040254463 -0.038739923
0.0027724716 0.0037036536 -0.039206393
0.0032487994 0.0032300714 -0.039206386
-0.00023816383 0.0047358195 -0.0047179498
-0.00023816388 0.0047358195 -0.0051904768
-0.0026727275 0.0040254463 -0.00067521445
-0.0026727275 0.0040254463 -0.0013577547
-0.001508371 0.0046568885 -0.02771429
0.00023816388 0.0047358195 -0.020783881
-0.0002381638 0.0047358195 -0.019760074
-0.00023816376 0.0047358195 -0.020311356
-0.00071449165 0.0047358195 -0.019760078
0.0011511252 0.0046963538 -0.012278389
0.00071449153 0.0047358195 -0.010703297
0.00071449153 0.0047358195 -0.010230772
0.00071449165 0.0047358195 -0.0097582424
0.0002381638 0.0047358195 -0.010230769
0.00023816378 0.0047358195 -0.0097582424
-0.0011511253 0.0046963538 -0.016688647
-0.0015083711 0.0046568885 -0.0037728939
-0.0015083711 0.0046568885 -0.01023077
-0.0015083711 0.0046568885 -0.0097582424
-0.0022824041 0.0041635744 -0.0097582424
0.0041621975 0.002266428 -0.028186813
0.0041621975 0.002266428 -0.027714286
0.0022824039 0.0041635749 -0.028738089
0.0022824041 0.004163574 -0.022201465
0.0036121516 0.0031966779 -0.01023077
0.0040487857 0.0026836309 -0.01023077
0.0040487857 0.0026836309 -0.010703297
0.0032152117 0.0035913296 -0.010230771
0.0032152117 0.0035913296 -0.010703297
0.0046838885 -0.00023679102 -0.035274722
0.0045251134 -0.0018153974 -0.035274725
0.0046045012 -0.0012628851 -0.035274718
0.0046045007 -0.0012628849 -0.035747249
0.0032152117 0.0035913296 -0.027241761
0.0041621975 -0.002266428 -0.0088131875
0.0040487857 -0.0026836309 -0.0092857154
0.0041621975 -0.0022664277 -0.0092857163
0.0046838885 0.00071037305 -0.015743587
0.004683889 0.00071037293 -0.016216122
0.0046045003 0.0012628848 -0.014247254
0.0046838885 0.00023679095 -0.015271064
0.0046838885 0.00071037305 -0.028186817
0.004683889 0.00071037299 -0.027241757
0.0046838885 -0.00023679098 -0.028186813
0.004683889 -0.00023679106 -0.021256411
0.004683889 0.00023679105 -0.020311356
0.0046045003 -0.0012628851 -0.026296703
0.0045251134 -0.0018153973 -0.026296703
0.0045251134 -0.0018153973 -0.025745422
0.0046045003 -0.0012628849 -0.02574542
0.0041621975 -0.002266428 -0.020783881
0.0045251134 -0.0018153973 -0.020783883
0.0045251134 -0.0018153973 -0.020311356
0.0046838881 0.00071037299 -0.017239926
0.004683889 -0.00071037293 -0.030706964
0.0045251134 -0.0018153973 -0.030706961
0.004683889 -0.00071037305 -0.029761903
0.004683889 -0.00023679101 -0.030234434
0.004683889 0.00023679095 -0.03023443
0.0046838876 0.00023679102 -0.034250919
0.004683889 0.00023679095 -0.032754578
0.0046838885 0.00023679103 -0.032282051
0.004683889 -0.00023679099 -0.032282047
0.0046838885 0.00023679103 -0.031809527
0.004683889 -0.00071037299 -0.021256411
0.0046838881 -0.00023679103 -0.014247252
0.0040487857 -0.0026836309 -0.020783884
0.0045251134 -0.0018153974 -0.02172894
0.0036121516 -0.0031966779 -0.029761907
0.0040487857 -0.0026836309 -0.030234434
0.0045251134 -0.0018153973 -0.029761903
0.0045251134 -0.0018153973 -0.030234434
0.0040487857 -0.0026836309 -0.018263737
0.0045251134 -0.0018153973 -0.018263737
0.004162197 -0.002266428 -0.018263735
0.0045251134 -0.0018153973 -0.019208793
0.0046838899 -0.00071037293 -0.018736267
0.004162197 -0.002266428 -0.02519414
0.0045251134 -0.0018153973 -0.024721611
0.0041621975 -0.0022664277 -0.024721608
0.0040487857 -0.0026836309 -0.02519414
0.0046838894 -0.00023679095 -0.025745424
0.004683889 -0.00023679099 -0.025194136
0.004683889 0.00023679108 -0.024721613
0.004683889 0.00071037305 -0.022201465
0.0046045003 0.0012628848 -0.022752745
0.0046045012 -0.0012628852 -0.021728935
0.0045251134 -0.0018153973 -0.022201465
0.0045251134 -0.0018153973 -0.022752747
0.0046838885 -0.00071037293 -0.022201465
0.0046045012 -0.0012628848 -0.021256415
0.0046838885 -0.00071037305 -0.021728937
0.0046838899 0.00071037299 -0.032282047
0.004683889 0.00071037299 -0.031809527
0.0046045003 0.0012628851 -0.027241761
0.0046045003 0.0012628851 -0.02771429
0.0045251134 -0.0018153973 -0.021256411
0.0046838885 0.0007103731 -0.019760072
0.004162197 0.002266428 -0.019760074
0.004683889 0.00023679106 -0.021256413
0.0046838885 0.00023679096 -0.020783879
0.0046045003 0.0012628851 -0.018736267
0.0045251134 -0.0018153972 -0.031809524
0.0017465348 0.0022889795 -0.039606228
0.0002381638 0.0018153972 -0.039684985
0.0011908191 0.0012628851 -0.039684977
0.00023816385 0.00069602201 -0.039742254
0.00023816385 0.0012628849 -0.039684981
-0.00023816389 0.0012628849 -0.03968497
-0.00071449182 0.0012628849 -0.039684985
-0.00071449165 0.0017956648 -0.039665293
0.0045251134 0.0018153973 -0.014247254
0.004162197 0.0022664277 -0.016688645
0.0041621975 0.002266428 -0.01621612
0.0041621975 0.002266428 -0.020783881
0.004162197 0.0022664277 -0.021256413
0.0040487857 0.0026836309 -0.02330403
0.0036121516 0.0031966779 -0.022201464
0.0036121516 0.0031966779 -0.021728935
0.0032152117 0.0035913296 -0.02125641
0.0040487857 0.0026836309 -0.01125458
0.0040487857 0.0026836309 -0.012750916
0.0036121516 0.0031966779 -0.012278389
0.004683889 -0.00023679096 -0.010703296
0.004683889 0.00071037293 -0.01023077
0.0046045007 0.0012628851 -0.0092857163
0.0046045003 0.0012628849 -0.0088131875
0.004683889 0.00071037293 -0.0088131875
0.0046140272 0.0012534134 -0.010224471
0.0046045007 0.0012628849 -0.011805862
0.0046045003 0.0012628851 -0.012278387
0.004683889 0.00071037299 -0.012278385
0.0045251134 0.0018153973 -0.012278389
0.0040487857 -0.0026836309 -0.016688645
0.004162197 -0.0022664282 -0.016688645
0.004162197 -0.0022664277 -0.01621612
0.0045251134 -0.0018153975 -0.015743589
-0.0011511253 -0.0046963538 -0.0037728939
-0.00023816389 -0.0047358195 -0.0072380956
-0.00071449165 -0.0047358195 -0.0072380956
-0.00071449165 -0.0047358195 -0.0067655696
0.0026727275 -0.0040254463 -0.00067521445
0.0031755178 -0.0035781746 -0.0013315026
0.0031913959 -0.0035834364 -0.00065421313
0.0032152117 -0.0035913298 -0.0051904768
0.0026991905 -0.0040254463 -0.0042454209
0.0032152117 -0.0035913296 -0.0047179498
0.0032152117 -0.0035913298 -0.0037728939
-0.00023816379 -0.0047358195 -0.0051904758
0.00071449153 -0.0047358195 -0.0062930416
0.00023816386 -0.0047358195 -0.0047179488
0.00071449159 -0.0047358195 -0.0057417583
0.0011511253 -0.0046963543 -0.0033003669
0.0040487857 -0.0026836307 -0.00062271021
0.0040487857 -0.0026836309 -0.0033003669
0.0045251134 -0.0018153973 -0.0027490836
0.0045251134 -0.0018153973 -0.0033003669
0.0040487857 -0.0026836309 -0.0027490854
0.0046045003 -0.0012628851 -0.0062930407
0.0045251134 -0.0018153973 -0.0062930407
0.0036121516 -0.0031966779 -0.010703299
0.0040487857 -0.0026836309 -0.010703297
0.0040487857 -0.0026836309 -0.012278389
0.0036121516 -0.0031966779 -0.011805862
0.0036121514 -0.0031966777 -0.01125458
0.0032152117 -0.0035913296 -0.016688645
0.0040487857 -0.0026836309 -0.03724359
0.0036121516 -0.0031966779 -0.03669231
0.0040487857 -0.0026836309 -0.036692306
0.0036121514 -0.0031966779 -0.037243586
0.0040487857 -0.0026836309 -0.034250919
0.0036121516 -0.0031966779 -0.035274725
0.0040487857 -0.0026836309 -0.034802198
0.0036121516 -0.0031966779 -0.033699635
0.0040487857 -0.0026836309 -0.032754578
-0.0011908191 0.00071037299 -0.039684985
-0.00070882123 0.00070473517 -0.039696235
-0.0011908192 0.00023679105 -0.039684981
-0.0023022508 0.00071037299 -0.039606228
-0.0036121516 0.0031966779 -0.0042454209
-0.0032152117 0.0035913291 -0.0042454228
-0.0027785781 -0.0037097251 -0.03921245
-0.0041281739 -0.0022551522 -0.00072396733
-0.0040487857 -0.0026836307 -0.00062271021
-0.0040487857 -0.0026836307 -0.00046520121
-0.0045251134 -0.0017759321 -0.0004258249
-0.0011908191 -0.0032164103 -0.00032738224
-0.0011908191 -0.002762561 -0.00030769221
-0.0007144917 -0.0032361429 -0.00030769221
-0.0017465348 -0.0027625607 -0.00030769221
-0.0032152117 -0.0035913296 -0.0033003669
-0.0026991905 -0.0040254463 -0.0017252751
-0.001746535 -0.0012628848 -0.00030769221
-0.0017465348 -0.0018153973 -0.00030769221
-0.0023022506 -0.0012628848 -0.00030769221
-0.0023022508 -0.0032361429 -0.00038644671
-0.0011908191 -0.0037097251 -0.00038644671
-0.00071449159 -0.0037097249 -0.00038644671
-0.0015083711 -0.0046568885 -0.0382674
-0.0026991905 -0.0040254463 -0.0382674
-0.0026991905 -0.0040254463 -0.038739931
-0.0026991905 -0.0040254463 -0.03724359
-0.0022824041 -0.004163574 -0.038739935
-0.0046045007 0.0012628852 -0.035747252
-0.0046045007 -0.0012628851 -0.0062930416
-0.0046044998 -0.0012628849 -0.0057417583
-0.004683889 -0.00071037299 -0.0062930416
-0.0022824041 -0.004163574 -0.031809524
-0.0026991905 -0.0040254463 -0.03125824
-0.0026991905 -0.0040254463 -0.031809524
-0.0026991905 -0.0040254463 -0.032282051
-0.0032152117 -0.0035913296 -0.031809527
-0.0026991905 -0.0040254463 -0.0062930407
-0.0026991905 -0.0040254463 -0.0051904768
-0.0022824041 -0.0041635744 -0.0051904758
-0.0040487857 -0.0026836309 -0.038739927
-0.0036121516 -0.0031966779 -0.036219779
-0.0040487857 -0.0026836309 -0.035274725
-0.0040487857 -0.0026836309 -0.035747256
-0.0046045012 -0.0012628849 -0.0021978021
-0.0041621975 -0.002266428 -0.0067655696
-0.0045251134 -0.0018153973 -0.0067655677
-0.0040487857 -0.0026836309 -0.0072380956
-0.0046045007 -0.0012628849 -0.0088131875
-0.0046045007 -0.0012628851 -0.0092857182
-0.0017414673 -0.0042571998 -0.039209109
0.0032549058 -0.0022889792 -0.039527472
0.0032549058 -0.0018153973 -0.039527472
0.0032390282 -0.00071037287 -0.039543223
0.0027641444 -0.0012485341 -0.039599068
0.0015083711 -0.0046568885 -0.039133698
0.002281541 -0.0041558524 -0.039205607
0.0045251134 -0.0018153974 -0.0097582415
0.004162197 -0.002266428 -0.0097582424
0.0040487857 -0.0026836309 -0.0097582424
0.0046045003 -0.0012628851 -0.03669231
0.0046045012 -0.0012628851 -0.0382674
0.0015083711 -0.0046568885 -0.037794873
0.0011511253 -0.0046963543 -0.03724359
0.0011511253 -0.0046963538 -0.037794869
0.0011511253 -0.0046963543 -0.0382674
0.00071449153 -0.0047358195 -0.03724359
0.0011511253 -0.0046963543 -0.035747256
-0.00070515182 -0.0047311764 -0.039203189
-0.00026991902 -0.0040885909 -0.039527472
0.00026462643 -0.0041306866 -0.039527472
0.0026991903 -0.0030782823 -0.039527472
0.0023022506 -0.0032361429 -0.039527472
0.0011511254 -0.0046963543 -0.036692306
0.0027785785 0.00023679087 -0.039606228
0.0017465347 0.00023679093 -0.039684974
0.0037312338 0.00023679095 -0.039527472
-0.0023022506 0.0027625614 -0.039527472
0.0046044998 0.0012628848 -0.037243593
0.0032390282 0.00071037293 -0.039543223
0.0011431864 0.0046884608 -0.039180957
0.0022824041 0.004163574 -0.0382674
0.0022824041 0.0041635744 -0.037794869
0.0015083711 0.0046568885 -0.038739923
0.0015083711 0.0046568885 -0.0014102571
0.0022704951 0.0041201622 -0.001315752
0.0022824041 0.0041635744 -0.0017252751
0.0011511253 0.0046963538 -0.0033003669
-0.00023816389 0.0047095087 -0.00041269884
0.00069861393 0.0047042468 -0.00070146658
0.0011908191 0.0042622369 -0.00038644671
0.001746535 0.0037097253 -0.00038644671
0.0011908191 0.0037097251 -0.00038644671
0.0007065527 0.003693939 -0.00036282092
-0.0015083711 0.0046568885 -0.0042454209
-0.0011511253 0.0046963538 -0.0037728939
-0.0011511253 0.0046963538 -0.0042454228
-0.0011511253 0.0046963538 -0.0017252751
0.00023816386 0.0047358195 -0.0027490836
0.00023816386 0.0047358195 -0.0033003669
-0.00071449165 0.0047358195 -0.0027490836
-0.00071449159 0.0047358195 -0.0021978021
0.0002381638 0.0047358195 -0.0017252751
0.0036121516 -0.0031966779 -0.0042454228
0.0032549056 -0.0022889795 -0.00038644671
0.00023816382 -0.0042622373 -0.00038644671
0.00023816385 -0.0032361427 -0.00030769221
0.00071449159 -0.0042622369 -0.00038644671
-0.0002381638 -0.0042622369 -0.00038644671
-0.00023816382 -0.0047095087 -0.00041269884
0.00023816382 -0.0037097249 -0.00038644671
-0.00022980721 -0.0037014163 -0.0003740117
0.00023816394 -0.002762561 -0.00030769221
-0.00023816392 -0.0022889795 -0.00030769221
-0.00023816385 -0.0027625607 -0.00030769221
0.00071449153 -0.0037097251 -0.00038644671
0.0017465345 -0.0027625607 -0.00030769221
0.0023022508 -0.0022889795 -0.00030769221
0.0017465347 -0.0022889795 -0.00030769221
0.0023816386 -7.8930287e-05 0.0017399266
0.0023816386 -7.8930258e-05 0.0012673978
0.0023022511 -0.0018153974 -0.00030769221
0.0023816386 7.8930367e-05 0.0022124536
0.0023816386 -7.8930258e-05 0.0022124536
0.00071449159 -0.0047358195 -0.0017252751
0.00071449159 -0.0047200331 -0.0004021991
0.0011908191 -0.0037097249 -0.00038644671
0.0011511252 -0.0046963538 -0.02574542
0.0015083711 -0.0046568885 -0.025745422
0.0011511254 -0.0046963538 -0.026296703
-0.0015083711 -0.0046568885 -0.03125824
-0.0015083711 -0.0046568885 -0.031809524
-0.0015083711 -0.0046568885 -0.028738096
-0.0015083711 -0.0046568885 -0.028186813
-0.0022824039 -0.0041635744 -0.028738093
-0.0026991905 -0.0040254463 -0.028186813
-0.0032152117 -0.0035913291 -0.028738096
-0.0032152117 -0.0035913291 -0.028186813
0.0011511252 -0.0046963543 -0.022752747
0.0015083711 -0.0046568885 -0.02125641
0.0026991905 -0.0040254463 -0.02125641
0.0036121516 -0.0031966779 -0.037794877
0.0032152117 -0.0035913291 -0.038267404
0.0026991905 -0.0040254463 -0.037794873
0.0015083711 -0.0046568885 -0.0382674
0.0022824041 -0.004163574 -0.036219783
0.001508371 -0.0046568885 -0.036219779
0.0022824041 -0.004163574 -0.035747256
0.0026991905 -0.0040254463 -0.036219779
-0.0026991905 0.0040254463 -0.0072380956
-0.0026991905 0.0040254463 -0.0077106236
-0.0015083711 0.0046568885 -0.0077106236
-0.0022824041 0.0041635744 -0.0077106226
0.00023816385 0.0047358195 -0.038267396
-0.0022824041 0.0041635744 -0.0382674
-0.00071449153 0.0047358195 -0.038739927
-0.00071449153 0.0047358195 -0.038267396
-0.00071449153 0.0047358195 -0.0092857154
-0.00023816385 0.0047358195 -0.01023077
-0.00071449165 0.0047358195 -0.0097582415
-0.0002381638 0.0047358195 -0.0097582415
0.00023816391 0.0047358195 -0.0051904758
0.00071449153 0.0047358195 -0.0051904768
0.0022824039 0.0041635744 -0.0057417592
0.0022824039 0.004163574 -0.0051904758
0.0022824041 0.0041635744 -0.0047179498
0.0011511254 0.0046963538 -0.0057417592
0.0022824041 0.004163574 -0.0037728939
0.00071449159 0.0047358195 -0.0037728939
0.0011511253 0.0046963538 -0.0047179498
0.0037312333 0.0022889795 -0.00038644671
0.0032549056 0.0022889795 -0.00038644671
0.0045861811 0.0012446704 -0.00040462241
0.0046521341 0.00071037293 -0.0004021991
0.0045780386 0.0012260509 -0.0007172171
0.0045251134 0.0018153973 -0.00062271021
0.0040487857 0.0026836307 -0.00046520121
0.0046309638 0.00071037299 -0.00072771683
0.0045251134 -0.0018153973 -0.036692306
0.0045251134 -0.0018153973 -0.036219779
0.0045251134 -0.0018153973 -0.03724359
0.0045251134 -0.0018153972 -0.034250919
0.004683889 -0.00071037299 -0.038739927
0.0046045007 -0.0012628852 -0.0067655696
0.0046838885 -0.0007103731 -0.0062930416
0.0046838885 -0.0007103731 -0.0067655686
0.0046045012 -0.0012628849 -0.0017252751
0.0027785781 -0.0012628849 -0.00030769221
0.0027785781 -0.00071037305 -0.00030769221
0.0023816386 7.8930374e-05 0.0012673978
0.0032549065 0.00023679096 -0.00030769221
0.0027785783 0.00071037305 -0.00030769221
0.0042075617 -0.00023679087 -0.00038644671
0.0037312333 -0.0002367909 -0.00038644671
0.0026198023 -7.8930258e-05 0.00079487078
0.0032549065 -0.00023679095 -0.00030769221
-0.0045251134 -0.0018153973 -0.0051904768
-0.0040487857 -0.0026836309 -0.0042454209
-0.0045251134 -0.0018153973 -0.0037728939
-0.0045251134 -0.0018153973 -0.0042454209
-0.0022824041 -0.0041635749 -0.012750918
-0.0022824041 -0.0041635744 -0.012278387
-0.0026991905 -0.0040254463 -0.012278389
-0.0015083711 0.0046568885 -0.008261906
-0.0026991905 0.0040254463 -0.0067655677
-0.0015083711 0.0046568885 -0.0088131875
-0.0011511253 0.0046963543 -0.0092857163
-0.00071449176 0.0047358195 -0.008261906
0.001508371 0.0046568885 -0.0067655686
0.0022824041 0.0041635744 -0.0067655686
0.00023816382 0.0047358195 -0.0067655696
0.00023816382 0.0047358195 -0.0062930416
0.00023816385 0.0047358195 -0.0077106236
0.0007144917 0.0047358195 -0.0082619051
0.00071449165 0.0047358195 -0.0077106236
-0.0011511252 0.0046963543 -0.038739923
-0.0002381638 0.0047358195 -0.037794873
-0.00071449159 0.0047358195 -0.037794873
0.00023816382 0.0047358195 -0.036692306
-0.0015083711 0.0046568885 -0.03724359
-0.0017465346 -0.00023679102 -0.039684981
-0.0011908191 -0.00023679095 -0.039684981
-0.0046045012 0.0012628851 -0.013223441
-0.0046838885 0.00071037287 -0.01275092
-0.0045251134 0.0018153973 -0.013695972
-0.0046045003 0.0012628851 -0.014798535
-0.0046838881 0.00071037299 -0.013695974
-0.004683889 -0.00071037299 -0.012750918
