# .PCD v0.7 - Point Cloud Data file format
VERSION 0.7
FIELDS x y z
SIZE 4 4 4
TYPE F F F
COUNT 1 1 1
WIDTH 630
HEIGHT 1
VIEWPOINT 0 0 0 1 0 0 0
POINTS 630
DATA ascii
-0.00066274032 0.0060514929 0.0022460413
-0.00066128693 0.0060514919 0.0026283641
-0.00071205758 0.0058769323 0.0026748753
-0.00069279928 -0.0057471478 -0.0035960211
-0.001511513 -0.0060514919 -0.0030336152
-0.00057606614 -0.0060514915 -0.0036086238
-0.0011960445 -0.0060694604 -0.0031459201
-0.0010630414 0.00078018638 -0.0003906741
-0.00073469232 0.0012531368 -0.00035454333
-0.0010464317 0.00023274971 -0.0003520085
-0.0011027788 0.001264905 -0.00042599917
-0.0015151469 0.0007673467 -0.00085480988
-0.00074212399 0.00076125166 -0.00036708487
-0.00025294407 0.00077126292 -0.0003536907
-0.00026160845 0.00023274971 -0.00038115704
0.00023083489 0.00023474151 -0.00037916109
0.0002126958 0.00075923733 -0.00035794021
-0.0010464317 -0.0017456226 -0.00035200862
-0.0010464321 -0.0022066461 -0.00036546134
-0.00074443768 -0.0022415016 -0.00037393428
-0.00024657304 0.0060735643 -0.0013882664
-0.00059796113 0.0060514933 -0.0016803197
-0.0002761418 0.0060805855 -0.00071635726
-0.00061768555 0.0060514938 -0.0012968862
-0.001590577 -0.0060747671 -0.002697831
-0.001697132 -0.0057543544 -0.0022362629
-0.0016379695 -0.0057531828 -0.002720054
-0.0016277836 -0.006075568 -0.0022405919
-0.0016745867 -0.0017510465 -0.0014052865
-0.001511513 -0.0019492786 -0.0008766707
-0.001682316 -0.00076467538 -0.0014080408
-0.0016729363 -0.0012422738 -0.0014064282
-0.0012499052 -0.0060805776 -0.0022466218
-0.0012483032 -0.0060803499 -0.002740531
-0.00070763857 0.005865281 -0.00027712097
-0.0010789878 0.0057698651 -0.0014328128
-0.0015488855 0.0045760246 -0.00092663849
-0.0015312573 0.0012592635 -0.00087612041
-0.0015584998 0.0017543909 -0.00089224265
-0.0012227112 -0.0057587936 -0.0031995475
-0.001540581 -0.0057516028 -0.0030605199
0.0007557561 -0.0012510287 -0.00038115669
0.00023254043 -0.00075643632 -0.00038115657
0.00023254057 -0.0012510287 -0.00038115692
-0.00074970612 -0.0027367279 -0.00037790136
0.0015685199 -0.0057492559 -0.00088827289
0.0011020025 -0.0057468633 -0.00045402593
0.0011917697 -0.0060590347 -0.00079462479
0.0016300192 -0.0060738721 -0.0021681467
0.0016335968 -0.0060747685 -0.0017511075
0.0017123093 -0.0057443925 -0.0022421777
0.0017135438 -0.0057446659 -0.0017542164
-0.000752197 -0.0060799839 -0.0032138552
-0.00075575645 -0.0060805776 -0.0027421378
-0.0010580592 -0.0037647262 -0.00045111135
-0.0015278638 -0.0037658168 -0.00092039246
-0.001092703 -0.004259557 -0.00046562578
0.0011179831 0.0012510299 -0.00042599917
0.00075575663 0.0017456218 -0.00038115634
0.00075575674 0.0012510286 -0.00038115634
0.00075575674 0.00075643614 -0.00038115634
0.001117983 0.00075643661 -0.00042599929
-0.0007528498 0.00023420437 -0.00037969893
0.00021411039 0.001748127 -0.00033883203
0.00022032735 0.0022411912 -0.00033143326
-0.0007378083 0.0042439713 -0.0036105046
-0.00068759813 0.0045707221 -0.0036065222
0.00077357114 0.0042336043 -0.003600118
-0.00037061135 0.0045968057 -0.0036019988
-0.0016221569 0.0046133255 -0.0012875621
-0.0015478475 0.005069579 -0.0018676992
-0.0016751346 0.0046901889 -0.0018315013
-0.0015115129 -0.0022402159 -0.0008766707
-0.0015115128 -0.0027348089 -0.00087667059
-0.00035580163 -0.0052350275 -0.0036007068
-0.00037345983 -0.0057419348 -0.0035906897
-0.00038756747 -0.0060514919 -0.0035874255
0.00034433877 -0.0060514924 -0.0035694884
0.00023523536 -0.0060792291 -0.0032206639
0.00032376035 -0.0057553509 -0.0035665717
0.0012376537 -0.0060755308 -0.0022254246
0.0011975834 -0.0060595465 -0.0027389966
0.0016565608 -0.0057457895 -0.0027135604
0.0011720452 -0.0060598035 -0.0031908061
0.0015688413 -0.0057387338 -0.0030514281
-0.0017440516 -0.001251028 -0.001751116
-0.001736737 0.0042424886 -0.0017539018
-0.0016610188 0.0042418735 -0.0012810447
-0.0016716387 0.0037510439 -0.0012786044
-0.00174405 0.0037530886 -0.0017511161
-0.0016548173 0.0046770242 -0.0021708144
-0.0017156608 0.0042452416 -0.0022355933
-0.00062418752 0.0060514933 -0.00073706754
-0.00064820645 0.0060514933 0.0002280348
-0.00071299652 0.0058793272 0.00025335257
-0.00066184596 0.0060514924 0.00075785373
0.00075575692 0.002240214 -0.00038115645
0.00075461372 0.0027359517 -0.000380154
0.0011143648 0.0022156986 -0.00043355708
0.00061265467 0.0060514924 -0.00030940771
0.00074280699 0.0032611948 -0.00036884833
0.00023130148 0.0032599405 -0.00032389583
0.00073852041 0.003758203 -0.00036167598
0.00077135366 0.0059043709 0.0022364673
0.00077050732 0.0059029828 0.0026554456
0.0016216628 0.0022325597 -0.00090735301
0.0016975453 0.0027348076 -0.0012753198
0.0016994167 0.0032594809 -0.0012761413
0.0016211381 0.0032684715 -0.00091414654
0.001130992 0.0037530886 -0.00045005116
0.0016190083 0.0037525396 -0.00090966839
-0.0011684105 -0.0012595986 -0.00079367834
0.00061041868 -0.0060514933 -0.00040058827
0.00075343752 -0.0057585258 -0.00038202887
0.001104567 -0.0037530889 -0.00045402593
0.0011045666 -0.0042476817 -0.00045402593
0.00075575727 -0.0042476812 -0.00038115704
0.0015696478 -0.0037530886 -0.00088638649
0.00023486033 -0.0032564618 -0.00038202887
0.00024890216 -0.0037504737 -0.00038796314
-0.00075575616 -0.0037530866 -0.00038115645
0.00023254077 -0.0017456218 -0.00038115669
0.00023254064 -0.0027348089 -0.0003811568
0.00075575651 -0.0032584944 -0.00038115692
0.00075575628 -0.0027348083 -0.00038115704
0.00075575593 -0.002240214 -0.0003811568
0.00023254074 -0.002240214 -0.00038115657
-0.0015115128 -0.0032849445 -0.00089256954
-0.0015577838 -0.0042595565 -0.00093199156
0.0016975465 0.0022402133 -0.0012753212
0.0017385461 -0.0052341083 -0.0017545702
0.0017361376 -0.005234391 -0.0022411619
-0.001669359 -0.0032700242 -0.0013647873
-0.00026160854 0.0027348083 -0.00032286055
-0.00026160857 0.0032584949 -0.0003228602
-0.0011356056 0.0027486163 -0.00043648796
-0.00074509863 0.0022392431 -0.00033014757
-0.00074612099 0.0027367368 -0.00032930158
-0.0011336345 0.0032584958 -0.00043112412
0.0015830646 0.00075643661 -0.00089236558
0.0011179831 0.001745623 -0.00042599929
0.0016114471 0.001752355 -0.00090726442
0.00021090895 0.0012530583 -0.0003479413
-0.00026160834 0.0022402129 -0.0003228609
-0.00026160828 -0.0002618435 -0.0003811568
0.00023254046 -0.00026184341 -0.0003811568
0.00075575692 -0.00075643649 -0.00038115634
-0.0010464319 -0.0012510294 -0.0003520085
-0.00074126694 -0.0012503945 -0.00036699127
-0.0012335472 -0.0042500347 -0.0031794636
-0.00068045198 -0.0042443653 -0.0035901435
-0.001511513 -0.0039567449 -0.0030919111
-0.0015260471 -0.0042840489 -0.003084624
-0.00068245566 -0.0047498676 -0.0035962958
-0.0016432969 -0.0047449158 -0.0027176007
-0.0015364286 -0.004742275 -0.00307942
-0.0012499056 -0.006080579 -0.0017511069
-0.001243841 -0.0060795313 -0.0012627235
-0.00075575639 -0.0060805776 -0.0017511079
-0.0016292739 -0.0060753627 -0.0017496132
-0.0016058455 -0.0060756458 -0.0013413869
-0.00075575639 -0.0060805771 -0.0022466215
-0.0002616079 -0.0060805795 -0.0027421371
-0.0017061388 -0.0057529653 -0.0017511158
-0.00027144616 -0.0060796835 -0.0032152287
0.00075575645 -0.0060788658 -0.0032239349
-0.00025478328 0.0056634056 -0.0020529812
-0.0002578166 0.0060565537 -0.001697881
0.00021668542 0.0060620694 -0.0016716138
0.0017440534 0.0027348071 -0.0017511167
0.0011889577 0.0012622916 -0.0031163625
0.00067691546 0.0012601964 -0.0035806373
0.0015260465 0.00080007699 -0.0030336159
-0.0017440519 -0.0017456213 -0.0017511166
-0.0006394863 0.0060514938 -0.00026456476
0.00023254083 0.0037530854 -0.00032286032
-0.0015819592 0.0042360434 -0.00089553092
0.0011200208 0.0027399645 -0.00045789999
0.00072242564 0.0056340946 -0.0020359803
0.00077333243 0.0045765084 -0.0035698011
0.0010658104 0.0045580147 -0.0035291295
0.00076445384 0.0058975504 0.0012456176
-0.00066492037 0.0060514929 0.0012620564
0.00076867553 0.0058995592 0.0017401627
-0.00071166392 0.0058786133 0.0017467809
0.00074674905 0.0046484424 -0.0031962704
0.0015830637 -0.0017456231 -0.00089236535
0.0011179831 -0.0017456228 -0.00042599905
0.0015782815 -0.002235895 -0.00089023414
-0.0011875656 -0.00025415834 -0.00080389238
-0.0011509921 -0.00075664575 -0.00080600253
0.0015613431 0.0012718107 -0.0030336156
0.0010464321 0.0019783725 -0.0035291295
-0.0017440519 -0.0037530859 -0.001751115
-0.001664286 -0.0047414596 -0.0012870454
-0.0017440534 -0.0042476761 -0.0017511166
-0.0017389022 -0.002734808 -0.0022407155
-0.0017389031 -0.0022402124 -0.0022407158
-0.0017440541 -0.0027348078 -0.0017511166
-0.0017389039 -0.0032584905 -0.0022407155
-0.0017389036 -0.0017456213 -0.0022407155
-0.001744054 -0.0032584928 -0.0017511162
-0.00071578799 -0.0052391407 -0.0036010875
-0.0015376747 -0.0052281399 -0.0030744218
-0.0011211775 -0.0022568412 -0.0031502079
-0.00057581428 -0.002759746 -0.0035707697
-0.0011613797 -0.0027493553 -0.0031502114
-0.0012208375 -0.00027889831 -0.0030195431
-0.00056092546 -0.00023904027 -0.0035606408
-0.00059351861 0.00025778383 -0.003577935
-0.00054110377 -0.0007116769 -0.0035582776
0.00023544751 -0.0032559489 -0.0036158476
0.0002533982 -0.0037497573 -0.0036107865
0.0007229342 -0.0042401664 -0.0036048486
0.00028602511 -0.0042360444 -0.0036077111
0.00075575651 -0.0052368664 -0.00038115657
0.001104567 -0.0052368673 -0.00045402593
-0.0007537994 -0.0057288157 -0.00040431775
-0.00071130029 -0.0060583381 -0.00046688551
0.00034955592 -0.0057419059 -0.00042898883
-0.0010754997 -0.0060514919 -0.00049774803
-0.0011311437 -0.0057539041 -0.00049774803
-0.00038203076 -0.0060514919 -0.00047276402
-0.00037099366 -0.005737585 -0.0004678329
0.0016665397 -0.0047422727 -0.0027129815
0.0015835768 -0.0052277758 -0.003059119
0.0015793372 -0.0047422755 -0.0030724786
0.0015793379 -0.0042476822 -0.0030724765
0.0016665399 -0.0042476798 -0.0027129811
0.00075575575 -0.0037530866 -0.00038115738
0.0011045672 -0.0032584965 -0.00045402593
-0.00075575645 -0.0042476794 -0.00038115692
-0.00075575674 -0.0047422713 -0.00038115669
-0.00075575616 -0.0032584944 -0.00038115634
0.0011143651 -0.0022156986 -0.00043355697
0.0011045667 -0.0027348087 -0.00045402593
0.0015696476 -0.0027348087 -0.00088638638
-0.00026160822 -0.0017456221 -0.0003811568
-0.00026576075 -0.0027314834 -0.00038365542
0.00075575622 -0.0017456219 -0.00038115669
0.0011045665 -0.0047422755 -0.00045402593
0.0016511536 -0.0027421177 -0.0027148877
0.0017349763 -0.0027368912 -0.0022374326
0.0017305107 -0.0022402608 -0.0022303241
0.0016213242 -0.0022531454 -0.0027162242
0.0015793369 -0.0032584965 -0.0030724765
0.0015576798 -0.0027724595 -0.0030610501
0.0016665395 -0.0032584935 -0.0027129804
0.001739832 -0.0032593026 -0.0022427114
0.0015308913 -0.0022790076 -0.0030336154
-0.0011045672 -0.0047422745 -0.00046860008
-0.0016843469 -0.0022394292 -0.0014018592
-0.00074813189 0.0032584944 -0.00032763882
-0.0011336346 0.0037530886 -0.00043112412
-0.0015995961 0.003766313 -0.00090140163
-0.001594563 0.0032584961 -0.00090581784
-0.0015808677 0.0022019343 -0.00091297738
-0.0016748908 0.0032584942 -0.0012777031
0.0015830646 0.00023274971 -0.00089236605
0.0016975449 0.00075643614 -0.0012753205
0.001583064 -0.00026184341 -0.00089236558
0.0015830637 0.0012510295 -0.00089236547
-0.00026160845 0.0017456218 -0.00032286032
0.0011179837 0.00023274971 -0.00042599917
0.00075575657 -0.00026184344 -0.00038115669
0.0011179831 -0.0012510297 -0.00042599905
-0.0016364441 -0.0042543495 -0.0027061363
0.00075439294 0.0037501336 -0.0036072358
-0.00027712542 0.003252808 -0.0036117507
0.00033309837 0.0032113171 -0.0035740335
0.0007386338 0.0032604879 -0.003606989
0.0011536591 0.0037731316 -0.0035459714
0.0011291627 0.003303255 -0.0035291309
-0.00071534741 0.0058597489 -0.00075367629
-0.00066184596 0.0060514924 0.0017488825
-0.00070939591 0.0058779046 0.0012511262
-0.0002616079 -0.0060805781 -0.0012555935
-0.00026160781 -0.006080579 -0.0017511075
-0.00075575634 -0.0060805767 -0.0012555935
-0.0017167917 -0.0052296394 -0.0022344897
-0.0017374079 -0.0047422773 -0.0017494506
-0.0017321236 -0.0047417097 -0.0022361756
-0.0016557464 -0.0042537977 -0.0012952378
-0.0012345831 -0.0037578151 -0.0031662863
0.00068599434 -0.0060514929 -0.003564107
0.0010718661 -0.0057350979 -0.0035582776
0.00074606686 -0.0057832845 -0.0035719408
-0.0016457433 -0.0057557602 -0.0012828063
-0.0016542086 -0.0052330876 -0.0012813332
0.0007374307 0.0027367061 -0.0036013648
0.0011000955 0.00422381 -0.0035515516
0.0016042159 0.0017629216 -0.0030336145
-0.001616785 0.0046015251 -0.0026998604
-0.0016542858 0.0042385543 -0.00271784
-0.0017440524 -0.0022402129 -0.001751116
-0.00043601339 0.0060514919 -0.00049774803
-0.00071048521 0.0058779139 0.0022428962
-0.00026160857 0.0037530854 -0.00032286032
0.0011274291 0.0032715716 -0.0004545172
0.00076012459 0.0059061954 0.00025504292
0.00073392695 0.0059102676 -0.00027792924
0.0010464321 0.005876929 -0.0012847413
0.0015595376 0.0045968066 -0.00091849151
0.00076066935 0.0059031583 0.00075150654
0.0016454251 0.0046298089 -0.0013083792
0.0012124528 0.0046225437 -0.0031673063
0.0015463938 0.0045851688 -0.0030627633
0.00075083011 0.0047020898 -0.0027327407
0.00023905176 0.0046805982 -0.003166764
0.0016012064 0.0027248338 -0.00091414643
-0.00030321453 0.0037445317 -0.0036074277
-0.0015512895 0.0050439299 -0.0020686665
-0.0015496649 0.0032984999 -0.0031310769
-0.0011336349 0.0037530891 -0.0035291309
-0.0011336351 0.0032584956 -0.0035291309
-0.0017389058 -0.0042476752 -0.002240716
-0.0010975909 0.0017479501 -0.0004277929
-0.0016538174 0.0012565808 -0.0012932708
-0.0016356942 0.00076758896 -0.0013148619
-0.001663566 0.0017495485 -0.0012796719
-0.0012248026 0.00024200682 -0.00080115022
0.0017396164 0.0012517219 -0.0022395756
0.0015873412 0.0012700044 -0.0027243975
-0.00026160799 -0.0060805776 -0.0022466211
0.00023254039 -0.0060805767 -0.0022466222
-0.0016623171 -0.0037544342 -0.0013180205
-0.00062167918 -0.0032742233 -0.0035779721
-0.0012022208 -0.0032715704 -0.0031554508
-0.0016668055 -0.0022406147 -0.0025960002
-0.0016595689 -0.0017544138 -0.002585076
-0.0011051857 0.00078367325 -0.003175016
-0.0016572833 0.0007590414 -0.0027081957
-0.0016445934 0.00023765708 -0.0026838342
-0.0010464321 0.0019783725 -0.0035291295
-0.0011409011 0.0012655765 -0.0031866473
-0.00066401722 0.0012612886 -0.0035998928
-0.0016603884 0.0012533376 -0.0027196142
-0.0012240183 -0.0052391374 -0.0031916399
0.0002329156 0.0017416804 -0.0036137558
0.00021974232 0.0012534177 -0.0036100461
-0.00026160805 0.0012510295 -0.0036165717
-0.00026160819 0.00075643626 -0.003616574
-0.00055577169 -0.0022925846 -0.0035501167
-0.00052321603 -0.0010473736 -0.0035582776
-0.00024345801 -0.001253625 -0.0036049404
-0.00022077255 -0.001743031 -0.0036119698
-0.0011340961 -0.0012810469 -0.0030599872
-0.001212117 -0.00074770837 -0.0030044662
-0.0010934242 -0.0017669585 -0.0031283463
0.0010793753 -0.0033166828 -0.0035524487
0.00070346892 -0.0022479626 -0.0035819062
0.000746181 -0.003263287 -0.0035929114
0.00022193619 -0.0027389778 -0.0036117316
0.00073418592 -0.0027416542 -0.0035845232
0.0016665395 -0.0037530859 -0.0027129836
-0.0002698795 -0.0037495412 -0.0036142019
0.0015696478 -0.0042476817 -0.00088638684
0.00075575529 -0.0047422713 -0.00038115704
-0.00033787929 -0.0052194609 -0.00045888405
-0.00032097142 -0.0047295736 -0.00044478907
-0.00026533444 -0.0060793366 -0.00077926205
-0.0007578783 -0.0060790917 -0.00077050447
0.00023560002 -0.0060790475 -0.00077695411
0.00023254032 -0.0060805767 -0.001255594
0.00075179257 -0.006079257 -0.00077862805
-0.00076948956 -0.0052341172 -0.00038666488
0.0012364893 -0.006073867 -0.0017511076
0.0010754992 -0.0052368683 -0.0035582781
0.001569648 -0.0032584961 -0.00088638684
0.0016840742 -0.0022356003 -0.0012878813
0.0016773527 -0.0032596369 -0.0012917835
0.0016734594 -0.0037510074 -0.0012894263
-0.00031806622 -0.0042364923 -0.00042375748
-0.0010464321 -0.0032849445 -0.00042620301
-0.00074169517 -0.0017473614 -0.00036943424
-0.00026160822 -0.0012510286 -0.0003811568
-0.00028682582 -0.0032534853 -0.00039795076
-0.00026160822 -0.0022402145 -0.00038115669
0.0017440538 -0.0037530868 -0.0017511161
0.0017440573 -0.0032584933 -0.0017511166
-0.0011045672 -0.0052368683 -0.00046859996
-0.0016795057 -0.0027416535 -0.0013923328
0.0017440532 0.0017456218 -0.0017511169
0.0017380411 0.0017456213 -0.0022390224
0.0017440537 0.001251028 -0.0017511161
0.0016975438 0.0017456216 -0.0012753191
0.0016975446 0.0012510282 -0.0012753215
-0.00026121736 0.0012519415 -0.00032351445
-0.00073508674 0.0017489131 -0.0003440592
-0.0010464317 -0.00075643638 -0.00035200862
-0.0007425432 -0.00075488054 -0.00037149258
0.00075575709 0.00023274971 -0.00038115657
0.0011179833 -0.00075643667 -0.00042599905
0.001583064 -0.00075643667 -0.00089236593
0.0012087849 0.00024694178 -0.0030535168
0.001197055 0.00076807395 -0.0030844936
-0.0007437868 0.0037530882 -0.003611428
-0.00112007 0.0042147092 -0.0035291309
-0.0010464321 0.004538619 -0.0035291295
-0.00071166392 0.0058786133 0.00075575244
-0.0011184575 0.0042394432 -0.0004286184
0.00023254033 -0.0060805781 -0.0017511075
-0.0017254491 -0.0052310466 -0.0017503399
-0.0015696483 -0.0052368678 -0.00093496626
-0.0011873358 -0.0060623395 -0.00080602407
0.0010622871 0.0022798891 -0.00352913
0.0017440522 0.0032584928 -0.0017511173
0.0017440524 0.0037530886 -0.0017511161
0.0017434146 0.0027354474 -0.0022460576
0.0017388355 0.0032578378 -0.0022433486
0.0016841911 0.0042402172 -0.0012854969
0.0010781422 -0.0047361036 -0.003557395
-0.00026160851 0.0042476789 -0.00032286055
-0.00026160807 0.004596808 -0.00032286067
0.00023254058 0.0042476803 -0.00032286067
-0.0010906472 0.005651555 -0.0017720453
0.00022049746 0.0027348073 -0.00033274153
0.00021465275 0.0060783485 -0.00088788138
0.00020287963 0.0060746451 -0.001291285
0.00023125569 0.0045974511 -0.00033638789
0.00072345953 0.0045972392 -0.00038461096
0.0011223631 0.0042364011 -0.00044302095
0.0015830634 -0.0012510297 -0.0008923657
-0.0012123935 0.0051598265 -0.0020860662
-0.0010658104 0.0055472013 -0.0020134388
-0.0012169819 0.0046238215 -0.0031528857
-0.0012347087 0.0046413173 -0.0027406001
-0.00074274704 0.0046847016 -0.0027401608
-0.00034480132 0.0042316299 -0.0036038409
-0.0017440516 0.0027348076 -0.0017511176
-0.0017440501 0.0022402129 -0.0017511164
-0.0016685954 0.0027359959 -0.0012864035
-0.0017389024 0.0032584895 -0.002240716
-0.0017389018 0.0027348076 -0.0022407155
-0.0016448817 -0.0052353777 -0.0027219281
-0.0017389035 -0.003753091 -0.002240716
-0.0011275148 0.002246341 -0.00044558838
-0.0017440522 0.00075643614 -0.0017511166
-0.0017440511 0.0012510284 -0.001751116
-0.0016501121 0.00023583256 -0.0013569368
-0.0016820416 -0.00024771233 -0.0013985578
-0.0017440527 0.00023274965 -0.0017511162
0.00063428708 0.0007720479 -0.0035788938
0.001613203 0.0017600282 -0.0027322909
0.00072940183 0.0022460353 -0.0035959748
0.0002474603 0.0022301753 -0.003602643
-0.00026160825 0.001745622 -0.003616571
-0.0016682803 0.002236879 -0.001278125
-0.0017389031 -0.00026184344 -0.0022407158
-0.0017389032 0.00023274965 -0.0022407155
0.00034396606 -0.0052335123 -0.0035960197
0.00023254033 -0.0060805781 -0.0027421382
-0.00065145519 -0.0037633567 -0.0035857104
-0.0002488709 -0.0027367701 -0.0036096941
-0.0016391398 -0.0032747341 -0.0026321893
-0.0010671945 0.00027431213 -0.0031502063
-0.00062453735 0.00077472406 -0.0035940872
-0.0017389026 -0.001251028 -0.0022407155
-0.0016402402 -0.00025221857 -0.0026715647
-0.0017389021 -0.0007564362 -0.0022407155
-0.0016616969 0.001745622 -0.0027226976
-0.0012315882 -0.0047386857 -0.0031798808
0.0010536989 -0.0028148168 -0.0035291295
0.0015793381 -0.0037530882 -0.0030724772
0.00073575723 -0.0037551837 -0.0036037473
0.00066196464 -0.0017584241 -0.0035804296
-0.00032767071 -0.0047316975 -0.003605973
-0.00025727914 -0.0032603524 -0.0036147113
0.0015696484 -0.0052368678 -0.00088638684
0.00030005237 -0.0047347676 -0.00040184206
0.00036043773 -0.0060514929 -0.00043556571
0.0016787795 -0.0047422727 -0.0012924108
0.0017440564 -0.004247677 -0.0017511169
0.001673557 -0.00523572 -0.0012864601
0.0007429127 -0.0052273963 -0.0035650565
-0.00026160834 -0.00075643632 -0.0003811568
-0.00029849191 -0.0037455095 -0.00040736527
-0.0010464321 -0.0027348092 -0.00041030429
0.0017420492 0.00075777364 -0.0022355632
0.0017381657 -0.0037516174 -0.0022418227
0.0017351108 -0.0042476747 -0.0022398927
-0.0015987158 0.0027348087 -0.00096411415
0.0017440529 0.0022402131 -0.0017511153
0.001744056 -0.002734808 -0.0017511164
0.0017440551 -0.0022402129 -0.0017511151
-0.0010464319 -0.00026184341 -0.0003520085
0.0011179834 -0.00026184344 -0.00042599917
-0.0007422276 0.0046440191 -0.0031793623
-0.0007481316 0.0037530854 -0.00032763858
-0.001119101 0.0045822593 -0.00047588709
-0.0015563258 -0.0057435832 -0.00093132269
-0.0015696484 -0.0047422745 -0.00093496632
0.0010754996 0.0027348089 -0.0035291305
0.00027973263 0.0027060581 -0.0035911966
0.0015938712 0.0042252555 -0.00091492746
0.0016984406 0.003751294 -0.0012793585
0.0017319728 0.0042401208 -0.0017511166
0.0016626379 -0.0057507753 -0.0012807476
0.0015782445 0.0042210468 -0.0031054569
0.0016948213 0.0037541341 -0.0027166547
0.0016784321 0.004238565 -0.0027171085
0.0016847961 0.0032649739 -0.0027147243
0.001659001 0.0027382788 -0.0027172929
0.0017411469 -0.004742281 -0.0022437046
0.0017388347 0.0042439224 -0.0022441661
0.0017411463 0.0037545476 -0.0022447975
0.00073409145 0.0042479201 -0.00034820673
0.0016243631 0.0046100705 -0.0026997023
0.0010658106 0.0055472013 -0.0020134388
0.0012154875 0.0051604742 -0.0020760286
0.0015638346 0.0050448487 -0.0020571607
0.00062010786 0.0060514938 -0.0016830959
0.00061235653 0.0060514929 -0.00077368144
0.0011045672 0.0045915167 -0.00045800081
0.0012187235 0.0046306611 -0.00080247619
0.00021490919 0.0056613483 -0.0020502347
-0.0015364281 0.0045635561 -0.0030294512
-0.0015355254 0.0042249123 -0.0030678317
-0.00026160837 0.0047131814 -0.002742128
0.00023254067 0.0047131791 -0.0027421282
-0.0015433063 0.0037394508 -0.0031292571
-0.0016589222 0.0032637836 -0.0027228643
-0.0016391268 0.0027348078 -0.0027144058
-0.0017440512 0.0032584916 -0.0017511181
-0.0017389011 0.0022402126 -0.0022407158
-0.0017389028 0.0017456216 -0.0022407158
-0.0017389019 0.0012510282 -0.002240716
-0.0017440532 -0.00075643626 -0.0017511166
0.00071306777 0.0017565853 -0.0035848906
-0.00070279976 0.0017550451 -0.0036041813
0.00075575634 -0.0060805781 -0.0027421371
0.0007557561 -0.0060805767 -0.0022466211
-0.0016344402 -0.003760861 -0.0026793862
-0.0016485217 -0.0027417291 -0.0026068003
-0.0017389032 0.00075643603 -0.0022407158
-0.0016175243 -0.0012373385 -0.002610116
-0.0015187798 0.0028148168 -0.0030336156
-0.0011832041 0.0017626233 -0.0031933
-0.00052321603 -0.0018329038 -0.0035291295
0.001511513 -0.0019492786 -0.0030336154
0.00158522 -0.0017684819 -0.002704659
0.0010889705 -0.003750961 -0.0035575668
0.00032767068 -0.004731697 -0.0036059732
0.00027293677 -0.0042388909 -0.0003943654
0.00031974327 -0.0052244016 -0.0004144687
0.0015696482 -0.0047422755 -0.00088638649
0.001667948 -0.0042476798 -0.0012863278
0.0015910666 0.00079675962 -0.0027099203
0.00021270628 -0.0022405575 -0.0036061706
0.00021533109 -0.0017512938 -0.0036017352
0.00061970844 -0.0012645269 -0.00357781
0.0011838423 -0.0012616096 -0.0030813089
0.0011559667 -0.00076211349 -0.0030808877
0.0017391926 0.0022402119 -0.0022417461
0.0016755379 -0.0027348089 -0.0012909856
0.0017440527 0.00023274965 -0.0017511173
0.0017410954 0.00023440467 -0.0022253261
0.0017427419 -0.00026053007 -0.0022176744
-0.00074646052 -0.00026065941 -0.00037573394
-0.00026576078 0.00024864133 -0.003598202
-0.00026160813 -0.00026184352 -0.003587425
-0.00074378715 0.0032584949 -0.0036114291
-0.00074378698 0.0027348083 -0.0036114305
-0.0017295196 0.0037484972 -0.0022393325
-0.0002828303 0.0046704994 -0.0031579793
-0.00071513205 0.0056217462 -0.0020464505
-0.00074380299 0.0042439802 -0.0003315775
-0.00026160834 0.0022402159 -0.0036165717
0.0016183567 0.0022284212 -0.003033615
0.00045345398 0.0037181766 -0.0035582781
0.0015885313 0.0037610575 -0.0031206862
0.0015841823 0.0027493553 -0.0030548123
0.0017440538 -0.0047422778 -0.0017511151
0.0016825345 0.0046990183 -0.0017693096
0.0012345765 0.0046751187 -0.0027202077
0.00063464179 0.0060514943 -0.0012928378
0.00072106323 0.0058985073 -0.00077300717
0.0016887757 -0.0017456219 -0.0012861702
0.0016887751 -0.0012510282 -0.001286173
0.0016887769 -0.0007564362 -0.0012861711
-0.0016540494 0.0022317984 -0.0027198894
-0.00166614 0.0037542854 -0.0027268059
-0.0017440509 0.0017456216 -0.0017511172
-0.001744051 -0.00026184338 -0.0017511147
-0.0016232285 -0.00073766639 -0.0026431421
0.00021975083 0.0007605094 -0.0036095798
0.0010929403 -0.0042476822 -0.0035524485
0.0016180943 -0.0060708881 -0.0014596288
0.00075575639 -0.0060805776 -0.0017511075
-0.0011045672 0.0027594268 -0.0035291309
0.0012240942 -0.001754001 -0.0030839874
-0.00029067576 -0.0042391662 -0.003608515
0.00071320403 -0.004734179 -0.0035883267
0.0017440551 0.00075643603 -0.0017511173
-0.00024540248 -0.002241761 -0.0036049646
0.00058216997 -0.00077774463 -0.0035726465
0.001183408 -0.00027499543 -0.0030663528
0.00056197296 -0.00026184344 -0.0035638302
0.0017440551 -0.0017456219 -0.0017511162
0.001744053 -0.00026184335 -0.0017511151
0.0017440545 -0.00075643603 -0.001751116
0.0015260475 -0.0008000771 -0.0026255446
0.001511513 -8.7281136e-05 -0.002538101
0.00023158753 0.00023370367 -0.0035879025
-0.00026418068 -0.00076184329 -0.003594389
0.0016900711 0.00023690591 -0.0025381013
-0.00071813964 0.0045852549 -0.0003520085
0.0016381035 0.0022458951 -0.0027348879
0.0015852337 0.0032707239 -0.0030986669
0.0016665399 -0.0052368669 -0.002712979
0.0016788719 0.0046809637 -0.0022051877
0.0010979857 0.0056189294 -0.0018352522
0.001569648 0.0050623063 -0.0018676997
-0.0010622871 0.0022798891 -0.00352913
-0.0012210923 0.0022492774 -0.0032025869
0.00075575651 -0.0060805767 -0.0012555935
0.0002238773 -0.00076328201 -0.0035933685
0.0017440526 -0.0012510282 -0.001751115
0.0017374498 -0.0012517793 -0.0022213347
0.0016912032 0.00023461666 -0.0012824002
0.00023254048 -0.00026184352 -0.0035874248
-0.00026160816 0.002734808 -0.0036165742
-0.00073177839 0.0022453095 -0.003609427
0.0012150239 -0.0060676513 -0.0012938099
0.00023103706 -0.0012487724 -0.0035954653
0.0017344219 -0.0017467408 -0.0022291138
0.001737717 -0.00075725192 -0.0022166544
0.0016887755 -0.00026184338 -0.0012861723
0.00059519277 0.00025353095 -0.0035749329
0.0015517614 -0.0012845993 -0.0026703875
