# .PCD v0.7 - Point Cloud Data file format
VERSION 0.7
FIELDS x y z
SIZE 4 4 4
TYPE F F F
COUNT 1 1 1
WIDTH 1154
HEIGHT 1
VIEWPOINT 0 0 0 1 0 0 0
POINTS 1154
DATA ascii
0.0024426703 -0.0017670441 -0.0011642857
0.002127487 0.0021597205 -0.0011642857
0.0022062829 -0.0020811851 -0.0064285714
0.0022062829 -0.0020811851 -0.0011642857
0.0019698953 0.00098169118 -0.00014285714
0.002127487 0.0021597205 -0.0064285714
-0.0028366493 0.0010602265 -0.0050928569
0.0022850786 -0.0020026499 -0.0064285714
0.0022062829 0.0020811851 -0.0064285714
0.0019698953 0.0023167911 -0.0064285714
0.0020486913 -0.0022382557 -0.0064285714
0.0006303665 0.0027880028 -0.00077142857
0.00070916233 -0.0027880028 -0.00077142857
0.002127487 -0.0021597205 -0.0064285714
0.0020486913 0.0022382557 -0.0064285714
-0.0027578536 -0.0012958323 -0.0050928569
-0.0027578536 -0.001217297 -0.0050928569
0.0022850786 -0.0020026499 -0.0011642857
0.0022062829 0.0020811851 -0.0011642857
-0.0029154452 0.00082462054 -0.0050928569
0.00055157073 -0.0028665382 -0.00077142857
-0.0029154452 0.00074608525 -0.0050928569
0.002521466 0.0016885088 -0.0064285714
0.002521466 -0.0016099735 -0.0064285714
0.002521466 -0.0016885088 -0.0064285714
-0.0029154452 -0.00082462054 -0.0050928569
-0.0029154452 -0.00074608525 -0.0050928569
0.0004727749 0.0028665382 -0.00077142857
0.0026002619 -0.0015314382 -0.0064285714
0.0023638743 0.0018455794 -0.0064285714
0.0022850786 0.0020026499 -0.0064285714
-0.0028366493 -0.0010602265 -0.0050928569
0.00055157073 0.0028665382 -0.00077142857
0.0006303665 -0.0027880028 -0.00077142857
0.0024426703 0.0017670441 -0.0064285714
0.0024426703 -0.0017670441 -0.0064285714
-0.0018910996 -0.0023167911 -0.0063499999
-0.00055157073 0.0028665382 -0.00077142857
-0.0004727749 -0.0028665382 -0.00077142857
-0.0019698953 -0.0023167911 -0.0063499999
0.0027578536 0.001217297 -0.0011642857
-0.0018123038 -0.0023953263 -0.0063499999
0.0027578536 0.0012958323 -0.0011642857
0.0020486913 3.9267645e-05 -0.00014285714
-0.002127487 -0.0021597205 -0.0063499999
-0.0004727749 0.0028665382 -0.00077142857
-0.0022062829 0.0020811851 -0.0063499999
0.0027578536 -0.0011387618 -0.0011642857
0.0027578536 -0.001217297 -0.0011642857
-0.0020486913 -0.0022382557 -0.0063499999
0.002994241 -0.00027487351 -0.0051714284
0.002994241 -0.00043194409 -0.0051714284
0.002994241 -0.0003534088 -0.0051714284
-0.0016547121 0.0025523969 -0.0063499999
0.002994241 -0.00019633822 -0.0051714284
0.002994241 -0.00051047938 -0.0051714284
-0.0015759163 -0.0025523969 -0.0063499999
0.0029154452 -0.00082462054 -0.0011642857
-0.0014183247 -0.0026309323 -0.0063499999
0.0028366493 0.0010602265 -0.0011642857
-0.00055157073 -0.0028665382 -0.00077142857
-0.0014971205 0.0026309323 -0.0063499999
-0.0014971205 -0.0026309323 -0.0063499999
-0.001733508 -0.0024738617 -0.0063499999
0.0028366493 -0.00098169118 -0.0011642857
0.0028366493 -0.0010602265 -0.0011642857
0.0020486913 0.00011780293 -0.00014285714
-0.0018123038 0.0023953263 -0.0063499999
0.0028366493 -0.00090315583 -0.0011642857
0.002994241 0.00066754996 -0.0051714284
0.002994241 0.00051047938 -0.0051714284
0.002994241 0.00058901467 -0.0051714284
-0.0016547121 -0.0025523969 -0.0063499999
-0.001733508 0.0024738617 -0.0063499999
-0.00023638745 0.0028665382 -0.00077142857
-0.00031518325 0.0028665382 -0.00077142857
-0.00023638745 -0.0028665382 -0.00077142857
-0.0029154452 -0.00090315583 -0.0063499999
-0.0029154452 -0.00098169118 -0.0063499999
0.0026002619 -0.0015314382 -0.0011642857
0.002521466 0.0016885088 -0.0011642857
-0.00015759162 -0.0028665382 -0.00077142857
-0.0028366493 -0.0010602265 -0.0063499999
-0.0028366493 -0.0011387618 -0.0063499999
-0.0023638743 0.0019241147 -0.0063499999
-0.0022850786 -0.0020026499 -0.0063499999
-0.0023638743 -0.0018455794 -0.0063499999
0.0020486913 -3.9267645e-05 -0.00014285714
-0.0022850786 0.0020026499 -0.0063499999
0.0027578536 -0.0012958323 -0.0011642857
0.0026790577 0.0014529029 -0.0011642857
0.0026790577 0.0013743676 -0.0011642857
-0.0022062829 -0.0020811851 -0.0063499999
-0.00039397908 -0.0028665382 -0.00077142857
-0.002521466 -0.0016885088 -0.0063499999
0.0026790577 -0.0013743676 -0.0011642857
0.0020486913 -0.00051047938 -0.00014285714
0.0020486913 -0.00058901467 -0.00014285714
0.0020486913 -0.00066754996 -0.00014285714
0.0020486913 -0.00074608525 -0.00014285714
-0.0024426703 0.0018455794 -0.0063499999
-0.00039397908 0.0028665382 -0.00077142857
0.0020486913 -0.00011780293 -0.00014285714
0.0020486913 -0.00019633822 -0.00014285714
-0.00031518325 -0.0028665382 -0.00077142857
0.0020486913 -0.00027487351 -0.00014285714
-0.0024426703 -0.0017670441 -0.0063499999
0.0020486913 -0.00082462054 -0.00014285714
0.00078795815 -0.0029450734 -0.0060357144
0.00070916233 0.0029450734 -0.0060357144
0.0023638743 0.0018455794 -0.0052499999
0.00086675398 0.0028665382 -0.0060357144
0.00086675398 -0.0028665382 -0.0060357144
0.00078795815 0.0029450734 -0.0060357144
0.0006303665 -0.0029450734 -0.0060357144
0.00055157073 0.0029450734 -0.0060357144
0.0024426703 -0.0017670441 -0.0052499999
0.00070916233 -0.0029450734 -0.0060357144
0.0006303665 0.0029450734 -0.0060357144
0.00094554981 -0.0028665382 -0.0060357144
0.0011819372 -0.0027880028 -0.0060357144
-0.0016547121 0.0024738617 -0.00085000001
-0.0016547121 0.0025523969 -0.00085000001
0.0011031415 0.0028665382 -0.0060357144
0.0023638743 -0.0019241147 -0.0052499999
0.00094554981 0.0028665382 -0.0060357144
0.0011031415 -0.0027880028 -0.0060357144
-0.0015759163 -0.0025523969 -0.00085000001
-0.0015759163 -0.0024738617 -0.00085000001
0.0010243456 0.0028665382 -0.0060357144
7.8795812e-05 -0.0030236088 -0.0060357144
0 0.0030236088 -0.0060357144
0.002521466 -0.0016099735 -0.0052499999
-0.00094554981 -0.0029450734 -0.0010857143
0.002521466 -0.0016885088 -0.0052499999
0.00015759162 -0.0030236088 -0.0060357144
7.8795812e-05 0.0030236088 -0.0060357144
-7.8795812e-05 -0.0030236088 -0.0060357144
-0.00015759162 0.0030236088 -0.0060357144
-0.00015759162 -0.0030236088 -0.0060357144
-0.00023638745 0.0030236088 -0.0060357144
-7.8795812e-05 0.0030236088 -0.0060357144
0 -0.0030236088 -0.0060357144
0.0004727749 -0.0029450734 -0.0060357144
0.0004727749 0.0029450734 -0.0060357144
0.00055157073 -0.0029450734 -0.0060357144
0.00023638745 -0.0030236088 -0.0060357144
0.00015759162 0.0030236088 -0.0060357144
0.00031518325 0.0030236088 -0.0060357144
0.0024426703 0.0017670441 -0.0052499999
0.00031518325 -0.0030236088 -0.0060357144
0.00023638745 0.0030236088 -0.0060357144
0.002127487 0.0021597205 -0.0060357144
0.0022062829 -0.0020811851 -0.0060357144
0.002127487 -0.0021597205 -0.0060357144
0.0020486913 0.0022382557 -0.0052499999
-0.0018123038 -0.0023167911 -0.00085000001
0.0022062829 0.0020811851 -0.0060357144
0.0022850786 -0.0020026499 -0.0060357144
-0.0018910996 0.0023167911 -0.00085000001
-0.0018123038 -0.0023953263 -0.00085000001
0.0019698953 0.0023167911 -0.0060357144
0.0019698953 -0.0023167911 -0.0060357144
-0.001733508 -0.0023953263 -0.00085000001
0.0020486913 0.0022382557 -0.0060357144
-0.0018123038 0.0023167911 -0.00085000001
-0.0018123038 0.0023953263 -0.00085000001
0.0020486913 -0.0022382557 -0.0060357144
0.002127487 -0.0021597205 -0.0052499999
-0.001733508 -0.0024738617 -0.00085000001
-0.0019698953 0.0022382557 -0.00085000001
0.002521466 -0.0016099735 -0.0060357144
0.002521466 -0.0016885088 -0.0060357144
-0.0019698953 0.0023167911 -0.00085000001
-0.0018910996 -0.0023167911 -0.00085000001
0.0024426703 0.0017670441 -0.0060357144
0.0019698953 -0.0023167911 -0.0052499999
0.0026002619 -0.0015314382 -0.0060357144
0.002521466 0.0016885088 -0.0060357144
0.0022850786 0.0020026499 -0.0060357144
0.0019698953 0.0023167911 -0.0052499999
0.0024426703 -0.0017670441 -0.0060357144
0.0020486913 -0.0022382557 -0.0052499999
-0.00078795815 -0.0030236088 -0.0010857143
0.0023638743 0.0018455794 -0.0060357144
0.0014971205 -0.0026309323 -0.0060357144
0.0022062829 0.0020811851 -0.0052499999
0.0022850786 -0.0020026499 -0.0052499999
-0.00086675398 -0.0029450734 -0.0010857143
0.0022850786 0.0020026499 -0.0052499999
0.0013395288 -0.0027094674 -0.0060357144
0.002127487 0.0021597205 -0.0052499999
0.0022062829 -0.0020811851 -0.0052499999
0.0018123038 -0.0023953263 -0.0060357144
0.0018910996 0.0023953263 -0.0060357144
0.0018910996 -0.0023167911 -0.0060357144
0.0016547121 -0.0025523969 -0.0060357144
-0.001733508 0.0023953263 -0.00085000001
0.001733508 -0.0024738617 -0.0060357144
-0.001733508 0.0024738617 -0.00085000001
-0.0016547121 -0.0025523969 -0.00085000001
-0.0016547121 -0.0024738617 -0.00085000001
-0.0020486913 0.0022382557 -0.0060357144
0.002994241 0.00051047938 -0.0052499999
0.002994241 0.00058901467 -0.0052499999
0.002994241 0.00066754996 -0.0052499999
-0.0019698953 -0.0023167911 -0.0060357144
0.002994241 -0.00051047938 -0.0052499999
0.002994241 -0.00043194409 -0.0052499999
0.002994241 -0.0003534088 -0.0052499999
0.002994241 -0.00027487351 -0.0052499999
0.002994241 -0.00019633822 -0.0052499999
-0.0019698953 0.0023167911 -0.0060357144
-0.0022062829 0.0020811851 -0.0060357144
-0.002127487 -0.0021597205 -0.0060357144
-0.0014183247 0.0026309323 -0.00085000001
-0.0013395288 -0.0027094674 -0.00085000001
-0.0013395288 -0.0026309323 -0.00085000001
-0.0013395288 0.0027094674 -0.0010857143
-0.002127487 0.0021597205 -0.0060357144
-0.0020486913 -0.0022382557 -0.0060357144
-0.0016547121 -0.0025523969 -0.0060357144
0.0029154452 -0.00082462054 -0.0052499999
0.0029154452 -0.00074608525 -0.0052499999
-0.001733508 0.0024738617 -0.0060357144
-0.0015759163 -0.0025523969 -0.0060357144
-0.0016547121 0.0025523969 -0.0060357144
-0.0014971205 0.0026309323 -0.00085000001
-0.0014183247 -0.0026309323 -0.00085000001
-0.0018910996 0.0023167911 -0.0060357144
-0.0018123038 -0.0023953263 -0.0060357144
-0.001733508 -0.0024738617 -0.0060357144
-0.0018123038 0.0023953263 -0.0060357144
-0.0011819372 -0.0027880028 -0.0010857143
-0.0014971205 -0.0026309323 -0.0010857143
-0.0011819372 -0.0027880028 -0.00085000001
-0.001260733 0.0027094674 -0.00085000001
-0.0011819372 -0.0027094674 -0.00085000001
-0.0015759163 -0.0025523969 -0.0010857143
-0.002994241 0.00019633822 -0.0051714284
-0.002994241 0.00027487351 -0.0051714284
-0.002994241 0.0003534088 -0.0051714284
-0.002994241 0.00043194409 -0.0051714284
-0.0028366493 -0.0010602265 -0.0060357144
-0.0028366493 -0.0011387618 -0.0060357144
-0.002994241 0.00051047938 -0.0051714284
-0.002994241 -0.00051047938 -0.0051714284
-0.002994241 -0.00043194409 -0.0051714284
-0.002994241 -0.0003534088 -0.0051714284
-0.002994241 -0.00027487351 -0.0051714284
-0.002994241 -0.00019633822 -0.0051714284
-0.0011819372 0.0027094674 -0.00085000001
-0.0011819372 0.0027880028 -0.00085000001
-0.0011031415 -0.0027880028 -0.00085000001
0.0020486913 0.00082462054 -0.00014285714
0.0020486913 0.00074608525 -0.00014285714
0.0020486913 0.00066754996 -0.00014285714
0.0020486913 0.00058901467 -0.00014285714
0.0020486913 0.00051047938 -0.00014285714
0.0020486913 0.00043194409 -0.00014285714
-0.0023638743 0.0019241147 -0.0060357144
-0.0022850786 -0.0020026499 -0.0060357144
-0.0022062829 -0.0020811851 -0.0060357144
-0.0022850786 0.0020026499 -0.0060357144
-0.0013395288 -0.0027094674 -0.0010857143
-0.0014183247 -0.0026309323 -0.0010857143
-0.0014971205 0.0026309323 -0.0010857143
-0.002521466 -0.0016885088 -0.0060357144
-0.0024426703 0.0018455794 -0.0060357144
-0.0013395288 0.0026309323 -0.00085000001
-0.0013395288 0.0027094674 -0.00085000001
-0.001260733 -0.0027094674 -0.00085000001
-0.0024426703 -0.0017670441 -0.0060357144
-0.0006303665 -0.0029450734 -0.0060357144
-0.00070916233 0.0029450734 -0.0060357144
-0.00055157073 -0.0029450734 -0.0060357144
-0.0006303665 0.0029450734 -0.0060357144
0.0026002619 0.0015314382 -0.0052499999
-0.00078795815 -0.0029450734 -0.0060357144
-0.00086675398 0.0028665382 -0.0060357144
-0.0010243456 -0.0028665382 -0.0010857143
-0.00078795815 0.0029450734 -0.0060357144
-0.00070916233 -0.0029450734 -0.0060357144
0.0026790577 -0.0013743676 -0.0052499999
-0.00031518325 -0.0030236088 -0.0060357144
0.002521466 0.0016099735 -0.0052499999
0.002521466 0.0016885088 -0.0052499999
-0.00023638745 -0.0030236088 -0.0060357144
-0.00031518325 0.0030236088 -0.0060357144
-0.0004727749 -0.0029450734 -0.0060357144
-0.00055157073 0.0029450734 -0.0060357144
0.0026002619 -0.0015314382 -0.0052499999
-0.0004727749 0.0029450734 -0.0060357144
0.0028366493 -0.0010602265 -0.0052499999
0.0028366493 -0.00098169118 -0.0052499999
-0.0015759163 0.0025523969 -0.00085000001
0.0028366493 -0.00090315583 -0.0052499999
-0.0013395288 -0.0027094674 -0.0060357144
-0.0014971205 -0.0026309323 -0.00085000001
-0.0014971205 -0.0025523969 -0.00085000001
-0.0011031415 -0.0028665382 -0.0010857143
-0.0011819372 0.0027880028 -0.0010857143
-0.0014971205 -0.0026309323 -0.0060357144
-0.0015759163 0.0026309323 -0.0060357144
-0.0014183247 0.0027094674 -0.0060357144
0.0028366493 0.0010602265 -0.0052499999
-0.0014183247 -0.0026309323 -0.0060357144
-0.00094554981 -0.0028665382 -0.0060357144
0.0027578536 -0.0012958323 -0.0052499999
0.0027578536 -0.001217297 -0.0052499999
0.0027578536 -0.0011387618 -0.0052499999
-0.00094554981 0.0028665382 -0.0060357144
-0.00086675398 -0.0028665382 -0.0060357144
0.0026790577 0.0013743676 -0.0052499999
0.0027578536 0.001217297 -0.0052499999
0.0027578536 0.0012958323 -0.0052499999
-0.0011819372 -0.0027880028 -0.0060357144
-0.0010243456 -0.0028665382 -0.0060357144
-7.8795812e-05 -0.0030236088 -0.0059571429
-7.8795812e-05 0.0030236088 -0.0059571429
0.00031518325 -0.0030236088 -0.0059571429
0.00023638745 0.0030236088 -0.0059571429
0.00031518325 0.0030236088 -0.0059571429
7.8795812e-05 -0.0030236088 -0.0059571429
0 0.0030236088 -0.0059571429
0.00078795815 0.0029450734 -0.0052499999
0.00023638745 -0.0030236088 -0.0059571429
0.00015759162 0.0030236088 -0.0059571429
0.00086675398 -0.0028665382 -0.0052499999
0.00015759162 -0.0030236088 -0.0059571429
7.8795812e-05 0.0030236088 -0.0059571429
-0.00086675398 0.0028665382 -0.0059571429
-0.00094554981 0.0028665382 -0.0059571429
-0.00078795815 0.0029450734 -0.0059571429
-0.0010243456 -0.0028665382 -0.0059571429
0.00094554981 0.0028665382 -0.0052499999
0.0010243456 -0.0028665382 -0.0052499999
0.00094554981 -0.0028665382 -0.0052499999
0.00086675398 0.0028665382 -0.0052499999
-0.00070916233 0.0029450734 -0.0059571429
-0.0006303665 0.0029450734 -0.0059571429
0.001260733 0.0027880028 -0.0059571429
0.00055157073 0.0029450734 -0.0052499999
0.0006303665 -0.0029450734 -0.0052499999
0.0014183247 -0.0027094674 -0.0059571429
0.0013395288 0.0027094674 -0.0059571429
0.0006303665 0.0029450734 -0.0052499999
0.00070916233 -0.0029450734 -0.0052499999
0.0022062829 0.0020811851 -0.00092857145
0.0011819372 0.0027880028 -0.0059571429
0.0022062829 -0.0020811851 -0.00092857145
0.0004727749 0.0029450734 -0.0052499999
0.00055157073 -0.0029450734 -0.0052499999
0.0016547121 -0.0025523969 -0.0059571429
0.001733508 -0.0024738617 -0.0059571429
0.002127487 0.0021597205 -0.00092857145
0.0014971205 0.0026309323 -0.0059571429
0.0015759163 -0.0026309323 -0.0059571429
0.00078795815 -0.0029450734 -0.0052499999
0.00055157073 0.0029450734 -0.0059571429
0.0006303665 -0.0029450734 -0.0059571429
0.00078795815 -0.0029450734 -0.0059571429
0.00070916233 0.0029450734 -0.0059571429
0.00070916233 -0.0029450734 -0.0059571429
0.00070916233 0.0029450734 -0.0052499999
0.0006303665 0.0029450734 -0.0059571429
0.0004727749 -0.0029450734 -0.0059571429
0.00055157073 -0.0029450734 -0.0059571429
0.0004727749 0.0029450734 -0.0059571429
0.0010243456 -0.0028665382 -0.0059571429
0.00094554981 0.0028665382 -0.0059571429
0.0022850786 -0.0020026499 -0.00092857145
0.0010243456 0.0028665382 -0.0059571429
0.00078795815 0.0029450734 -0.0059571429
0.00086675398 -0.0028665382 -0.0059571429
0.00094554981 -0.0028665382 -0.0059571429
0.00086675398 0.0028665382 -0.0059571429
-0.0010243456 0.0003534088 -0.00014285714
-0.0010243456 0.00027487351 -0.00014285714
-0.0028366493 -0.001217297 -0.0059571429
-0.0028366493 -0.0012958323 -0.0059571429
-0.0010243456 -0.00058901467 -0.00014285714
-0.0029154452 0.00098169118 -0.0059571429
-0.00094554981 -0.0019241147 -0.00014285714
-0.00094554981 -0.0020026499 -0.00014285714
0.0014971205 0.0026309323 -0.0052499999
-0.0027578536 -0.0013743676 -0.0059571429
-0.00070916233 -0.0030236088 -0.0010857143
-0.0010243456 0.0019241147 -0.00014285714
-0.0010243456 0.0018455794 -0.00014285714
-0.0010243456 0.0017670441 -0.00014285714
0.0015759163 -0.0026309323 -0.0052499999
-0.0028366493 0.0011387618 -0.0059571429
-0.0028366493 0.0010602265 -0.0059571429
-0.0028366493 0.00082462054 -0.00085000001
-0.0028366493 0.00090315583 -0.00085000001
-0.0028366493 0.00098169118 -0.00085000001
-0.0028366493 0.0010602265 -0.00085000001
-0.0027578536 -0.0012958323 -0.00085000001
-0.0027578536 -0.001217297 -0.00085000001
-0.0027578536 -0.0011387618 -0.00085000001
-0.0027578536 -0.0010602265 -0.00085000001
-0.0027578536 0.0010602265 -0.00085000001
-0.0027578536 0.0011387618 -0.00085000001
-0.0027578536 0.001217297 -0.00085000001
-0.0027578536 0.0012958323 -0.00085000001
-0.0028366493 -0.00082462054 -0.00085000001
-0.0029154452 -0.00043194409 -0.00085000001
-0.0029154452 -0.00082462054 -0.00085000001
-0.0029154452 -0.00074608525 -0.00085000001
-0.0029154452 -0.00066754996 -0.00085000001
-0.0029154452 -0.00058901467 -0.00085000001
-0.0029154452 -0.00051047938 -0.00085000001
0.0016547121 -0.0025523969 -0.0052499999
-0.002994241 -0.00051047938 -0.00085000001
-0.002994241 -0.00043194409 -0.00085000001
-0.002994241 -0.0003534088 -0.00085000001
-0.002994241 -0.00027487351 -0.00085000001
-0.002994241 -0.00019633822 -0.00085000001
-0.002994241 -0.00011780293 -0.00085000001
-0.002994241 -3.9267645e-05 -0.00085000001
-0.002994241 3.9267645e-05 -0.00085000001
-0.002994241 0.00011780293 -0.00085000001
-0.002994241 0.00019633822 -0.00085000001
-0.002994241 0.00027487351 -0.00085000001
-0.002994241 0.0003534088 -0.00085000001
-0.002994241 0.00043194409 -0.00085000001
-0.002994241 0.00051047938 -0.00085000001
-0.002994241 -0.00019633822 -0.0059571429
-0.002994241 -0.00027487351 -0.0059571429
-0.002994241 -0.0003534088 -0.0059571429
-0.002994241 -0.00043194409 -0.0059571429
-0.002994241 -0.00051047938 -0.0059571429
-0.0028366493 -0.0010602265 -0.00085000001
-0.0028366493 -0.00098169118 -0.00085000001
-0.0028366493 -0.00090315583 -0.00085000001
-0.0029154452 0.00058901467 -0.00085000001
-0.0029154452 0.00066754996 -0.00085000001
-0.0029154452 0.00074608525 -0.00085000001
-0.0029154452 0.00082462054 -0.00085000001
-0.002994241 0.00051047938 -0.0059571429
-0.002994241 0.00043194409 -0.0059571429
-0.002994241 0.0003534088 -0.0059571429
-0.002994241 0.00027487351 -0.0059571429
-0.002994241 0.00019633822 -0.0059571429
0.0028366493 -0.0010602265 -0.00092857145
0.0028366493 -0.00098169118 -0.00092857145
0.0028366493 -0.00090315583 -0.00092857145
-0.002521466 -0.0016885088 -0.0059571429
0.0027578536 0.001217297 -0.00092857145
0.0027578536 0.0012958323 -0.00092857145
0.0014183247 -0.0027094674 -0.0052499999
0.0027578536 -0.0011387618 -0.00092857145
-0.0024426703 -0.0017670441 -0.0059571429
0.0026790577 0.0013743676 -0.00092857145
-0.00094554981 -0.00058901467 -0.00014285714
0.0027578536 -0.0012958323 -0.00092857145
0.0027578536 -0.001217297 -0.00092857145
0.0013395288 0.0027094674 -0.0052499999
-0.0026002619 -0.0016099735 -0.0059571429
0.0029154452 0.00082462054 -0.00092857145
0.0029154452 0.00074608525 -0.00092857145
0.002994241 -0.00051047938 -0.00092857145
0.002994241 -0.00043194409 -0.00092857145
0.002994241 -0.0003534088 -0.00092857145
0.002994241 -0.00027487351 -0.00092857145
0.002994241 -0.00019633822 -0.00092857145
0.002994241 -0.00011780293 -0.00092857145
-0.0026790577 -0.0015314382 -0.0059571429
0.002994241 0.00019633822 -0.00092857145
0.002994241 0.00027487351 -0.00092857145
0.002994241 0.0003534088 -0.00092857145
0.002994241 0.00043194409 -0.00092857145
0.002994241 0.00051047938 -0.00092857145
0.0029154452 -0.00082462054 -0.00092857145
0.0029154452 -0.00074608525 -0.00092857145
0.0029154452 -0.00066754996 -0.00092857145
0.0029154452 -0.00058901467 -0.00092857145
0.0028366493 0.0010602265 -0.00092857145
-0.0010243456 -0.0018455794 -0.00014285714
-0.0022062829 0.0020026499 -0.00085000001
-0.0022062829 0.0020811851 -0.00085000001
-0.002127487 -0.0021597205 -0.00085000001
-0.002127487 -0.0020811851 -0.00085000001
0.0028366493 -0.00090315583 -0.0060357144
0.0028366493 -0.00098169118 -0.0060357144
0.0028366493 -0.0010602265 -0.0060357144
0.0027578536 0.0012958323 -0.0060357144
0.0027578536 0.001217297 -0.0060357144
0.0018910996 -0.0023167911 -0.0052499999
-0.0022062829 -0.0020811851 -0.00085000001
-0.0022062829 -0.0020026499 -0.00085000001
0.0029154452 -0.00074608525 -0.0060357144
0.0029154452 -0.00082462054 -0.0060357144
0.0028366493 0.0010602265 -0.0060357144
0.0026790577 -0.0013743676 -0.0060357144
-0.0019698953 -0.0022382557 -0.00085000001
-0.0019698953 -0.0023167911 -0.00085000001
0.0018910996 0.0023953263 -0.0052499999
-0.0020486913 0.0021597205 -0.00085000001
-0.0020486913 0.0022382557 -0.00085000001
-0.002127487 0.0020811851 -0.00085000001
-0.002127487 0.0021597205 -0.00085000001
-0.0020486913 -0.0022382557 -0.00085000001
-0.0020486913 -0.0021597205 -0.00085000001
0.0027578536 -0.0011387618 -0.0060357144
0.0027578536 -0.001217297 -0.0060357144
0.0027578536 -0.0012958323 -0.0060357144
0.0026790577 0.0014529029 -0.0060357144
0.0026790577 0.0013743676 -0.0060357144
-0.0026002619 0.0013743676 -0.00085000001
-0.0026002619 0.0014529029 -0.00085000001
-0.0026002619 0.0015314382 -0.00085000001
-0.002521466 -0.0016885088 -0.00085000001
-0.002521466 -0.0016099735 -0.00085000001
-0.002521466 -0.0015314382 -0.00085000001
-0.002521466 0.0015314382 -0.00085000001
-0.002521466 0.0016099735 -0.00085000001
-0.002521466 0.0016885088 -0.00085000001
-0.0024426703 -0.0017670441 -0.00085000001
-0.0024426703 -0.0016885088 -0.00085000001
-0.0026790577 0.001217297 -0.00085000001
-0.0026790577 0.0012958323 -0.00085000001
-0.0026790577 0.0013743676 -0.00085000001
0.001733508 -0.0024738617 -0.0052499999
-0.0010243456 -0.0019241147 -0.00014285714
-0.0026790577 -0.0013743676 -0.00085000001
-0.0026790577 -0.0012958323 -0.00085000001
-0.0026790577 -0.001217297 -0.00085000001
-0.0026002619 -0.0015314382 -0.00085000001
-0.0026002619 -0.0014529029 -0.00085000001
-0.0026002619 -0.0013743676 -0.00085000001
-0.0022850786 -0.0018455794 -0.00085000001
0.002994241 -0.0003534088 -0.0060357144
0.002994241 -0.00043194409 -0.0060357144
0.002994241 -0.00051047938 -0.0060357144
-0.0022850786 -0.0020026499 -0.00085000001
-0.0022850786 -0.0019241147 -0.00085000001
0.002994241 -0.00027487351 -0.0060357144
-0.0023638743 0.0017670441 -0.00085000001
-0.0023638743 0.0018455794 -0.00085000001
0.002994241 0.00066754996 -0.0060357144
0.002994241 0.00058901467 -0.0060357144
0.002994241 0.00051047938 -0.0060357144
0.002994241 -0.00011780293 -0.0060357144
0.002994241 -0.00019633822 -0.0060357144
-0.0022850786 0.0018455794 -0.00085000001
-0.0022850786 0.0019241147 -0.00085000001
-0.0022850786 0.0020026499 -0.00085000001
-0.0024426703 0.0016885088 -0.00085000001
-0.0024426703 0.0017670441 -0.00085000001
-0.0023638743 -0.0018455794 -0.00085000001
-0.0023638743 -0.0017670441 -0.00085000001
0.0018123038 -0.0023953263 -0.0052499999
-0.0014971205 -0.0026309323 -0.0059571429
-0.0014183247 -0.0026309323 -0.0059571429
0.0023638743 -0.0018455794 -0.00092857145
-0.0014971205 0.0026309323 -0.0059571429
-0.001733508 0.0024738617 -0.0059571429
0.0024426703 -0.0017670441 -0.00092857145
-0.001733508 -0.0024738617 -0.0059571429
0.0023638743 0.0018455794 -0.00092857145
-0.0018123038 0.0023953263 -0.0059571429
-0.0015759163 -0.0025523969 -0.0059571429
-0.0016547121 0.0025523969 -0.0059571429
-0.0016547121 -0.0025523969 -0.0059571429
-0.0011819372 -0.0027880028 -0.0059571429
-0.0011031415 -0.0028665382 -0.0059571429
-0.0011819372 0.0027880028 -0.0059571429
-0.0013395288 -0.0027094674 -0.0059571429
0.0022850786 0.0020026499 -0.00092857145
0.0010243456 0.0028665382 -0.0052499999
-0.0013395288 0.0027094674 -0.0059571429
-0.0022062829 -0.0020811851 -0.0059571429
-0.0022850786 -0.0020026499 -0.0059571429
0.002521466 0.0016099735 -0.00092857145
0.002521466 0.0016885088 -0.00092857145
0.0026002619 -0.0015314382 -0.00092857145
-0.002127487 -0.0021597205 -0.0059571429
0.001260733 0.0027880028 -0.0052499999
0.0026002619 0.0015314382 -0.00092857145
0.0026790577 -0.0013743676 -0.00092857145
-0.0023638743 -0.0018455794 -0.0059571429
-0.0018910996 -0.0023167911 -0.0059571429
-0.0019698953 0.0023167911 -0.0059571429
-0.0018123038 -0.0023953263 -0.0059571429
0.0011819372 0.0027880028 -0.0052499999
-0.0020486913 -0.0022382557 -0.0059571429
-0.0019698953 -0.0023167911 -0.0059571429
0.0024426703 0.0017670441 -0.00092857145
0.002521466 -0.0016885088 -0.00092857145
0.002521466 -0.0016099735 -0.00092857145
-0.002127487 -0.0021597205 -0.0061142859
-0.0022062829 0.0020811851 -0.0061142859
-0.002127487 0.0021597205 -0.0061142859
-0.0020486913 -0.0022382557 -0.0061142859
-0.0014183247 -0.0026309323 -0.0051714284
0.00070916233 -0.0029450734 -0.0061928569
-0.0023638743 0.0019241147 -0.0061142859
-0.0022850786 -0.0020026499 -0.0061142859
0.0006303665 0.0029450734 -0.0061928569
-0.0022062829 -0.0020811851 -0.0010857143
-0.0022062829 -0.0020811851 -0.0061142859
-0.0022850786 0.0020026499 -0.0061142859
0.00015759162 -0.0029450734 -0.00085000001
7.8795812e-05 0.0030236088 -0.00085000001
0.00015759162 -0.0030236088 -0.00085000001
0.0006303665 -0.0029450734 -0.0061928569
-0.0018910996 0.0023167911 -0.0061142859
0 0.0030236088 -0.00085000001
0.00055157073 0.0029450734 -0.0061928569
-0.0018123038 -0.0023953263 -0.0061142859
-0.0020486913 0.0022382557 -0.0061142859
-0.00070916233 -0.0029450734 -0.0051714284
-0.0014971205 -0.0026309323 -0.0051714284
-0.00078795815 0.0029450734 -0.0051714284
7.8795812e-05 -0.0030236088 -0.00085000001
-0.0019698953 0.0023167911 -0.0061142859
-0.0015759163 0.0026309323 -0.0051714284
-0.0019698953 -0.0023167911 -0.0061142859
0.00078795815 -0.0029450734 -0.0061928569
0.00023638745 0.0030236088 -0.00085000001
-0.0013395288 -0.0027094674 -0.0051714284
0.00031518325 -0.0030236088 -0.00085000001
0.00031518325 -0.0029450734 -0.00085000001
0.00070916233 0.0029450734 -0.0061928569
0.00023638745 0.0029450734 -0.00085000001
-0.0014183247 0.0027094674 -0.0051714284
-0.0022850786 0.0020026499 -0.0010857143
-0.0026790577 0.0014529029 -0.0061142859
-0.0028366493 0.0011387618 -0.0061142859
0.00039397908 -0.0029450734 -0.00085000001
0.00031518325 0.0029450734 -0.00085000001
0.00031518325 0.0030236088 -0.00085000001
-0.0028366493 -0.0010602265 -0.0061142859
-0.0028366493 -0.0011387618 -0.0061142859
-0.0024426703 -0.0017670441 -0.0061142859
-0.002521466 -0.0016885088 -0.0061142859
0.00015759162 0.0030236088 -0.00085000001
0.00023638745 -0.0030236088 -0.00085000001
0.00023638745 -0.0029450734 -0.00085000001
0.00015759162 0.0029450734 -0.00085000001
-0.0011819372 -0.0027880028 -0.0061142859
0.0013395288 0.0027094674 -0.00085000001
0.0004727749 -0.0029450734 -0.0061928569
-0.002127487 -0.0021597205 -0.0010857143
-0.0018123038 -0.0023953263 -0.0051714284
-0.00094554981 -0.0028665382 -0.0061142859
0.00031518325 0.0030236088 -0.0061928569
-0.00094554981 0.0028665382 -0.0061142859
-0.0018910996 -0.0023167911 -0.0051714284
-0.0010243456 -0.0028665382 -0.0061142859
-0.0019698953 0.0023167911 -0.0051714284
-0.0016547121 0.0025523969 -0.0061142859
-0.0015759163 -0.0025523969 -0.0061142859
-0.0015759163 -0.0025523969 -0.0051714284
-0.0018123038 0.0023953263 -0.0061142859
-0.001733508 -0.0024738617 -0.0061142859
-0.001733508 0.0024738617 -0.0061142859
-0.0016547121 -0.0025523969 -0.0061142859
-0.0016547121 0.0025523969 -0.0051714284
-0.0022062829 0.0020811851 -0.0010857143
0.0013395288 0.0026309323 -0.00085000001
0.00055157073 -0.0029450734 -0.0061928569
-0.001733508 -0.0024738617 -0.0051714284
0.0004727749 0.0029450734 -0.0061928569
-0.0014183247 0.0027094674 -0.0061142859
-0.0013395288 -0.0027094674 -0.0061142859
-0.0016547121 -0.0025523969 -0.0051714284
-0.0014971205 -0.0026309323 -0.0061142859
-0.0015759163 0.0026309323 -0.0061142859
-0.0014183247 -0.0026309323 -0.0061142859
-7.8795812e-05 0.0030236088 -0.00085000001
0 -0.0030236088 -0.00085000001
0.0011031415 -0.0027880028 -0.0061928569
0.0018910996 0.0023953263 -0.0061928569
0.0019698953 -0.0023167911 -0.0061928569
0.001260733 -0.0027094674 -0.00085000001
0.0020486913 -0.0022382557 -0.0061928569
0.0011819372 0.0027094674 -0.00085000001
0.0011819372 0.0027880028 -0.00085000001
0.0019698953 0.0023167911 -0.0061928569
0.0010243456 0.0028665382 -0.0061928569
0.0018123038 -0.0023953263 -0.0061928569
0.0018910996 -0.0023167911 -0.0061928569
0.0022850786 -0.0020026499 -0.0061928569
0.0022062829 0.0020811851 -0.0061928569
0.0011031415 0.0027880028 -0.00085000001
0.0011819372 -0.0027880028 -0.00085000001
0.0011819372 -0.0027094674 -0.00085000001
0.0023638743 -0.0018455794 -0.0061928569
0.0022850786 0.0020026499 -0.0061928569
0.002127487 -0.0021597205 -0.0061928569
-0.0010243456 -0.0028665382 -0.0051714284
0.0020486913 0.0022382557 -0.0061928569
0.0022062829 -0.0020811851 -0.0061928569
0.002127487 0.0021597205 -0.0061928569
-0.00094554981 0.0028665382 -0.0051714284
0.0014183247 -0.0027094674 -0.0061928569
0.0013395288 0.0027094674 -0.0061928569
0.0013395288 -0.0027094674 -0.0061928569
0.0011819372 -0.0027880028 -0.0061928569
0.0011819372 0.0027880028 -0.0061928569
0.001260733 0.0027880028 -0.0061928569
0.0016547121 -0.0025523969 -0.0061928569
0.001733508 -0.0024738617 -0.0061928569
0.0014971205 -0.0026309323 -0.0061928569
-0.00086675398 -0.0028665382 -0.0051714284
0.0015759163 -0.0026309323 -0.0061928569
0.001260733 0.0027094674 -0.00085000001
-0.00094554981 -0.0028665382 -0.0051714284
0.0013395288 -0.0027094674 -0.00085000001
0.0013395288 -0.0026309323 -0.00085000001
0.0014971205 0.0026309323 -0.0061928569
0.00070916233 -0.0028665382 -0.00085000001
0.0006303665 0.0028665382 -0.00085000001
0.0006303665 0.0029450734 -0.00085000001
0.00070916233 -0.0029450734 -0.00085000001
-0.00086675398 0.0028665382 -0.0051714284
-0.0011819372 -0.0027880028 -0.0051714284
-0.00078795815 -0.0029450734 -0.0051714284
0.00055157073 0.0029450734 -0.00085000001
0.0006303665 -0.0029450734 -0.00085000001
0.0006303665 -0.0028665382 -0.00085000001
0.002994241 0.00066754996 -0.0061928569
0.002994241 0.00058901467 -0.0061928569
0.002994241 0.00051047938 -0.0061928569
0.002994241 -0.00011780293 -0.0061928569
0.002994241 -0.00019633822 -0.0061928569
0.002994241 -0.00027487351 -0.0061928569
0.002994241 -0.0003534088 -0.0061928569
0.002994241 -0.00043194409 -0.0061928569
0.002994241 -0.00051047938 -0.0061928569
0.00070916233 0.0028665382 -0.00085000001
0.00070916233 0.0029450734 -0.00085000001
0.00078795815 -0.0029450734 -0.00085000001
0.00078795815 -0.0028665382 -0.00085000001
0.00039397908 0.0029450734 -0.00085000001
0.0004727749 -0.0029450734 -0.00085000001
-0.002994241 -0.00019633822 -0.0061142859
-0.002994241 -0.00027487351 -0.0061142859
-0.002994241 -0.0003534088 -0.0061142859
-0.002994241 -0.00043194409 -0.0061142859
-0.002994241 -0.00051047938 -0.0061142859
-0.002994241 0.00090315583 -0.0061142859
-0.002994241 0.00082462054 -0.0061142859
-0.002994241 0.00074608525 -0.0061142859
-0.0029154452 -0.00090315583 -0.0061142859
-0.0029154452 -0.00098169118 -0.0061142859
0.00086675398 -0.0028665382 -0.0061928569
0.0004727749 0.0029450734 -0.00085000001
0.00055157073 -0.0029450734 -0.00085000001
0.00078795815 0.0029450734 -0.0061928569
0.002521466 0.0016885088 -0.0061928569
0.002521466 -0.0016885088 -0.0061928569
0.0026002619 -0.0015314382 -0.0061928569
0.0024426703 -0.0017670441 -0.0061928569
0.0023638743 0.0018455794 -0.0061928569
0.0010243456 0.0027880028 -0.00085000001
0.0011031415 -0.0027880028 -0.00085000001
0.00094554981 0.0028665382 -0.0061928569
0.0024426703 0.0017670441 -0.0061928569
0.00094554981 -0.0028665382 -0.0061928569
0.0028366493 -0.00090315583 -0.0061928569
0.0028366493 -0.00098169118 -0.0061928569
0.0028366493 -0.0010602265 -0.0061928569
0.00086675398 0.0028665382 -0.0061928569
0.00086675398 0.0028665382 -0.00085000001
0.00094554981 -0.0028665382 -0.00085000001
0.00086675398 -0.0028665382 -0.00085000001
0.0029154452 -0.00082462054 -0.0061928569
0.00078795815 0.0028665382 -0.00085000001
0.00078795815 0.0029450734 -0.00085000001
0.0029154452 -0.00074608525 -0.0061928569
0.0028366493 0.0010602265 -0.0061928569
0.0026790577 0.0014529029 -0.0061928569
0.0026790577 0.0013743676 -0.0061928569
0.00094554981 0.0027880028 -0.00085000001
0.00094554981 0.0028665382 -0.00085000001
0.0010243456 -0.0027880028 -0.00085000001
0.0026790577 -0.0013743676 -0.0061928569
0.0026790577 -0.0014529029 -0.0061928569
0.00094554981 -0.0027880028 -0.00085000001
0.0027578536 -0.0011387618 -0.0061928569
0.0027578536 0.0012958323 -0.0061928569
0.0027578536 0.001217297 -0.0061928569
0.0027578536 -0.001217297 -0.0061928569
0.0027578536 -0.0012958323 -0.0061928569
0.0019698953 0.0023167911 -0.0061142859
0.0020486913 -0.0022382557 -0.0061142859
0.0020486913 0.0022382557 -0.0061142859
0.0018910996 -0.0023167911 -0.0061142859
0.0018910996 0.0023953263 -0.0061142859
0.0019698953 -0.0023167911 -0.0061142859
-0.002521466 -0.0016885088 -0.0051714284
0.0022850786 0.0020026499 -0.0061142859
0.0022850786 -0.0020026499 -0.0061142859
-0.0026002619 -0.0015314382 -0.0051714284
0.0014183247 -0.0026309323 -0.00085000001
-7.8795812e-05 0.0030236088 -0.0061928569
-0.0026002619 0.0015314382 -0.0051714284
-0.00031518325 0.0030236088 -0.00085000001
-0.00031518325 0.0029450734 -0.00085000001
-0.00023638745 -0.0030236088 -0.00085000001
0.002127487 0.0021597205 -0.0061142859
0.002127487 -0.0021597205 -0.0061142859
-0.00023638745 -0.0029450734 -0.00085000001
0.0022062829 0.0020811851 -0.0061142859
0.0022062829 -0.0020811851 -0.0061142859
-0.0018910996 -0.0023167911 -0.0010857143
-0.0019698953 0.0023167911 -0.0010857143
0 0.0030236088 -0.0061928569
7.8795812e-05 -0.0030236088 -0.0061928569
-0.0024426703 -0.0017670441 -0.0051714284
0.0013395288 -0.0027094674 -0.0061142859
-0.00023638745 0.0029450734 -0.00085000001
0.0018123038 -0.0023953263 -0.0061142859
-0.00023638745 0.0030236088 -0.00085000001
-0.00015759162 -0.0030236088 -0.00085000001
-0.00015759162 -0.0029450734 -0.00085000001
0.001733508 -0.0024738617 -0.0061142859
-0.002521466 0.0016885088 -0.0051714284
0.0014971205 -0.0026309323 -0.0061142859
0.0016547121 -0.0025523969 -0.0061142859
-0.0028366493 0.0010602265 -0.0051714284
-0.00086675398 0.0028665382 -0.00085000001
-0.00078795815 -0.0029450734 -0.00085000001
-0.00078795815 -0.0028665382 -0.00085000001
-0.0028366493 -0.0010602265 -0.0051714284
-0.00070916233 0.0028665382 -0.00085000001
-0.00070916233 0.0029450734 -0.00085000001
-0.0006303665 -0.0029450734 -0.00085000001
-0.0006303665 -0.0028665382 -0.00085000001
0.002994241 -0.00043194409 -0.0061142859
0.002994241 -0.00051047938 -0.0061142859
0.002994241 0.00066754996 -0.0061142859
0.002994241 0.00058901467 -0.0061142859
0.002994241 0.00051047938 -0.0061142859
0.002994241 -0.00011780293 -0.0061142859
0.002994241 -0.00019633822 -0.0061142859
0.002994241 -0.00027487351 -0.0061142859
0.002994241 -0.0003534088 -0.0061142859
-0.00070916233 -0.0028665382 -0.00085000001
-0.00078795815 0.0028665382 -0.00085000001
-0.00078795815 0.0029450734 -0.00085000001
-0.00070916233 -0.0029450734 -0.00085000001
-0.001733508 -0.0024738617 -0.0010857143
-0.0027578536 -0.0012958323 -0.0051714284
-0.0027578536 -0.001217297 -0.0051714284
-0.0029154452 -0.00090315583 -0.0060357144
-0.0029154452 -0.00098169118 -0.0060357144
-0.0011031415 0.0027880028 -0.00085000001
-0.0010243456 -0.0027880028 -0.00085000001
-0.0016547121 0.0025523969 -0.0010857143
-0.00023638745 0.0030236088 -0.0061928569
-0.0029154452 -0.00082462054 -0.0051714284
-0.0016547121 -0.0025523969 -0.0010857143
-0.001733508 0.0024738617 -0.0010857143
-0.00094554981 0.0028665382 -0.00085000001
-0.00086675398 -0.0028665382 -0.00085000001
-0.00094554981 0.0027880028 -0.00085000001
-0.0010243456 0.0027880028 -0.00085000001
-0.0029154452 -0.00074608525 -0.0051714284
-0.002994241 0.00090315583 -0.0060357144
-0.002994241 0.00082462054 -0.0060357144
-0.002994241 -0.00019633822 -0.0060357144
-0.002994241 -0.00027487351 -0.0060357144
-0.002994241 -0.0003534088 -0.0060357144
-0.002994241 -0.00043194409 -0.0060357144
-0.002994241 -0.00051047938 -0.0060357144
-0.00094554981 -0.0028665382 -0.00085000001
-0.00094554981 -0.0027880028 -0.00085000001
-0.0029154452 0.00074608525 -0.0051714284
-0.0029154452 0.00082462054 -0.0051714284
0.0026002619 -0.0015314382 -0.0061142859
-0.0004727749 0.0029450734 -0.00085000001
-0.00039397908 -0.0029450734 -0.00085000001
0.002521466 0.0016885088 -0.0061142859
-0.0026790577 0.0013743676 -0.0051714284
-0.0026790577 0.0014529029 -0.0051714284
0.0026790577 -0.0013743676 -0.0061142859
-0.00039397908 0.0029450734 -0.00085000001
-0.00031518325 -0.0030236088 -0.00085000001
-0.00031518325 -0.0029450734 -0.00085000001
0.0023638743 0.0018455794 -0.0061142859
0.0024426703 -0.0017670441 -0.0061142859
-0.0018123038 -0.0023953263 -0.0010857143
-0.0018910996 0.0023167911 -0.0010857143
0.002521466 -0.0016099735 -0.0061142859
0.002521466 -0.0016885088 -0.0061142859
0.0024426703 0.0017670441 -0.0061142859
-7.8795812e-05 -0.0030236088 -0.0061928569
-0.0006303665 0.0029450734 -0.00085000001
-0.00055157073 -0.0029450734 -0.00085000001
0.0028366493 0.0010602265 -0.0061142859
0.0029154452 -0.00074608525 -0.0061142859
0.0029154452 -0.00082462054 -0.0061142859
-0.00015759162 0.0030236088 -0.0061928569
-0.0027578536 0.001217297 -0.0051714284
-0.0027578536 0.0012958323 -0.0051714284
-0.0018123038 0.0023953263 -0.0010857143
0.0027578536 -0.0011387618 -0.0061142859
0.0027578536 -0.001217297 -0.0061142859
0.0027578536 -0.0012958323 -0.0061142859
-0.00055157073 0.0029450734 -0.00085000001
-0.0004727749 -0.0029450734 -0.00085000001
0.0026790577 0.0013743676 -0.0061142859
0.0026790577 0.0014529029 -0.0061142859
0.0028366493 -0.00090315583 -0.0061142859
0.0028366493 -0.00098169118 -0.0061142859
0.0028366493 -0.0010602265 -0.0061142859
0.0027578536 0.001217297 -0.0061142859
-0.0026790577 -0.0013743676 -0.0051714284
0.0027578536 0.0012958323 -0.0061142859
-0.00023638745 -0.0030236088 -0.0061142859
-0.00031518325 0.0030236088 -0.0061142859
-0.00015759162 -0.0030236088 -0.0061142859
-0.00023638745 0.0030236088 -0.0061142859
-0.002127487 -0.0021597205 -0.0051714284
-0.0022062829 0.0020811851 -0.0051714284
-0.00031518325 -0.0030236088 -0.0061142859
0 -0.0030236088 -0.0061142859
-0.0022850786 0.0020026499 -0.0051714284
-7.8795812e-05 0.0030236088 -0.0061142859
7.8795812e-05 -0.0030236088 -0.0061142859
0 0.0030236088 -0.0061142859
-0.00015759162 0.0030236088 -0.0061142859
-0.0022062829 -0.0020811851 -0.0051714284
0.00015759162 0.0030236088 -0.0061928569
0.00023638745 -0.0030236088 -0.0061928569
-0.0020486913 0.0022382557 -0.0010857143
-7.8795812e-05 -0.0030236088 -0.0061142859
-0.00070916233 -0.0029450734 -0.0061142859
-0.00078795815 0.0029450734 -0.0061142859
-0.00070916233 0.0029450734 -0.0061142859
-0.0020486913 0.0022382557 -0.0051714284
-0.0019698953 -0.0023167911 -0.0051714284
-0.00086675398 -0.0028665382 -0.0061142859
-0.0006303665 -0.0029450734 -0.0051714284
-0.00086675398 0.0028665382 -0.0061142859
-0.00070916233 0.0029450734 -0.0051714284
-0.00078795815 -0.0029450734 -0.0061142859
-0.0004727749 -0.0029450734 -0.0061142859
-0.00055157073 0.0029450734 -0.0061142859
0.00023638745 0.0030236088 -0.0061928569
-0.0004727749 0.0029450734 -0.0061142859
-0.0006303665 -0.0029450734 -0.0061142859
0.00031518325 -0.0030236088 -0.0061928569
-0.002127487 0.0021597205 -0.0051714284
-0.00055157073 -0.0029450734 -0.0061142859
-0.0020486913 -0.0022382557 -0.0010857143
-0.002127487 0.0021597205 -0.0010857143
-0.0006303665 0.0029450734 -0.0061142859
-0.0020486913 -0.0022382557 -0.0051714284
0.00078795815 -0.0029450734 -0.0061142859
0.00070916233 0.0029450734 -0.0061142859
-0.0023638743 -0.0019241147 -0.0051714284
0.00086675398 -0.0028665382 -0.0061142859
0.00078795815 0.0029450734 -0.0061142859
0.0006303665 -0.0029450734 -0.0061142859
0.00055157073 0.0029450734 -0.0061142859
0.00070916233 -0.0029450734 -0.0061142859
0.0006303665 0.0029450734 -0.0061142859
7.8795812e-05 0.0030236088 -0.0061928569
0.00015759162 -0.0030236088 -0.0061928569
0.0011031415 -0.0027880028 -0.0061142859
-0.00015759162 0.0030236088 -0.00085000001
0.0010243456 0.0028665382 -0.0061142859
0.0011819372 -0.0027880028 -0.0061142859
0.0011031415 0.0028665382 -0.0061142859
0.00086675398 0.0028665382 -0.0061142859
0.00094554981 -0.0028665382 -0.0061142859
-0.0006303665 0.0029450734 -0.0051714284
0.00094554981 0.0028665382 -0.0061142859
-0.0024426703 0.0017670441 -0.0051714284
-7.8795812e-05 -0.0030236088 -0.00085000001
0.00031518325 -0.0030236088 -0.0061142859
0.00023638745 0.0030236088 -0.0061142859
-0.0019698953 -0.0023167911 -0.0010857143
-0.0022850786 -0.0020026499 -0.0051714284
0.00031518325 0.0030236088 -0.0061142859
0.00015759162 -0.0030236088 -0.0061142859
7.8795812e-05 0.0030236088 -0.0061142859
0.00023638745 -0.0030236088 -0.0061142859
0.00015759162 0.0030236088 -0.0061142859
0.00055157073 -0.0029450734 -0.0061142859
0.0004727749 0.0029450734 -0.0061142859
0.0004727749 -0.0029450734 -0.0061142859
-0.0023638743 0.0019241147 -0.0051714284
-0.0024426703 0.0014529029 -0.0078428574
-0.0022850786 0.0021597205 -0.0049357144
-0.0024426703 0.0018455794 -0.0011642857
-0.0014183247 -0.00011780293 0.002292857
0.0011819372 -0.00011780293 0.0022142858
0.001260733 0.00066754996 -6.4285712e-05
0.002994241 -0.00066754996 -0.0020285714
-0.0023638743 -0.0020026499 -0.0011642857
-0.002994241 -0.00098169118 -0.0048571429
0.0011819372 -0.00027487351 -6.4285712e-05
0.0013395288 0.00066754996 -6.4285712e-05
0.0013395288 0.0003534088 -6.4285712e-05
0.00039397908 0.0030236088 -0.00030000001
-0.0023638743 0.0015314382 -0.0078428574
0.0011819372 -0.00011780293 0.00072142854
0.001260733 -0.00043194409 -6.4285712e-05
0.00039397908 0.0030236088 -0.0052499999
0.0018123038 -0.0013743676 -0.00022142858
-0.001260733 0.0028665382 -0.0050928569
-0.001260733 -0.0027880028 -0.0050928569
0.001260733 0.00058901467 -6.4285712e-05
-0.0011031415 -0.00019633822 0.00064285717
0.0011819372 -0.00043194409 -6.4285712e-05
-0.0015759163 -0.0023953263 -0.0078428574
-0.0015759163 -0.0024738617 -0.0078428574
0.0031518326 0.00019633822 -0.0048571429
-0.0023638743 0.0014529029 -0.0078428574
0.002994241 0.00090315583 -0.0048571429
-0.0018123038 0.0023953263 -0.0078428574
0.002994241 -0.00058901467 -0.0020285714
-0.0024426703 0.0015314382 -0.0078428574
0.00039397908 -0.0030236088 -0.0023428572
-0.0023638743 0.0019241147 -0.0077642859
-0.0024426703 -0.0017670441 -0.0078428574
0.0011819372 -0.0003534088 -6.4285712e-05
0.00039397908 0.0030236088 -0.0022642857
-0.001733508 0.0025523969 -0.0050928569
0.001260733 0.00019633822 0.0022142858
-0.0015759163 0.0023953263 -0.0078428574
0.0011819372 -0.00051047938 -6.4285712e-05
0.001260733 -0.0027880028 -0.0019499999
0.001260733 -0.00051047938 -6.4285712e-05
-0.0015759163 0.0023167911 -0.0078428574
0.0011819372 -0.00011780293 0.0021357143
-0.0023638743 -0.0016885088 -0.0078428574
0.0013395288 0.00027487351 -6.4285712e-05
-0.0011031415 -0.00019633822 0.0022142858
-0.002994241 -0.00066754996 -0.0048571429
0.001733508 0.0014529029 -0.00014285714
0.001260733 0.00074608525 -6.4285712e-05
0.002994241 0.00082462054 -0.0048571429
-0.0014183247 3.9267645e-05 0.002292857
0.001260733 0.0028665382 -0.0053285714
-0.0014971205 0.0027094674 -0.0050142859
0.001260733 -0.00011780293 0.00072142854
-0.0022850786 -0.0020811851 -0.0011642857
0.0019698953 -0.0010602265 -0.00022142858
-0.0011819372 0.0028665382 -0.0050928569
-0.0024426703 0.0012958323 -0.0078428574
-0.0020486913 -0.0003534088 -0.0079214284
-0.0022062829 0.0016099735 -0.0078428574
0.0029154452 0.00098169118 -0.0048571429
-0.0022062829 0.0015314382 -0.0078428574
-0.0029154452 -0.00090315583 -0.0018714286
0.0011819372 0.00043194409 -6.4285712e-05
0.0011819372 0.00051047938 -6.4285712e-05
0.0011819372 0.00058901467 -6.4285712e-05
-0.0019698953 0.00066754996 -0.0079214284
-0.0022062829 -0.0020026499 -0.0078428574
-0.0011031415 0.0028665382 -0.0050928569
0.00094554981 0.00051047938 -6.4285712e-05
0.0011031415 -0.0003534088 -6.4285712e-05
0.00086675398 0.00043194409 -6.4285712e-05
0.00086675398 0.0003534088 -6.4285712e-05
0.00094554981 0.00043194409 -6.4285712e-05
0.00094554981 0.0003534088 -6.4285712e-05
0.0013395288 0.00043194409 -6.4285712e-05
0.0030730367 -3.9267645e-05 -0.0020285714
0.0030730367 3.9267645e-05 -0.0020285714
0.0030730367 0.00011780293 -0.0020285714
0.0030730367 0.00019633822 -0.0020285714
0.0014183247 0.0027880028 -0.0053285714
0.002994241 0.00090315583 -0.0049357144
0.00094554981 0.00074608525 -6.4285712e-05
-0.0023638743 0.0013743676 -0.0078428574
-0.00055157073 0.0030236088 -0.0051714284
-0.0023638743 -0.0019241147 -0.0019499999
-0.0023638743 0.0012958323 -0.0078428574
-0.002127487 0.00066754996 -0.00014285714
0.00086675398 0.00066754996 -6.4285712e-05
-0.0029154452 -0.00098169118 -0.0018714286
0.00086675398 0.00058901467 -6.4285712e-05
0.0013395288 0.0027880028 -0.0053285714
0.00094554981 0.00066754996 -6.4285712e-05
0.0030730367 0.00027487351 -0.0020285714
0.00094554981 0.00058901467 -6.4285712e-05
0.002994241 0.00082462054 -0.0049357144
0.002994241 0.00074608525 -0.0049357144
0.0015759163 0.0027094674 -0.0053285714
-0.0023638743 0.001217297 -0.0078428574
-0.0023638743 0.0011387618 -0.0078428574
-0.0014183247 3.9267645e-05 0.00095714285
0.0016547121 0.0015314382 -0.00022142858
-0.0014183247 -0.00011780293 0.00095714285
0.0013395288 -3.9267645e-05 0.00025000001
-0.0004727749 -0.0030236088 -0.0051714284
-0.002994241 0.00058901467 -0.0048571429
-0.002994241 0.00066754996 -0.0048571429
-0.0027578536 -0.0015314382 -0.0048571429
-0.002127487 0.0018455794 -0.0078428574
-0.0027578536 -0.0014529029 -0.0048571429
-0.0020486913 0.00027487351 -0.0079214284
0.001260733 0.00019633822 0.00072142854
0.001260733 0.00051047938 -6.4285712e-05
-0.0024426703 0.0013743676 -0.0078428574
-0.0023638743 -0.0019241147 -0.0011642857
-0.0020486913 0.0003534088 -0.0079214284
-0.0011031415 -0.0028665382 -0.0050928569
0.001260733 0.00043194409 -6.4285712e-05
0.0018910996 -0.001217297 -0.00022142858
0.0013395288 0.00019633822 0.00072142854
-0.0011031415 -0.00019633822 0.00095714285
0.0014971205 0.0017670441 -0.00022142858
0.001260733 -0.0027880028 -0.0022642857
0.0013395288 0.00051047938 -6.4285712e-05
-0.0010243456 -0.00011780293 0.00064285717
-0.0018123038 0.0024738617 -0.0050928569
-0.0018123038 0.0025523969 -0.0050928569
0.002127487 -0.0003534088 -0.00022142858
0.0013395288 0.00019633822 0.0021357143
0.0013395288 -0.0027880028 -0.0021857142
-0.0013395288 -0.00019633822 0.00025000001
-0.0028366493 0.0013743676 -0.0048571429
-0.0024426703 0.001217297 -0.0078428574
0.0014971205 -0.0016885088 -0.00022142858
-0.0024426703 0.0011387618 -0.0078428574
0.0013395288 0.00058901467 -6.4285712e-05
0.0029154452 0.00098169118 -0.0020285714
0.0014971205 0.0027094674 -0.0053285714
0.00086675398 0.00027487351 -6.4285712e-05
0.0030730367 0.0003534088 -0.0020285714
-0.0023638743 -0.0019241147 -0.0077642859
-0.0028366493 0.001217297 -0.0048571429
-0.0010243456 0.0028665382 -0.0050928569
0.0014971205 -0.0027094674 -0.0021857142
0.0013395288 -0.0027880028 -0.0021071429
-0.002127487 0.0016885088 -0.0078428574
-0.0020486913 -0.00027487351 -0.0079214284
0.0026002619 0.0016099735 -0.0021071429
0.0011819372 0.0028665382 -0.0022642857
0.0029154452 0.00098169118 -0.0049357144
0.0013395288 -3.9267645e-05 0.0021357143
0.002127487 -0.00043194409 -0.00022142858
-0.0028366493 0.0012958323 -0.0048571429
0.001260733 0.0003534088 -6.4285712e-05
-0.002127487 0.0017670441 -0.0078428574
0.0019698953 0.0010602265 -0.00022142858
0.0030730367 0.00027487351 -0.0048571429
-0.0022850786 0.0020811851 -0.0049357144
0.0030730367 -0.00019633822 -0.0048571429
0.0030730367 0.00043194409 -0.0020285714
0.0026790577 0.0015314382 -0.0019499999
0.00094554981 0.00027487351 -6.4285712e-05
0.0030730367 0.0003534088 -0.0048571429
0.0030730367 0.00043194409 -0.0048571429
