# .PCD v0.7 - Point Cloud Data file format
VERSION 0.7
FIELDS x y z
SIZE 4 4 4
TYPE F F F
COUNT 1 1 1
WIDTH 1191
HEIGHT 1
VIEWPOINT 0 0 0 1 0 0 0
POINTS 1191
DATA ascii
0.0017139232 -0.025228066 -0.0056287204
0.001256877 -0.024738569 -0.0056097568
-0.0031830003 -0.026276993 -0.0056151748
-0.0038087179 -0.011766822 -0.0047753304
-0.0038087186 -0.0092251878 -0.0047753304
-0.0038087182 -0.0096958615 -0.0051546148
-0.0038087182 -0.0092251888 -0.0051546148
-0.0027613204 -0.027769705 -0.0056287213
-0.002323318 -0.027769703 -0.0056097563
-0.0022852307 0.023721913 -0.0056287213
-0.0012378334 0.021745088 -0.0055338996
-0.0012378334 0.024757395 -0.0055338996
-0.0017139232 0.025228068 -0.0056287213
-0.0032374104 0.023251237 -0.0056287204
-0.00057130773 0.028146239 -0.0036374775
-0.0031830005 -0.00028240369 -0.0047482383
-0.0031993235 -0.00074680103 -0.0047626877
-0.0032374104 0.0052715368 -0.0051546148
-0.0038087186 0.0072483635 -0.0042064036
-0.0027477182 0.0072752577 -0.005181707
-0.0012378334 0.0072483621 -0.0055338996
-0.0022852309 0.0077190353 -0.0052494365
-0.0022852309 0.0067776903 -0.0027840873
0.0037135 -0.024757395 -0.003732299
0.0037135002 -0.024192588 -0.0032581929
0.0037135 -0.023721913 -0.0032581931
0.0032374104 -0.024569126 -0.0028789083
0.0027613204 -0.024192587 -0.0028789085
0.0022852309 -0.023251239 -0.0056287209
0.0022998799 -0.022773327 -0.0056506027
-0.00028565389 -0.024192587 -0.0055338996
0 -0.023721915 -0.0055338992
0.0024756668 -0.015720474 -0.0024048029
-0.00028565386 -0.012708168 -0.0028789083
-0.0002856538 -0.012237496 -0.0028789085
0.00019043594 -0.012237496 -0.0028789085
0.0037135 -0.0096958615 -0.0027840873
0.0017139232 -0.028146239 -0.0052494365
0.0022852309 -0.028146239 -0.0052494365
-0.00028565389 -0.025698742 -0.0028789085
-0.00028565389 -0.028146239 -0.0042064041
0.0037134998 -0.027204895 -0.0037322987
0.0022852309 -0.025228068 -0.0032581927
0.0022852309 -0.025698738 -0.0032581931
0.0017139235 -0.025698738 -0.0032581934
0.0027613207 -0.022780567 -0.0028789085
0.0032374104 -0.022780567 -0.0028789085
0.0027613204 -0.023251241 -0.0028789085
0.0022852309 -0.026734218 -0.0032581929
-0.0002856538 0.025228066 -0.005249436
0.0012854424 0.026216481 -0.0055338992
-0.0017139232 0.026702842 -0.0052178288
-0.0012378334 0.026702842 -0.0052178293
0.0036182823 -0.019768262 -0.0024996242
0.0037135002 -0.019768262 -0.0027840873
0.0036182823 -0.020238934 -0.0024996242
0.0027613207 -0.028146239 -0.0037322985
0.0022852309 -0.028146239 -0.0037322987
0.0022852309 0.026263548 -0.0032581929
0.0017139232 0.022309894 -0.0028789085
0.0022852309 0.021274416 -0.0028789085
0.0022852309 0.021745089 -0.0028789085
0.0012378334 0.024192587 -0.0028789085
0.00076174369 0.024192585 -0.0028789085
-0.0036817607 0.021745089 -0.0028156945
-0.0038087186 0.022309896 -0.003732299
-0.0038087186 0.021745088 -0.003732299
0.0017139232 0.026640086 -0.0052494355
0.0027613207 0.026640086 -0.0045856889
0.0027613204 0.026263544 -0.0052494355
0.0027477182 0.027124207 -0.0040709451
0.0022705819 0.027161447 -0.0040751128
0.0022852309 0.026263546 -0.0056287213
0.0012695728 0.025228066 -0.0055971132
0.0034278464 0.025604606 -0.0061028264
0.0012378334 0.019768262 -0.0028789085
0.00076174358 0.020238934 -0.0028789085
-0.0017139232 0.022780569 -0.0055338996
0.00019043592 0.023251237 -0.005249436
-0.0037849136 0.022780567 -0.0032818981
-0.0027613202 -0.027769703 -0.0032581934
-0.0012378334 -0.028146239 -0.0055338992
0.00080935267 -0.020803742 -0.00558131
0.0012378334 -0.021274416 -0.0056287209
0.00078894885 -0.021260964 -0.0055609914
0.0012378334 -0.020803742 -0.0056287213
0.0012464896 -0.023268355 -0.005620101
-0.00028565383 -0.023251241 -0.0055338996
-0.0017139232 -0.023251239 -0.0056287199
-0.00076174369 -0.022780567 -0.0055338996
-0.00076174363 -0.023251243 -0.0055338996
-0.0032374104 -0.012708168 -0.0027840869
-0.0022852311 -0.014779128 -0.0023099822
-0.0017572044 -0.014197204 -0.0023272219
-0.0022699959 -0.014229381 -0.0023175674
-0.0026661027 -0.014779128 -0.0024996242
-0.0036817607 -0.025698742 -0.0028156945
-0.003681761 -0.023721913 -0.0028156945
-0.0034278464 -0.024757395 -0.0024048029
-0.0022852311 -0.025228068 -0.0032581929
-0.0038087186 -0.018732782 -0.0037322987
-0.0037135 -0.020803742 -0.0027840873
-0.0037543084 -0.021745089 -0.0032852851
-0.0027613204 -0.019768262 -0.0023099822
-0.0028565386 -0.021255586 -0.0023479103
-0.0026661027 -0.015249801 -0.0023099817
-0.0037706308 -0.01421432 -0.0028030514
-0.0030469745 -0.01685009 -0.0024996242
-0.0019043591 -0.015696941 -0.0023336872
-0.0022964331 -0.016750418 -0.0023211371
-0.0038087177 -0.0063070152 -0.0027840873
-0.0032374109 -0.0063070161 -0.0027840869
-0.0027613207 -0.0067776893 -0.0027840876
-0.0038087186 -0.0042360569 -0.0032581929
-0.0032374107 -0.0017885568 -0.0027840873
-0.0032374104 -0.002729903 -0.0027840869
-0.0027613207 -0.00225923 -0.0027840873
-0.0027613204 -0.002729903 -0.0027840873
-0.0037135002 -0.016755955 -0.0027840873
-0.0037135 -0.017791437 -0.0027840873
-0.0037134998 -0.017226627 -0.0027840873
-0.0037543084 -0.017226627 -0.0032852849
-0.003770631 -0.01477913 -0.0028030509
-0.0032374109 -0.014779129 -0.0027840873
-0.0037706308 -0.013743649 -0.0028030514
0.0012378335 -0.014214322 -0.0028789085
0.0012378334 -0.013743648 -0.0028789085
0.0012378333 -0.026263544 -0.0032581929
0.00076174369 -0.026263546 -0.0032581934
0.0012378334 -0.026734218 -0.0032581931
0.00019043588 -0.024757395 -0.0028789085
-0.0002856538 -0.024757395 -0.0028789085
-0.00028565386 -0.024192587 -0.0028789085
0.0012378334 -0.024757395 -0.0028789085
-0.0037135 -0.025228068 -0.0032581929
-0.0022852309 -0.025698744 -0.0032581931
-0.0017520103 -0.024192588 -0.0056097554
-0.0017520103 -0.024757395 -0.0056097568
-0.00076174358 -0.024192588 -0.0055338996
-0.0017139233 -0.026734218 -0.0032581931
-0.0027613204 -0.02673422 -0.0032581931
0.00076174358 -0.028146239 -0.0037322983
0.0037285341 -0.02324133 -0.0032681744
0.0036896956 -0.023227708 -0.0028314977
0.003681761 -0.022780569 -0.0028156945
-0.0038087182 0.021274414 -0.0042064041
-0.003681761 0.022780567 -0.0052178293
-0.003754308 0.021274414 -0.0047482392
-0.0037611092 0.023251241 -0.0052020252
-0.0037543077 0.022309897 -0.0047482392
-0.0036182823 0.023753293 -0.0055971132
-0.0037679102 0.024206033 -0.0052223438
-0.0033516721 -0.023721913 -0.0023479103
-0.003742066 -0.023232412 -0.0047658486
-0.0037134998 -0.023721913 -0.0047753309
0.0027613207 0.022780567 -0.0028789085
0.0022852309 0.022780569 -0.0028789085
0.0012378334 0.020803742 -0.0028789085
0.0017139232 0.022780567 -0.0028789085
-0.0034278464 0.025228068 -0.0019306976
-0.003681761 0.025228066 -0.0023731957
-0.0011426155 0.024004318 -0.0028789085
-0.0011426155 0.023721915 -0.0028789085
-0.002094795 0.02466326 -0.0028789085
-0.0022699959 0.025706273 -0.0032733646
-0.0031421923 0.026263548 -0.0017094484
-0.0036182823 0.026640086 -0.0027840873
-0.0022852309 0.026263548 -0.0032581929
-0.0038087186 0.025228068 -0.0042064041
-0.0038087182 0.025228068 -0.0037322987
-0.0038087182 0.025698742 -0.0037322987
-0.0038087184 0.025698738 -0.0042064036
-0.0037135002 0.026263546 -0.0047753309
-0.0038087182 0.025228066 -0.0047753304
0.0011902244 0.0027769699 -0.0019306976
-0.00064748211 0.0022780569 -0.0023289458
-0.0012378334 0.001788557 -0.0027840873
-0.00072862435 0.0033110813 -0.0023264727
-0.0017139233 0.002729903 -0.0027840873
0.00019043585 0.0027299027 -0.0019306974
-0.00076174363 0.01026067 -0.0055338996
-0.00028565383 0.01026067 -0.0055338996
-0.001161659 0.0048196902 -0.0023289458
-0.0032374104 0.0063070157 -0.0027840873
-0.0022852309 0.005742209 -0.0027840876
-0.0015234873 0.0057422095 -0.0024996242
-0.0015710962 0.0063540842 -0.0024996242
-0.0022852311 0.0063070157 -0.0027840869
-0.0027613204 0.0057422095 -0.0027840873
-0.0022852309 0.0052715358 -0.0027840873
-0.0038087186 0.0048008636 -0.0037322987
-0.0037135002 0.0077190353 -0.0027840873
-0.0022852309 0.0027299032 -0.0027840873
-0.0022852309 0.003765383 -0.0027840873
-0.0017139233 0.003765383 -0.0027840873
-0.0017139232 0.0042360565 -0.0027840873
-0.0038087177 0.0048008636 -0.0027840869
-0.00060593244 0.0018056724 -0.0023444621
-0.0032374109 0.00028240372 -0.0027840873
-0.0032374102 -0.00075307657 -0.0027840873
-0.00019043585 0.0012237497 -0.0019306976
-0.0037815128 0.00075307663 -0.0041522207
-0.0031830003 -0.0012506451 -0.0051546148
-0.0037815131 -0.0012237495 -0.0041522197
-0.0031950916 -0.003775843 -0.0052178293
-0.0016187052 -0.004236056 -0.0055338996
-0.0036182823 -0.001976826 -0.0046805097
-0.0032374104 -0.001788557 -0.0051546148
-0.0036182818 -0.0027299027 -0.0047753304
-0.0022852311 0.0017885568 -0.0052494355
-0.0027613207 0.00075307657 -0.0027840871
-0.0022852309 0.00028240366 -0.0027840873
-0.0017139232 0.00075307651 -0.0027840873
-0.0022852311 -0.0027299034 -0.0027840873
0.00019043592 -0.0012237497 -0.0019306974
-0.0038087186 0.00075307669 -0.0032581934
-0.0037135 -0.003765383 -0.0047753309
-0.003801394 -0.004243298 -0.00419911
-0.0037849133 -0.0032947101 -0.0041826987
-0.0038087177 -0.0048008636 -0.003732299
-0.0038087182 -0.00075307669 -0.0032581934
-0.0037815131 -0.00225923 -0.0041522202
-0.0037815131 -0.0017885568 -0.0041522207
-0.0037815138 -0.0027299032 -0.0041522202
-0.0038087182 0.015249801 -0.0037322994
-0.0038087186 0.01421432 -0.003732299
-0.0038087186 0.013272977 -0.0042064036
-0.0037135 0.016285282 -0.0027840873
-0.0037543077 0.016755955 -0.0032852851
-0.0027341151 0.014241219 -0.0023370739
-0.0037135 0.020803742 -0.0027840873
0.00019043588 0.020803742 -0.0028789085
-0.00076174369 0.020238934 -0.0028789085
-0.0012378334 0.020803742 -0.0028789085
-0.0015234873 0.020803742 -0.0028789085
-0.00028565389 0.020803742 -0.0028789085
-0.00028565383 0.021274414 -0.0028789085
-0.00028565389 0.022780569 -0.0028789085
-0.00028565386 0.023251241 -0.0028789085
-0.0011426153 0.024851529 -0.0028789085
-0.00076174369 0.024192587 -0.0028789085
-0.0012378334 0.025698742 -0.0032581929
-0.00076174363 0.021745089 -0.0028789085
-0.00076174358 0.022309894 -0.0028789085
-0.0012378334 0.022309894 -0.0028789085
-0.0017900976 0.023288894 -0.0028789085
-0.0038087179 0.0092251878 -0.003732299
-0.00033326278 0.0092251888 -0.0023573923
-0.0016187052 0.0092251888 -0.0019306976
-0.002094795 0.0092251888 -0.0024996242
-0.0032374109 0.0087545151 -0.0027840873
-0.002094795 0.0088486504 -0.0024996242
-0.001251436 0.01776454 -0.0028518164
-0.00076174363 0.018262109 -0.0028789085
-0.00076174358 0.017791437 -0.0028789085
-0.0031898015 0.011766822 -0.0052020247
-0.0031898015 0.012237495 -0.0052020252
-0.0038087186 0.011202015 -0.0047753304
-0.0038087179 0.012708168 -0.0047753304
-0.0038087186 0.013272976 -0.0047753304
-0.0038087186 0.012708168 -0.0037322987
-0.00028565386 -0.0037653833 -0.0019306976
-0.00028565383 -0.0048008636 -0.0019306974
0.0032027857 -0.0048179789 -0.0028444277
-0.00066652562 -0.0052715368 -0.0019306976
-0.0022852309 -0.0052715358 -0.0027840873
-0.0032374109 -0.0048008636 -0.0027840869
-0.00033326287 -0.0072248289 -0.0024285084
0.0038087182 -0.0048008636 -0.003732299
0.0038087179 -0.0048008631 -0.0042064036
0.0038087182 -0.0052715358 -0.0037322994
0.0038087177 -0.0052715358 -0.0032581931
0.0037706308 -0.014214321 -0.0028030514
0.0037706308 -0.013743649 -0.0028030514
0.0026661027 -0.0072954297 -0.0024522138
0.0032813572 -0.0072338809 -0.002820557
0.0027041899 -0.0077378624 -0.0024237675
0.0032850194 -0.0077190357 -0.0028314977
0.0032374104 -0.0067776893 -0.0028314977
0.0038087182 -0.0072483625 -0.0028789085
0.00095217954 -0.0080014393 -0.0024996242
0.0037679106 -0.0087679625 -0.002811179
0.0038087182 -0.013743647 -0.0032581924
0.0038087182 -0.013743647 -0.003732299
0.0038087186 -0.01421432 -0.0032581929
0.0038087179 -0.013272975 -0.0032581931
0.0038087182 -0.01421432 -0.003732299
0.0038087191 -0.014214319 -0.0042064041
0.0038087182 -0.014779131 -0.003732299
0.0038087182 -0.013272977 -0.003732299
0.0012378334 -0.020238932 -0.0056287213
0.0012378333 -0.019768262 -0.0056287204
0.0012378335 -0.01929759 -0.0056287213
0.00079983077 -0.01929759 -0.0056097559
-0.00038087176 -0.0080955736 -0.0024996242
0.0032374104 -0.023251243 -0.0028789085
0.0037135 -0.020238934 -0.0027840873
0.0037543077 -0.016755955 -0.0032852849
0.0038087179 -0.016755955 -0.0037322985
0.0032374109 -0.018262107 -0.0023099817
0.0028565386 -0.018167974 -0.0024048029
0.0028565389 -0.01776454 -0.0023641656
0.0037134998 -0.017226627 -0.0027840873
0.0027979426 -0.017197663 -0.0023391573
0.0037135 -0.026734218 -0.0047753304
0.003742066 -0.023232412 -0.0047658477
0.0037135 -0.026734218 -0.0032581929
0.0037135 -0.025228068 -0.0032581931
0.0027613204 -0.025228066 -0.0032581929
0.0037135 -0.025228068 -0.0042064041
0.0037135002 -0.024192588 -0.0042064036
0.00085696165 -0.023721915 -0.0055338992
0.0022852309 -0.023721913 -0.0056287204
0.0037135002 0.018262109 -0.0051546148
0.0032374104 0.018262109 -0.0051546148
0.0037135002 0.020238934 -0.0047753304
0.0037135 0.019768262 -0.00477533
0.0038087191 0.020238932 -0.0042064036
0.0037135002 0.019768262 -0.0051546148
-0.00085696165 0.023721915 -0.0055338992
0.00085696165 0.023721915 -0.0055338992
0.0012378334 0.023721913 -0.0056287204
0.0031739317 0.023690537 -0.0061028264
0.0030945835 0.023298308 -0.0061028264
0.0012378334 0.021745091 -0.0056287204
0.0012464896 0.02229278 -0.005620101
0.00079983083 0.022761744 -0.0055338992
0.0012464896 0.023268355 -0.0056201005
0.0017139235 0.025698742 -0.0032581929
0.00076174363 0.026263548 -0.0032581934
9.521794e-05 0.026640086 -0.0028789085
-0.0012291772 0.026725661 -0.0032409534
0.0038087177 -0.017226627 -0.003732299
0.0038087182 -0.015249802 -0.0032581929
0.0036817607 -0.011766822 -0.0028156945
0.0032374104 0.021745089 -0.0028789085
0.0022852309 0.020238934 -0.0028789085
0.0022376217 0.00075307657 -0.0028314977
0.00076174358 0.001788557 -0.0019306974
0.0012378334 -0.0012237495 -0.0019306974
0.0037706308 -0.0037653833 -0.0028030518
0.0032374104 0.00574221 -0.0028789085
0.0038087177 0.0057422095 -0.0028789085
0.0038087177 0.004236056 -0.0028789085
0.0038087186 0.003765383 -0.0032581929
0.0027613204 0.0048008636 -0.0028789085
0.0032374102 0.0048008636 -0.0028789085
0.002142404 0.0063540842 -0.0024996242
0.0027613204 0.0063070171 -0.0028789085
-0.00076174369 0.014779127 -0.0055338996
0.0013330514 0.0072483625 -0.0023099817
0.002221752 0.0077347243 -0.0023573926
0.0022308205 0.0081897089 -0.0023370739
0.0038087186 0.005742209 -0.0032581934
0.0038087182 0.0052715368 -0.0028789085
0.0038087186 0.0052715358 -0.0032581929
0.0038087182 0.0067776903 -0.003732299
-0.00028565383 0.016755955 -0.0028789085
-0.0018567502 0.017791437 -0.0023573921
-0.00028565392 0.017791435 -0.0028789085
0.0017139232 0.014214322 -0.0028789085
0.0017139232 0.015249801 -0.0028789085
0.00076174363 0.011766822 -0.0028789085
0.00019043591 0.012237496 -0.0028789085
0.0012378334 0.012708168 -0.0028789085
-0.00095217954 0.013743648 -0.0024996242
-0.00028565389 0.014779128 -0.0028789085
-0.00028565386 0.015249802 -0.0028789085
-0.00076174358 0.015720475 -0.0028789085
-0.00076174358 0.01628528 -0.0028789085
-0.00028565386 0.015720474 -0.0028789085
0.00019043587 0.015249801 -0.0028789085
0.0037543077 0.01929759 -0.0032852851
0.0038087177 0.018732782 -0.003732299
0.0017139232 0.018262109 -0.0028789085
-0.00028565383 0.018262109 -0.0028789085
0.0017139233 0.019297589 -0.0056287204
0.0023025433 0.019297589 -0.0056804409
0.0017139233 0.018732782 -0.0056287204
0.0022852309 0.018732782 -0.0056693577
0.0038087186 0.021745086 -0.0042064046
0.0037135 0.01628528 -0.0027840873
0.003618282 0.017226627 -0.0024048029
0.0037134998 0.017226627 -0.0027840873
0.0038087182 0.015249803 -0.003732299
0.003754308 0.016755955 -0.0032852846
0.0038087186 0.017226629 -0.003732299
0.0038087182 0.017791437 -0.003732299
0.0037543082 0.017791437 -0.0032852849
0.00038087185 0.020803742 -0.0055338992
0.00080935261 0.02080374 -0.00558131
0.00079983089 0.019297589 -0.0056097568
0.00028565392 0.018732781 -0.0055338996
0.0036182823 0.016285283 -0.0051546148
0.0021764103 0.016312176 -0.0055609909
0.0032374104 0.016285282 -0.0051546148
0.0032374104 0.015720475 -0.0051546148
0.002747718 0.016312178 -0.005181707
0.0017225794 0.015711918 -0.0056804414
0.0017411282 0.016285282 -0.0056693587
0.0022852311 0.020803746 -0.0057235416
0.0017239463 0.020229027 -0.0056436928
0.0038087179 0.024757398 -0.0042064041
0.0037135002 0.019297589 -0.0047753295
0.0037135002 0.018732782 -0.0047753304
0.0037135005 0.018732781 -0.0051546148
0.0038087182 0.018262109 -0.0042064041
0.0038087186 0.019768259 -0.0042064046
0.0038087186 0.020238934 -0.0037322987
0.00019043592 0.0042360555 -0.0019306974
-0.00028565383 0.0052715368 -0.0019306976
0.0016337398 0.0048107724 -0.0023199632
0.0038087186 0.012708168 -0.0032581931
0.0038087186 0.013272976 -0.0032581929
0.0038087182 0.012708168 -0.003732299
0.0037706308 0.011202014 -0.0028030514
0.0038087186 0.015249802 -0.0047753309
0.0027613204 0.015720474 -0.0051546148
0.0037135002 0.018262109 -0.0027840873
0.003754308 0.018262109 -0.0032852849
0.0022852309 0.017791435 -0.0028789085
0.0037543084 0.017226627 -0.0032852851
0.0038087186 0.013743648 -0.0032581929
0.0038087184 0.01628528 -0.0042064046
0.0038087182 0.015720475 -0.003732299
0.0038087179 0.015720477 -0.0042064036
-0.00028565392 0.014779128 -0.0055338996
0.001256877 0.013743649 -0.0056856135
-0.00028565386 0.014214322 -0.0055338996
0.00019043587 0.014214322 -0.0055338996
0.00019043591 0.014779129 -0.0055338996
-0.0002856538 0.015249802 -0.0055338992
0.00019043589 0.015249801 -0.0055338996
-0.0022852311 0.013272977 -0.005249436
-0.0022852309 0.012708168 -0.005249436
-0.001748548 0.014197206 -0.00556838
-0.0017139232 0.014779129 -0.0055338996
-0.0012378334 0.014214322 -0.0055338996
-0.0022852309 0.018262111 -0.0056287204
-0.0027041899 0.018243281 -0.0056097563
-0.0012378333 0.017791435 -0.0055338996
0.0002475667 0.017753782 -0.0055718278
-0.00076174358 0.016755955 -0.0055338996
-0.0002856538 0.017226629 -0.0055338996
-0.0012378334 0.012237496 -0.0055338992
-0.0017139233 0.012237496 -0.0055338996
-0.0022852309 0.012237496 -0.0052494355
-0.0037221564 0.015720475 -0.005223575
-0.0032374104 0.016285282 -0.0052494365
-0.0017139231 0.015249801 -0.0055338996
-0.00028565383 0.013272976 -0.0055338996
0.0012514358 0.013286425 -0.0056693582
0.0008025514 0.013259528 -0.0056016291
0.0012378334 0.012708168 -0.0056287213
0.0015234873 0.012237496 -0.0056287204
0.0015869659 0.012708168 -0.0055971136
-0.00028565383 0.013743648 -0.0055338992
-0.0017312355 0.013272977 -0.00556838
-0.0002856538 0.016285282 -0.0055338996
-0.0027613207 0.015249801 -0.005249436
0.0012378333 0.017791435 -0.0056287213
0.0022217522 0.017791433 -0.0056603272
0.0017239462 0.017216718 -0.0056436919
0.0017139233 0.017791437 -0.0056287204
0.0017411283 0.016755955 -0.0056693582
0.0037135005 0.017226629 -0.0051546148
0.0012378334 0.011202015 -0.0056287204
0.0012378334 0.011766822 -0.0056287204
0.00076174358 0.010731342 -0.0056287204
-0.0016187052 0.010731342 -0.0055338992
-0.0016187052 0.0042360555 -0.0055338996
0.0038087186 -0.016755955 -0.0047753309
0.0038087182 -0.018262109 -0.003732299
0.0038087184 -0.014214318 -0.00477533
0.0037815135 -0.014725337 -0.0051546148
0.003754308 -0.014241218 -0.0051546148
0.0038087177 -0.014779131 -0.0047753309
0.0038087182 -0.013743647 -0.0042064036
0.0038087179 -0.013272976 -0.0042064046
0.0027613204 0.00225923 -0.0027840873
0.0022852309 0.00225923 -0.0028789085
0.0038087182 0.00225923 -0.0028789085
0.0038087184 0.0027299027 -0.0032581931
-0.0038087182 -0.0072483621 -0.0051546148
-0.0038087177 -0.0067776907 -0.00477533
-0.0027295812 -0.0072483635 -0.0052178288
-0.0027295814 -0.0067776893 -0.0052178293
-0.0022852309 -0.0072483625 -0.005249436
0.00026661024 -0.019372895 -0.0055338992
-0.00028565389 -0.019485857 -0.0055338992
0.00028565383 -0.018732781 -0.0055338996
0.003123149 -0.024192588 -0.005685613
0.0027803639 -0.02419259 -0.005685613
0.0038087189 -0.014779129 -0.0042064046
0.00011719135 0.0042215739 -0.0056214263
0.00013602563 0.0048277592 -0.0056287204
-0.0012378334 0.0063070171 -0.0055338996
-0.0012378334 0.0067776898 -0.0055338992
-0.0012378334 0.001788557 -0.0055338996
-0.0022852309 0.00075307651 -0.0052494355
-0.0012378334 -0.0042360555 -0.0055338996
-0.0012378334 -0.0048008636 -0.0055338996
0.00014962819 -0.0057556578 -0.0056016287
0.00066652568 -0.0052715368 -0.0055338992
0.00057130773 -0.004236056 -0.0055338987
0.00019043591 -0.0012237495 -0.0055338996
0.00057130767 -0.001788557 -0.0055338987
0.00019043594 -0.001788557 -0.0055338996
-0.00025391456 0.003765383 -0.0055971132
-0.0012378334 0.004236056 -0.0055338996
-0.0012378334 0.0048008636 -0.0055338996
-0.0031966029 -0.012721615 -0.0052223443
-0.0031898015 -0.012237494 -0.0052020252
-0.0032200983 -0.013752206 -0.0052408152
-0.0032374109 -0.020803742 -0.005249436
-0.0032262087 -0.020250009 -0.0052438583
-0.00076174369 -0.020238934 -0.0055338996
-0.0012378334 0.0012237495 -0.0027840873
0.0038087179 -0.011202014 -0.0042064046
0.0038087182 -0.011202014 -0.003732299
0.0038087189 -0.011766822 -0.0042064036
0.0038087182 -0.0057422086 -0.003732299
0.0027246985 -0.02175957 -0.0056797778
0.0027041899 -0.021293242 -0.0056097559
0.0023090355 -0.021274414 -0.0056998362
0.0026661027 -0.020835122 -0.0056603276
0.0036182823 -0.021274414 -0.0051546148
0.0038087177 0.010731342 -0.0042064046
0.0038087182 0.010731342 -0.0047753309
0.0038087186 0.011202013 -0.0047753309
-0.00076174363 0.011202015 -0.0055338996
-0.00028565383 0.011766822 -0.0055338996
1.9043577e-05 0.0072295358 -0.0023289463
0.0031421923 0.012708168 -0.0051546148
0.002094795 0.014779128 -0.0055338987
0.0027613204 0.014779128 -0.0051546148
0.0027613204 0.014214322 -0.0051546148
0.0032374104 0.014779129 -0.0051546148
0.002094795 0.015249802 -0.0055338992
0.0038087182 0.012237494 -0.003732299
0.0038087191 0.012708168 -0.0042064046
0.0022852309 0.011766822 -0.0051546148
0.0015234873 0.011390284 -0.0055338992
0.0022852309 0.011202015 -0.0051546148
0.0037794199 0.0087834792 -0.002820557
0.0038087186 0.0092251878 -0.0032581929
0.0012378334 0.011202015 -0.0028789085
0.0026661027 0.0092251888 -0.0024996242
-0.0032374104 -0.0067776893 -0.0051546148
-0.0038087186 -0.0052715358 -0.0042064041
-0.0038087184 -0.0063070166 -0.0047753309
-0.0038087186 -0.0072483625 -0.0042064041
-0.0038087184 -0.0077190357 -0.0037322987
-0.0032374109 -0.0072483635 -0.0027840873
-0.0038087191 -0.022309897 -0.0042064036
-0.0038087186 -0.012237496 -0.0047753314
-0.0038087179 -0.011202015 -0.0032581938
-0.0037135002 -0.010731342 -0.0027840873
-0.0037849143 -0.01929759 -0.004751625
-0.0038087179 -0.018732784 -0.0042064046
-0.0037849133 -0.018732784 -0.0047516259
-0.0038087179 -0.019297589 -0.0042064046
-0.0038087179 -0.020238936 -0.0042064046
-0.0032374107 -0.021274416 -0.0052494355
-0.0027613207 0.0052715368 -0.0051546148
-0.0031898015 0.0032947101 -0.0052020247
-0.0022852309 -0.0077190357 -0.0052494355
-0.0017139232 -0.0072483635 -0.005249436
-0.0017139233 -0.0077190357 -0.0052494355
-0.0027613204 -0.0063070171 -0.0051546153
-0.0022852309 -0.0067776903 -0.0052494365
-0.0027613207 -0.0052715363 -0.0051546148
-0.0027613204 -0.0048008636 -0.0051546148
-0.0038087179 -0.005742209 -0.0042064041
-0.00028565389 -0.011766822 -0.0028789085
-0.00076174369 -0.014214322 -0.0028789085
-0.0017377276 -0.013743647 -0.0023336872
-0.0027613207 -0.010731342 -0.0027840873
-0.0032374104 -0.010731342 -0.0027840873
-0.0032374102 -0.0077190357 -0.0027840873
0.00076174369 -0.01026067 -0.0028789085
0.00076174358 -0.010731342 -0.0028789085
0.00019043592 -0.011202015 -0.0028789085
0.0012378334 -0.012237496 -0.0028789085
0.00076174358 -0.012708168 -0.0028789085
0.0012378334 -0.012708168 -0.0028789085
0.00019043588 -0.0096958615 -0.0028789085
0.0017139232 0.0077190353 -0.0052494355
0.0038087179 0.0027299027 -0.0047753304
0.0038087182 0.001788557 -0.0051546148
0.0031421925 0.0021650954 -0.0051546148
0.0030469745 0.0034829795 -0.0051546148
0.0027613204 0.0027299027 -0.0051546148
0.0038087184 0.011766822 -0.00477533
0.0038087191 0.011766823 -0.0042064041
0.0038087182 0.012237496 -0.00477533
0.0030945835 0.011813889 -0.0051546148
0.0038087189 0.012708168 -0.0047753314
0.0038087186 0.013272975 -0.0047753309
0.0038087186 0.00075307663 -0.0042064041
0.0038087179 0.0012237497 -0.0042064036
0.0038087179 0.0012237495 -0.0047753314
0.0027613209 0.0032947101 -0.0027840873
0.0022852309 0.0027299027 -0.0028789085
0.0023328399 0.0037653835 -0.0028314977
-0.0038087186 0.0092251878 -0.0047753314
-0.0032374104 0.0087545151 -0.0051546148
-0.0012378334 0.0087545151 -0.0055338996
-0.00028565392 0.0092251888 -0.0055338992
-0.00076174363 0.008189708 -0.0055338996
0.00022852313 0.0067776898 -0.0056097559
-0.00028565389 0.0067776898 -0.0055338992
-0.00028565383 0.0063070171 -0.0055338996
-0.00028565383 0.0072483621 -0.0055338996
-0.0017139233 0.008754516 -0.0052494355
0.0017520104 -0.027769702 -0.0056097573
0.001256877 -0.027732044 -0.0055338992
0.0012378334 -0.027204894 -0.0055338996
0.0012378334 -0.028146239 -0.0047753304
-0.0022852309 -0.026734218 -0.0056287204
-0.0012378334 -0.025228068 -0.0055338992
-0.00076174363 -0.025228068 -0.0055338996
-0.0017615322 -0.025228068 -0.00558131
-0.0012378334 -0.025698742 -0.0055338996
-0.001761532 -0.025698744 -0.00558131
0.0012616379 -0.025675207 -0.0055813105
0.0012695728 -0.025228068 -0.0055971132
-0.0022852309 -0.02569874 -0.0056287199
-0.0022852311 -0.024757395 -0.0056287209
-0.0037135002 -0.019768262 -0.0051546148
-0.0037135005 -0.01929759 -0.0051546148
-0.0037135005 -0.018732781 -0.0051546148
-0.0037849136 -0.023721915 -0.0041826987
0.0017139235 -0.024757395 -0.0056287204
0.0022852309 -0.024757395 -0.0056287199
0.0022852309 -0.025228068 -0.0056287204
0.0027613204 -0.025698742 -0.0056287213
-0.0031993233 -0.026734218 -0.0056097568
-0.0038087186 -0.01026067 -0.0047753304
-0.0038087191 -0.010260668 -0.0042064036
-0.0038087177 -0.01026067 -0.0051546148
-0.0038087186 -0.010731342 -0.0042064041
-0.0038087186 -0.0081897089 -0.0047753314
-0.0038087182 -0.0087545151 -0.0051546148
0.0017139232 -0.028146239 -0.0037322985
0.0012378334 -0.028146239 -0.0042064036
-0.0022852309 0.023251241 -0.0056287213
-0.0017139233 0.024757395 -0.0056287204
-0.00076174369 0.026702842 -0.0052178283
-0.0017139233 0.025698738 -0.0032581931
-0.0017139234 0.025228068 -0.0032581934
-0.0032374104 0.00075307651 -0.0051546148
-0.0036182823 0.00075307669 -0.0045856885
-0.0036182818 0.0012775408 -0.0047482392
-0.0032374104 0.0048008636 -0.0051546148
-0.00076174369 0.0077190353 -0.0055338996
-0.0017139233 0.0072483635 -0.005249436
0.0022852309 -0.024192588 -0.0028789085
-0.00028565383 -0.023721915 -0.0055338992
-0.00076174358 -0.023721913 -0.0055338996
0.0037755992 -0.015704107 -0.0032746834
0.00175787 -0.013258495 -0.0028205565
0.0012378334 -0.013272977 -0.0028789085
-0.0027613207 -0.0077190357 -0.0027840873
0.0038087186 -0.011766823 -0.0032581934
0.0012695728 -0.028146239 -0.0052178293
-0.0017139233 -0.028146239 -0.0052494355
-0.00028565392 -0.028146239 -0.0037322987
0.0032374109 -0.027204895 -0.0032581929
0.0037543084 0.026245616 -0.0041883425
0.0037849133 0.025698738 -0.0041826987
0.0022852309 0.026640086 -0.0045856885
0.0031898015 0.026640086 -0.0047279201
0.0022852309 -0.022780569 -0.0028789085
0.0022852309 -0.023251241 -0.0028789085
0.0022852309 -0.023721913 -0.0028789085
0.0017139231 -0.023721913 -0.0028789085
0.0017139232 -0.023251243 -0.0028789085
0.0012378334 -0.023251241 -0.0028789085
0.00076174363 -0.022780569 -0.0028789085
0.0012378334 -0.022780567 -0.0028789085
-0.00027205131 0.02763522 -0.0032852849
0.0017139232 0.021745089 -0.0028789085
-0.0037849138 0.021745088 -0.0032818988
0.0017139232 0.026263544 -0.0056287199
0.0022852309 0.024757396 -0.0056287209
0.0022852309 0.024192588 -0.0056287209
0.0027732225 0.024745628 -0.0056998362
0.0036182823 0.023721915 -0.005249436
0.0032374104 0.024192587 -0.0061028264
0.0037452397 0.024192587 -0.0052178283
0.0036182823 0.025698742 -0.0055338987
0.0022852311 0.025698742 -0.0056287204
0.0022852309 0.026263548 -0.0052494355
0.0027686448 0.026278028 -0.0056506023
0.0036182823 0.025228068 -0.0055338992
-0.0017139232 0.022309894 -0.0055338996
-0.0038087182 0.022780569 -0.0037322994
-0.003754308 0.023224344 -0.003732299
-0.0037134998 0.023721913 -0.0042064036
-0.0012378334 -0.0277697 -0.0055338996
-0.0017139232 -0.027769703 -0.0055338996
0.0038087182 -0.015249802 -0.0047753309
0.0031104533 -0.015281181 -0.0051546148
0.0032374104 -0.014779129 -0.0051546148
0.0038087179 -0.015720477 -0.0047753304
0.0031421923 -0.015720475 -0.0051546148
0.0038087186 -0.015249802 -0.0042064041
0.0017139232 -0.016755955 -0.0028789085
0.0017139232 -0.016285283 -0.0028789085
0.0012378334 -0.016755955 -0.0028789085
0.0017139232 -0.015720474 -0.0028789085
0.00076174358 -0.015720477 -0.0028789085
0.00076174363 -0.015249801 -0.0028789085
0.00019043588 -0.015720474 -0.0028789083
0.00019043598 -0.016285283 -0.0028789085
0.00019043591 -0.021274416 -0.0055338996
0.0012378334 -0.021745088 -0.0056287204
0.0017139233 -0.023251239 -0.0056287209
-0.00028565392 -0.022780569 -0.0055338992
0.00079636835 -0.023268355 -0.00556838
-0.0022852309 -0.023721913 -0.0056287204
-0.0022852311 -0.023251239 -0.0056287218
0.00076174369 -0.018732782 -0.0056287209
-0.0012378333 -0.023251241 -0.0055338996
-0.0012378334 -0.023721915 -0.0055338992
-0.0012378334 -0.022780569 -0.0055338992
-0.0017139232 -0.022780569 -0.0055338996
-0.0027375161 -0.022286361 -0.00558131
-0.003761109 -0.015249801 -0.0052020252
-0.0028565386 -0.024098452 -0.0028789085
-0.0038087182 -0.019768262 -0.0037322985
-0.0038087182 -0.022780566 -0.0037322985
-0.0038087186 -0.022309897 -0.003732299
-0.0037543084 -0.022309896 -0.0032852844
-0.0037543077 -0.022780569 -0.0032852849
-0.0038087186 -0.021745088 -0.0037322987
-0.0038087179 -0.021274416 -0.0037322987
-0.003754308 -0.021274416 -0.0032852849
-0.0038087182 -0.023251239 -0.003732299
-0.0036998976 -0.021260966 -0.0027976334
-0.0032374107 -0.015249803 -0.0027840873
-0.0027732225 -0.020227166 -0.0023336872
-0.0031612362 -0.018262109 -0.0023858384
-0.0027613202 -0.017791437 -0.0023099817
-0.0037135002 -0.019768262 -0.0027840873
-0.0037135 -0.019297589 -0.0027840873
-0.0037543084 -0.020238932 -0.0032852851
-0.0037135 -0.020238934 -0.0027840873
-0.0036817607 -0.021745089 -0.0028156945
-0.0036817607 -0.022309894 -0.0028156945
-0.0027007274 -0.015737591 -0.0023444621
-0.0030469745 -0.017301936 -0.0023858389
-0.00076174363 -0.015720475 -0.0028789085
-0.0012378334 -0.015720474 -0.0028789085
-0.0023860503 -0.01778036 -0.0023211371
-0.0037543082 -0.018732782 -0.0032852851
-0.0032374107 -0.0052715358 -0.0027840873
-0.0038087179 -0.0063070152 -0.0032581929
-0.0038087182 -0.003765383 -0.0032581929
-0.0027613204 -0.0017885568 -0.0027840873
-0.0038087186 -0.012708166 -0.0032581931
-0.0038087182 -0.012237494 -0.0037322987
-0.0038087191 -0.013272975 -0.0032581929
-0.0038087182 -0.013743648 -0.0032581931
-0.0032374109 -0.01421432 -0.0027840869
0.0012378334 -0.014779128 -0.0028789085
0.0017139235 -0.02626355 -0.0032581929
0.00076174369 -0.02673422 -0.0032581929
-0.0032612155 -0.022780569 -0.0023336872
0.00076174369 -0.024757395 -0.0028789085
0.00076174369 -0.024192585 -0.0028789085
0.0012378335 -0.024192587 -0.0028789083
0.00019043588 -0.024192587 -0.0028789085
0.00019043595 -0.023721913 -0.0028789085
-0.0002856538 -0.023721915 -0.0028789085
-0.0037135002 -0.024757393 -0.0032581927
-0.0037135002 -0.024192587 -0.0032581934
-0.00076174358 -0.024757393 -0.0028789085
-0.0027613207 0.026640086 -0.0056287209
-0.0038087182 0.021274412 -0.003732299
-0.0038087184 0.021745088 -0.0042064036
-0.0037285348 0.02324133 -0.004765349
-0.0037934836 0.024772458 -0.0047829156
-0.002742277 -0.022799397 -0.0055718282
-0.0032255086 -0.022286361 -0.0052375831
-0.0032374109 -0.021745088 -0.0052494369
-0.0030469745 -0.023627779 -0.0055338992
-0.0030469745 -0.023251241 -0.0055338987
-0.0012378334 -0.024192587 -0.0028789085
-0.0027613204 0.014214322 -0.0052494355
0.0022852309 0.023251241 -0.0028789085
0.0022852309 0.022309894 -0.0028789085
-0.0037543084 0.025698738 -0.0032852851
-0.0037048438 0.025681626 -0.0027927076
-0.0036454871 0.025671845 -0.002418349
-0.0021265342 0.0277697 -0.0033530141
-0.0022217522 0.027612807 -0.0037006917
-0.0032754976 0.026640084 -0.0028030514
-0.0036658912 0.026640086 -0.0047279201
-0.0037048438 0.025681626 -0.0052408152
-0.0037135002 0.025698744 -0.0047753295
0.0032374104 0.00028240366 -0.0027840873
0.003770631 0.00028240369 -0.0028030514
0.0022852309 0.001788557 -0.0028789085
0.002094795 0.0053656711 -0.0024996242
0.00023438262 0.010246187 -0.0055922512
-0.0027613204 0.0063070171 -0.0027840873
-0.0011426155 0.004236056 -0.0024996242
-0.0017139234 0.0048008636 -0.0027840871
-0.0038087182 0.0052715358 -0.0037322985
-0.0038087179 0.0048008631 -0.0032581931
-0.0032374107 0.0052715358 -0.0027840873
-0.0022852307 0.0042360565 -0.0027840873
-0.0022852311 0.0032947101 -0.0027840873
-0.0027613204 0.00028240378 -0.0027840876
-0.0027613204 -0.0017885568 -0.0052494355
-0.0015234873 -0.00028240369 -0.0055338987
-0.0015869659 -0.0037967616 -0.0055338987
-0.0015234873 -0.0028240373 -0.0055338992
-0.0036182823 -0.0022592298 -0.0046805097
-0.0031421925 -0.0022592298 -0.0051546148
-0.0022852309 0.00225923 -0.005249436
-0.00027375168 0.00030593737 -0.0023218342
-0.0012378334 0.00028240369 -0.0027840873
-0.0012378334 -0.00028240369 -0.0027840873
-0.0027613204 -0.0032947103 -0.0027840873
-0.0037849136 -0.0037653828 -0.0041826991
-0.0027613204 0.015249803 -0.0023099822
-0.0038087182 0.013743648 -0.0042064041
-0.0037354736 0.015705993 -0.002791381
0.00014282696 0.025180999 -0.0028789085
0.00019043594 0.024757395 -0.0028789085
-0.00028565392 0.024192587 -0.0028789085
0.00076174369 0.023721913 -0.0028789085
0.00019043597 0.023721913 -0.0028789085
0.00019043597 0.023251241 -0.0028789085
-0.0002856538 0.022309897 -0.0028789085
-0.00076174369 0.024757395 -0.0028789085
-0.0019043591 0.024569126 -0.0028789085
-0.00076174369 0.02569874 -0.005249436
-0.0024756668 0.022309894 -0.0024996242
-0.0015234874 0.021274414 -0.0028789085
-0.0012378334 0.021745088 -0.0028789085
-0.0038087177 0.0092251878 -0.0032581929
0.00019043588 0.010731342 -0.0028789085
0.00019043589 0.011202015 -0.0028789085
0.00076174369 0.011202015 -0.0028789085
-0.00076174369 0.010731341 -0.0023099817
-0.0012378334 0.0092251888 -0.0019306976
-0.002142404 0.0097429287 -0.0024996242
-0.0022852311 0.011766824 -0.005249436
-0.0038087177 0.012237495 -0.0047753304
-0.0038087186 0.012708168 -0.0042064046
-0.0038087182 0.013743647 -0.0037322987
-0.0038087177 0.013272977 -0.003732299
0.0016187052 -0.0032947103 -0.0019306974
0.0032720356 -0.0027127874 -0.0028444277
0.0031898017 -0.0052715363 -0.0028314977
0.0027851248 -0.00477733 -0.0028314982
-0.0027613204 -0.0063070157 -0.0027840873
-0.0027613204 -0.0057422095 -0.0027840873
-0.0022852309 -0.0042360565 -0.0027840873
-0.0027613204 -0.004236056 -0.0027840873
-0.0022852309 -0.003765383 -0.0027840873
-0.0022852311 -0.0032947103 -0.0027840869
-0.0017139232 -0.003765383 -0.0027840873
-0.0027613209 -0.00028240372 -0.0027840876
0.0038087177 -0.0042360565 -0.003732299
0.0038087182 -0.0052715368 -0.0028789085
0.0038087189 -0.014779131 -0.0032581934
0.0037135 -0.01628528 -0.0027840873
0.0037543077 -0.01628528 -0.0032852851
0.0038087189 -0.012708168 -0.0042064036
0.0038087182 -0.0077190357 -0.0028789085
0.0037325439 -0.010241843 -0.0028030514
0.0037740937 -0.0082068229 -0.0028444277
0.0038087186 -0.0081897099 -0.0032581929
0.0038087182 -0.018262109 -0.0042064046
0.0038087186 -0.018732782 -0.003732299
0.0027494179 -0.022321664 -0.0056998362
0.0022852309 -0.020238934 -0.0057235416
-0.0017139232 -0.012237496 -0.0055338996
-0.0017139232 -0.011766822 -0.0055338996
0.00021973373 -0.016314246 -0.0055922512
0.00076174358 -0.016755955 -0.0056287213
0.00023275505 -0.016745497 -0.0055971136
0.00076174369 -0.016322935 -0.0056097559
0.00023804496 -0.017226627 -0.00558131
0.00076174363 -0.017791435 -0.0056287209
0.00024756664 -0.017753782 -0.0055718282
-0.00076174369 -0.017791437 -0.0055338996
-0.0012378334 -0.017791435 -0.0055338996
-0.0038087186 -0.0092251878 -0.0032581929
-0.0038087191 -0.0087545151 -0.0032581929
-0.003770631 -0.008189708 -0.0028030514
-0.0038087186 -0.0087545151 -0.0042064046
-0.0032374107 -0.0092251878 -0.0027840873
-0.0037134998 -0.0096958624 -0.0027840873
-0.0038087184 -0.011766823 -0.0042064036
-0.0038087182 -0.011766824 -0.003732299
-0.0038087177 -0.010731341 -0.0047753309
0.0037849145 -0.021745086 -0.004751625
0.0036182823 -0.021745088 -0.0051546148
0.0038087182 -0.015249803 -0.0037322987
0.0038087182 -0.015720474 -0.003732299
0.0038087186 -0.016755955 -0.0042064041
0.0038087186 -0.01628528 -0.00477533
0.0038087182 -0.016285282 -0.003732299
0.0038087182 -0.022780569 -0.003732299
0.0038087182 -0.021274416 -0.0037322987
0.0038087186 -0.020803746 -0.0042064041
0.0038087177 -0.020803742 -0.003732299
0.0038087186 -0.021745088 -0.0037322985
0.0038087184 -0.021745086 -0.0042064046
0.0037543075 -0.020803744 -0.0032852851
0.0038087186 -0.022309896 -0.003732299
0.0037134998 -0.019297589 -0.0027840873
0.0038087177 -0.019297589 -0.003732299
0.0037134998 -0.018262109 -0.0027840873
0.0032374111 -0.017791437 -0.0023099822
0.0037135002 -0.024757393 -0.0032581931
0.0017139233 -0.026263546 -0.0056287209
0.0027686448 -0.02627803 -0.0056506027
0.0037135005 0.01929759 -0.0051546148
0.0026661027 0.018262109 -0.0055338992
0.0027137117 0.019344656 -0.0055338992
0.0027295814 0.019768262 -0.0055971141
0.0038087179 0.020803742 -0.0042064036
-0.00095217954 0.024192587 -0.0055338987
-0.00028565386 0.023721913 -0.0052494355
0.001256877 0.024738569 -0.0056097568
0.0017139233 0.021745088 -0.0056287204
0.00076174358 0.021745089 -0.0055338996
0.00076174363 0.022309894 -0.0055338996
0.0012695728 0.022780567 -0.0055971141
0.0017139232 0.022780569 -0.0056287213
-0.00076174346 0.026263546 -0.0032581929
-0.0012378334 0.026263546 -0.0032581929
0.0037135005 -0.020238934 -0.0051546148
0.0038087182 -0.01976826 -0.0047753304
0.0037849143 -0.020803744 -0.0047516255
0.0037849143 -0.020238934 -0.004751625
0.0036944568 -0.022347549 -0.0051546148
0.0036944568 -0.020766089 -0.0051546148
0.0037135002 -0.019768262 -0.0051546153
0.0037849136 -0.022309897 -0.0047516255
0.0037849136 -0.021274414 -0.0047516255
0.0038087175 -0.010260668 -0.0032581934
0.0022852309 0.020803742 -0.0028789085
0.0011426155 0.0012775408 -0.0023370739
0.0017432211 0.0012382318 -0.002820557
0.0011902244 0.001788557 -0.0023573926
0.0017955386 0.00073962874 -0.0028247251
0.0022376219 0.00028240378 -0.0028314982
0.003761109 0.00075307657 -0.0028314977
0.0015234873 -0.0012506451 -0.0023641656
0.0015820829 -0.0018175212 -0.0023391577
0.0038087191 -0.0027299027 -0.0032581929
0.0037706308 -0.002729903 -0.0028030514
0.003770631 -0.0032947101 -0.0028030514
0.0037706308 -0.0012237495 -0.0028030514
0.003275498 -0.00075307657 -0.0028030514
0.0037706308 -0.00075307657 -0.0028030514
0.003770631 -0.0017885568 -0.0028030514
0.0038087193 -0.0017885566 -0.0032581931
0.0037706308 -0.00225923 -0.0028030516
0.0032850197 -0.00225923 -0.0028314977
0.0038087191 0.0032947108 -0.0032581931
0.0038087182 0.002729903 -0.003732299
0.0038087182 0.0032947101 -0.003732299
0.0032374104 0.0052715368 -0.0028789085
0.0038087177 0.0048008636 -0.0028789085
0.003254723 0.0042018252 -0.0028444277
-0.00076174363 0.014214322 -0.0055338996
0.0038087182 0.0077190353 -0.0042064041
0.0038087175 0.007248363 -0.0042064036
0.0038087189 0.007248363 -0.0047753304
0.0038087186 0.0092251878 -0.0042064041
0.0038087184 0.0096958624 -0.0042064036
0.0038087186 0.0092251878 -0.0047753304
0.0038087189 0.010260668 -0.0047753314
0.0038087179 0.01026067 -0.0042064036
0.0038087175 0.0096958624 -0.0047753304
0.0037135002 0.0085662464 -0.0051546148
0.0027295814 0.01026067 -0.0052178288
0.0038087186 0.005742209 -0.003732299
0.0038087177 0.0072483635 -0.003732299
-0.0013330514 0.015720475 -0.0024996242
-0.00076174363 0.016755955 -0.0028789085
-0.0002856538 0.017226629 -0.0028789085
0.0012378334 0.011766822 -0.0028789085
0.00019043597 0.011766822 -0.0028789085
-0.0002856538 0.013743648 -0.0028789085
-0.00028565386 0.016285283 -0.0028789085
0.0037543077 0.018732784 -0.0032852849
0.0038087182 0.018262109 -0.0037322994
0.0037354736 0.015705992 -0.0027913814
0.0037755992 0.015704107 -0.0032746838
0.003618282 0.016285283 -0.0024048029
0.0038087182 0.015249802 -0.0042064046
0.0037543077 0.01628528 -0.0032852849
0.0008056903 0.020224452 -0.0055922512
0.0022376217 0.016755955 -0.0055813105
0.002742277 0.01673713 -0.0051925434
0.0032374104 0.014214322 -0.0051546148
0.0021709693 0.015758131 -0.0055338992
0.0022964331 0.021268878 -0.0057123867
0.0027613204 0.021274416 -0.0057235416
0.0027613202 0.021745088 -0.0057235411
0.0023090355 0.021745088 -0.0056998357
0.0027180398 0.020256048 -0.0056545804
0.0038087182 0.024192585 -0.003732299
0.0038087184 0.023721913 -0.0037322987
0.0037975158 0.023727452 -0.0042175595
0.0038087186 0.023721915 -0.0047753304
0.0038087182 0.025228066 -0.0042064041
0.0037135 0.018262109 -0.0047753314
0.0032374104 0.017791433 -0.0051546148
-0.0015869659 0.0068090674 -0.0024048029
0.0012378334 0.0072483625 -0.0052494355
0.0038087182 0.012237495 -0.0042064041
0.0037706308 0.010731342 -0.0028030514
0.0036182823 0.015720475 -0.0051546148
0.0017139231 0.0042360565 -0.0052494365
0.0012378334 0.0048008636 -0.0052494355
0.0012378334 0.004236056 -0.0052494355
0.00057130767 0.0048008636 -0.0055338987
0.0027613204 0.004236056 -0.0051546148
0.0022580256 0.0037519357 -0.005181707
0.0022852309 0.0042360555 -0.0051546148
0.0027613207 0.0037653835 -0.0051546148
0.0016504446 0.013743647 -0.0056603281
0.0027613204 0.018732781 -0.0028789085
0.0027613207 0.015249802 -0.0051546148
0.0038087179 0.013272976 -0.0042064036
0.0038087186 0.013743648 -0.0047753304
0.0038087177 0.013743648 -0.004206405
0.0038087177 0.013272976 -0.003732299
0.0038087182 0.015249802 -0.0032581929
-0.002142404 0.01026067 -0.0023573926
-0.0017520103 0.018262109 -0.0056097563
-0.0027613207 0.012237495 -0.005249436
-0.0022852311 0.010731342 -0.0052494355
-0.0022852309 0.011202014 -0.0052494355
-0.0027613207 0.010731342 -0.0052494355
-0.0032374109 0.015720475 -0.005249436
0.00079983077 0.012708168 -0.0056097559
0.0012378334 0.012237495 -0.0056287204
0.0012378334 0.017226627 -0.0056287204
0.0012378334 0.016755955 -0.0056287204
0.0032374104 0.016755955 -0.0051546148
0.0012060942 0.010731342 -0.0055971132
-0.0022852309 0.0042360565 -0.005249436
-0.0022852309 0.01026067 -0.0052494355
0.0032136063 -0.016308816 -0.0051546148
0.0038087179 -0.019297589 -0.0042064041
0.0038087182 -0.020238934 -0.003732299
0.0038087182 0.00225923 -0.003732299
0.0022376217 -0.013272976 -0.0052020247
0.002250606 -0.012725282 -0.0051890956
0.0027613204 -0.012708168 -0.0051546148
0.0027613204 -0.013272977 -0.0051546148
0.0027613207 -0.013743648 -0.0051546148
0.0022471435 -0.013743649 -0.0052304715
0.00019043588 -0.019768262 -0.0055338996
-0.0002856538 -0.019768262 -0.0055338992
0.002094795 -0.016473552 -0.0055338992
0.0032374107 -0.016755955 -0.0051546148
0.00019043591 0.0052715358 -0.0056287204
-0.00025391451 0.0048008636 -0.0055971136
0.00066652562 0.0058834115 -0.00558131
0.0017139233 0.0063070152 -0.0052494355
0.0012378334 0.0063070171 -0.0052494355
0.0012378335 0.0057422095 -0.0052494355
-0.00076174369 0.0063070171 -0.0055338996
-0.00076174369 0.0057422095 -0.0055338996
-0.0017139232 0.00075307657 -0.0052494355
0.0006189167 -0.0011766821 -0.0055338992
0.0022852309 0.00574221 -0.0051546153
0.0022852309 0.0063070171 -0.0051546148
0.0027613204 0.0063070171 -0.0051546148
0.0022471435 0.00225923 -0.0052304715
0.0032374104 0.0012237497 -0.0051546148
0.0032374104 0.00075307657 -0.0051546148
0.0038087182 0.00075307663 -0.0051546148
0.0038087182 0.0012237497 -0.0051546148
0.0027613207 0.00075307657 -0.0051546148
-0.0017139232 -0.0052715368 -0.0055338996
3.173927e-05 0.0032947101 -0.0055971141
0.00019043589 -0.00075307657 -0.0055338996
-0.00076174358 0.001788557 -0.0055338996
-0.00076174363 0.00225923 -0.0055338996
-0.0012378334 -0.0017885568 -0.0055338996
-0.0022852309 -0.0017885568 -0.005249436
-0.0017139231 -0.0012237495 -0.0052494365
-0.0022852307 -0.0012237495 -0.005249436
-0.0022852309 -0.00225923 -0.0052494355
-0.0011426156 -0.0077190353 -0.0055338992
0.0002312436 -0.0072349156 -0.0056016296
-0.00076174363 -0.0072483621 -0.0055338996
-0.00076174358 -0.0077190357 -0.0055338996
-0.0031898012 -0.0092251888 -0.0052020252
-0.0015234873 0.0032947103 -0.0055338992
-0.0012378334 0.0032947101 -0.0055338996
-0.00076174363 0.0032947103 -0.0055338996
-0.00076174363 0.0037653835 -0.0055338996
-0.00025391451 0.0042360565 -0.0055971136
-0.00076174358 0.0048008636 -0.0055338996
0.00076174358 0.0042360565 -0.0052494355
-0.0015710962 -0.014826195 -0.0055338992
-0.0022852311 -0.01421432 -0.005249436
-0.0027613204 -0.014779128 -0.0052494355
-0.0027613204 -0.014214322 -0.0052494355
-0.0022852309 -0.013743649 -0.0052494355
-0.0015234873 -0.013837784 -0.0055338992
-0.0037135005 -0.017791435 -0.0051546148
-0.0021582737 -0.018795537 -0.0055655069
-0.0037135002 -0.018262109 -0.0051546148
-0.0021582737 -0.018230731 -0.0055338992
-0.0017139232 -0.017791435 -0.0055338996
-0.0012378334 -0.017226629 -0.0055338996
-0.0031993235 -0.01026067 -0.0052304715
-0.0027613204 -0.01026067 -0.0052494355
-0.0016187052 -0.010731342 -0.0055338992
-0.0027613204 -0.010731342 -0.005249436
-0.0032136061 -0.010707809 -0.0052020252
-0.0027613209 -0.011202015 -0.0052494355
-0.0032374104 -0.011202015 -0.0051546148
-0.0027613209 -0.011766822 -0.0052494355
-0.0022852309 -0.011202016 -0.005249436
-0.0022852309 -0.010731342 -0.0052494355
-0.0017139232 -0.018262109 -0.0055338996
-0.00076174363 -0.019768262 -0.0055338996
-0.0012378333 -0.020238934 -0.0055338996
-0.0012378334 -0.019768262 -0.0055338992
-0.00057130778 0.0012990572 -0.0023858384
0.0023124362 -0.022309896 -0.0056693577
0.00076174363 -0.0063070171 -0.0055338996
0.0038087177 -0.0052715358 -0.0042064041
0.0038087175 -0.0063070157 -0.0032581929
0.0038087179 -0.011202014 -0.0047753309
0.0012378334 -0.01628528 -0.0056287213
0.0012378334 -0.016755955 -0.0056287209
0.0027295814 -0.0032947103 -0.0028156945
0.0038087175 0.011202013 -0.0042064041
0.0038087182 0.011202015 -0.003732299
0.0015234873 0.01181389 -0.00558131
0.0022852309 0.012237496 -0.0051546148
0.0027613204 0.012708168 -0.0051546148
-0.00076174358 0.012237496 -0.0055338996
0.0022429118 0.0077294949 -0.0052178288
0.0022376217 0.007248363 -0.0052020252
0.0027137117 0.0097429287 -0.0051546148
0.0038087182 0.010260669 -0.003732299
0.0038087186 0.011766823 -0.0032581931
0.0038087191 0.010260668 -0.0032581931
0.0038087177 0.008189708 -0.0028789085
0.0038087186 0.008754516 -0.0032581934
0.0038087179 0.0081897089 -0.0032581929
0.0032374104 0.0067776893 -0.0028789085
0.0032374104 0.0072483625 -0.0028789085
0.0038087182 0.0072483625 -0.0028789085
0.0032374104 0.0077190353 -0.0028789085
-0.0036944563 -0.0032947103 -0.0047374023
-0.0038087186 0.0072483625 -0.003732299
-0.0022852311 0.0072483635 -0.0027840873
-0.0032374104 -0.008189708 -0.0051546148
-0.0038087177 -0.0072483635 -0.003732299
-0.0038087177 -0.0077190357 -0.0042064046
-0.0038087186 -0.011202013 -0.0042064041
-0.0038087177 -0.010731342 -0.0032581929
-0.0037135 -0.01026067 -0.0027840873
-0.0038087175 -0.010260668 -0.0032581938
-0.0038087182 -0.010731342 -0.003732299
-0.0038087186 -0.014779131 -0.003732299
-0.0038087186 -0.01421432 -0.003732299
-0.0038087186 -0.014779131 -0.0042064032
-0.0038087182 -0.015249802 -0.0042064032
-0.0038087182 -0.015249803 -0.0037322987
-0.0037849136 -0.01976826 -0.0047516255
-0.0022852309 0.0032947101 -0.0052494365
-0.0027613204 0.002729903 -0.0052494355
-0.0027613204 0.0032947101 -0.0052494355
-0.0031527723 0.0027717403 -0.0051967567
-0.0022852309 -0.0081897089 -0.0052494365
-0.0017139233 -0.008189708 -0.005249436
-0.0022471438 -0.0048008636 -0.0052304724
-0.0027613204 -0.004236056 -0.0052494355
-0.0022852309 -0.0042360565 -0.005249436
-0.0038087177 -0.005742209 -0.003732299
