# .PCD v0.7 - Point Cloud Data file format
VERSION 0.7
FIELDS x y z
SIZE 4 4 4
TYPE F F F
COUNT 1 1 1
WIDTH 1180
HEIGHT 1
VIEWPOINT 0 0 0 1 0 0 0
POINTS 1180
DATA ascii
0.0026232835 0.0017726537 -0.0058607594
0.0026232835 0.001684021 -0.0058607594
0.0019118845 -0.0023930825 -0.010202532
-0.0015561851 0.0026589807 -0.00621519
0.0027122083 -0.001418123 -0.007898734
-0.0015561851 -0.0026589807 -0.00621519
-0.00048908673 0.0030135114 -0.0013417721
-0.0020008094 0.0023044499 -0.0042658229
0.0026232835 -0.001684021 -0.0058607594
0.0026232835 -0.0017726537 -0.0058607594
0.000311237 0.003102144 -0.0097594941
-0.00057801162 -0.0030135114 -0.0082531646
0.0020008094 -0.0023044499 -0.010202532
0.0025343585 0.0018612863 -0.0058607594
0.0028900581 -0.00097495952 -0.007898734
0.0028900581 -0.0010635923 -0.007898734
0.0017340349 -0.0025703479 -0.010202532
-0.00164511 -0.0025703479 -0.00621519
0.0028011331 -0.001418123 -0.0058607594
-0.00057801162 0.0030135114 -0.0013417721
0.0026232835 -0.0015953884 -0.0025822786
0.0025343585 0.0018612863 -0.0025822786
0.0028011331 0.0013294903 -0.007898734
0.0028011331 0.0012408576 -0.007898734
0.0017340349 0.0025703479 -0.010202532
0.0027122083 0.0015953884 -0.0058607594
-0.00164511 0.0025703479 -0.00621519
0.0027122083 0.0015067557 -0.0058607594
0.0018229596 -0.0024817153 -0.010202532
-0.00048908673 0.0030135114 -0.0082531646
0.0024454338 0.0018612863 -0.007898734
-0.00048908673 0.0030135114 -0.002670886
0.0024454338 -0.001949919 -0.0058607594
0.00022231216 -0.003102144 -0.0097594941
0.00013338729 0.003102144 -0.0097594941
-0.0029789829 -0.00070906151 -0.0038227849
0.0024454338 0.001949919 -0.0058607594
0.0023565087 0.0020385517 -0.0058607594
0.0023565087 0.001949919 -0.007898734
-0.00164511 -0.0026589807 -0.0042658229
-0.0030679076 0.00017726538 -0.0038227849
-0.0030679076 -0.00026589807 -0.0038227849
-0.0030679076 -0.00035453076 -0.0038227849
-0.0030679076 -0.00044316342 -0.0038227849
0.0026232835 -0.0015953884 -0.007898734
-0.0019118845 0.0023930825 -0.0042658229
0.0024454338 0.001949919 -0.0025822786
-0.00057801162 0.0030135114 -0.002670886
0.0025343585 0.0018612863 -0.007898734
0.0025343585 0.0017726537 -0.007898734
-0.0018229596 -0.0025703479 -0.0042658229
0.00164511 0.0025703479 -0.010202532
0.0025343585 -0.0018612863 -0.0058607594
0.000311237 -0.003102144 -0.0097594941
0.00022231216 0.003102144 -0.0097594941
-0.0028900581 -0.00097495952 -0.0038227849
-0.0028900581 -0.0010635923 -0.0038227849
-0.00057801162 0.0030135114 -0.0082531646
-0.00048908673 -0.0030135114 -0.0082531646
0.0019118845 -0.0023930825 -0.0012531646
0.0030679076 -0.00035453076 -0.0058607594
0.0030679076 -0.00044316342 -0.0058607594
0.0030679076 -0.00053179613 -0.0058607594
0.0030679076 -0.00062042882 -0.0058607594
0.0030679076 -0.00070906151 -0.0058607594
0.0030679076 -0.0007976942 -0.0058607594
-0.002267584 0.0020385517 -0.0038227849
-0.0020008094 -0.0023044499 -0.00621519
0.0018229596 0.0024817153 -0.0012531646
-0.0020008094 0.0023044499 -0.00621519
0.0027122083 0.0015953884 -0.0025822786
0.0027122083 0.0015067557 -0.0025822786
0.00084478618 -0.0030135114 -0.0097594941
-0.0019118845 -0.0023930825 -0.00621519
0.00075586134 0.0030135114 -0.0097594941
-0.002267584 -0.0020385517 -0.0038227849
-0.00093371107 0.0029248786 -0.0013417721
-0.0015561851 0.0026589807 -0.0018734178
0.0031568327 0.00026589807 -0.0058607594
0.0031568327 0.00017726538 -0.0058607594
0.0031568327 8.8632689e-05 -0.0058607594
0.0031568327 0 -0.0058607594
0.0031568327 -8.8632689e-05 -0.0058607594
0.0031568327 -0.00017726538 -0.0058607594
0.0031568327 -0.00026589807 -0.0058607594
0.0029789829 0.0010635923 -0.0058607594
0.0028900581 -0.00097495952 -0.0025822786
0.0028900581 -0.0010635923 -0.0025822786
0.0028011331 0.001418123 -0.0025822786
0.0013783354 -0.0027476132 -0.010202532
0.00093371107 -0.0029248786 -0.0097594941
0.00084478618 0.0030135114 -0.0097594941
0.0011115607 -0.002836246 -0.0020506328
0.0028900581 -0.001152225 -0.0058607594
-0.002267584 -0.0020385517 -0.0042658229
0.00075586134 -0.0030135114 -0.0097594941
0.00066693645 0.0030135114 -0.0097594941
0.0029789829 0.0010635923 -0.007898734
0.0029789829 0.00097495952 -0.007898734
0.0029789829 0.00088632683 -0.007898734
0.0015561851 0.0026589807 -0.010202532
-0.00093371107 -0.0029248786 -0.0082531646
0.0028900581 -0.0012408576 -0.0058607594
-0.00093371107 0.0029248786 -0.0082531646
0.00066693645 -0.0030135114 -0.0097594941
0.0028900581 0.0012408576 -0.007898734
0.0028900581 0.001152225 -0.007898734
0.0028011331 0.001418123 -0.0058607594
0.0029789829 -0.00097495952 -0.0058607594
0.0030679076 0.0007976942 -0.007898734
0.0030679076 0.00070906151 -0.007898734
0.0030679076 0.00062042882 -0.007898734
0.0030679076 0.00053179613 -0.007898734
0.0030679076 -0.00017726538 -0.007898734
0.0029789829 -0.00088632683 -0.0058607594
-0.0023565087 0.001949919 -0.0042658229
0.0011115607 0.002836246 -0.0020506328
-0.0019118845 0.0023930825 -0.00621519
-0.00164511 0.0025703479 -0.0018734178
0.0027122083 -0.001418123 -0.0025822786
0.0026232835 0.0017726537 -0.0025822786
0.0026232835 0.001684021 -0.0025822786
0.002267584 -0.0020385517 -0.0039113923
0.0023565087 0.0020385517 -0.0039113923
0.00048908673 -0.0030135114 -0.0082531646
-0.000311237 0.003102144 -0.00621519
0.00022231216 0.003102144 -0.002670886
0.002267584 0.0021271845 -0.0039113923
0.00057801162 -0.0030135114 -0.0082531646
-0.00022231216 0.003102144 -0.00621519
0.0030679076 0.0007976942 -0.010202532
4.4462431e-05 0.00035453076 -0.00010126582
-0.00093371107 0.0029248786 -0.0097594941
0.0021786592 0.0022158171 -0.0039113923
-0.0030679076 -0.0007976942 -0.010113924
-0.0030679076 0.00017726538 -0.010113924
-0.00013338729 0.003102144 -0.00621519
-0.00093371107 -0.0029248786 -0.0097594941
-0.00093371107 0.0029248786 -0.0042658229
-0.00048908673 0.0030135114 -0.00621519
0.0029789829 0.00088632683 -0.010202532
0.0029789829 0.00097495952 -0.010202532
0.0029789829 0.0010635923 -0.010202532
0.00164511 0.0025703479 -0.0020506328
0.00013338729 0.003102144 -0.002670886
0.0015561851 0.0026589807 -0.007898734
0.0020897342 0.0023044499 -0.0039113923
0.0024454338 0.001949919 -0.0039113923
0.0030679076 -0.00017726538 -0.010202532
0.000311237 0.003102144 -0.0082531646
0.0030679076 0.00053179613 -0.010202532
0.0030679076 0.00062042882 -0.010202532
0.0030679076 0.00070906151 -0.010202532
-0.0013783354 -0.0027476132 -0.0097594941
0.0018229596 0.0024817153 -0.0039113923
-0.0027122083 -0.001418123 -0.010113924
-0.0012004856 -0.002836246 -0.0097594941
0.0017340349 0.0025703479 -0.0039113923
-0.0026232835 -0.0015953884 -0.010113924
-0.0012894105 -0.002836246 -0.0097594941
0.00164511 0.0025703479 -0.0039113923
0.0011115607 -0.002836246 -0.0082531646
0.0019118845 -0.0023930825 -0.0039113923
-0.0013783354 -0.002836246 -0.0097594941
0.00164511 -0.0025703479 -0.0039113923
0.00048908673 -0.0030135114 -0.00621519
0.0015561851 0.0026589807 -0.0039113923
0.0011115607 0.002836246 -0.0082531646
-0.0024454338 -0.0018612863 -0.010113924
-0.0014672602 -0.0027476132 -0.0097594941
0.0015561851 -0.0026589807 -0.0039113923
4.4462431e-05 0.003102144 -0.00621519
-0.0029789829 -0.00097495952 -0.010113924
-0.00057801162 0.0030135114 -0.0042658229
-4.4462431e-05 0.003102144 -0.00621519
0.0011115607 0.002836246 -0.007898734
-0.0028900581 -0.0012408576 -0.010113924
-0.0028900581 -0.001152225 -0.010113924
0.0011115607 0.002836246 -0.0058607594
-0.00048908673 0.0030135114 -0.0042658229
0.0017340349 0.0025703479 -0.0012531646
0.0020008094 -0.0023044499 -0.0039113923
0.000311237 0.003102144 -0.002670886
0.0011115607 -0.002836246 -0.007898734
-0.0028011331 -0.0013294903 -0.010113924
-0.0028011331 -0.0012408576 -0.010113924
0.0011115607 -0.002836246 -0.0058607594
-0.0014672602 -0.0027476132 -0.0042658229
0.0024454338 -0.0018612863 -0.010202532
0.0021786592 -0.0022158171 -0.0058607594
-0.00093371107 -0.0029248786 -0.00621519
0.0020897342 0.0023044499 -0.0058607594
-0.0013783354 -0.002836246 -0.0042658229
-0.0013783354 -0.0027476132 -0.0042658229
0.0025343585 -0.0018612863 -0.010202532
-0.0015561851 0.0026589807 -0.0042658229
-0.00093371107 0.0029248786 -0.00621519
0.0020897342 -0.0023044499 -0.0058607594
0.0015561851 0.0026589807 -0.0020506328
0.0020008094 0.0023930825 -0.0058607594
0.0029789829 0.0010635923 -0.0039113923
0.0020008094 0.0023044499 -0.007898734
-0.0011115607 0.002836246 -0.0005443038
-0.0012894105 -0.002836246 -0.0042658229
-0.0015561851 -0.0027476132 -0.0042658229
0.0023565087 -0.0020385517 -0.0058607594
0.00013338729 -0.003102144 -0.0097594941
0.002267584 -0.0020385517 -0.010202532
0.002267584 0.0021271845 -0.0058607594
-0.00164511 0.0025703479 -0.0042658229
0.0024454338 -0.0018612863 -0.0025822786
0.0023565087 0.0020385517 -0.0025822786
0.0029789829 -0.0010635923 -0.0039113923
0.002267584 0.0020385517 -0.010202532
0.0023565087 -0.001949919 -0.010202532
0.002267584 -0.0021271845 -0.0058607594
0.002267584 -0.0022158171 -0.0058607594
0.002267584 -0.0020385517 -0.007898734
0.0021786592 0.0022158171 -0.0058607594
-0.00048908673 -0.0030135114 -0.00621519
0.0027122083 -0.0015067557 -0.0039113923
0.0023565087 -0.001949919 -0.0025822786
0.002267584 0.0021271845 -0.0025822786
0.00013338729 0.003102144 -0.0082531646
0.0028900581 -0.001152225 -0.010202532
-0.00057801162 0.0030135114 -0.00621519
0.0026232835 0.0017726537 -0.0039113923
0.0026232835 0.001684021 -0.0039113923
0.0028011331 0.0013294903 -0.010202532
0.0028900581 0.001152225 -0.010202532
0.0028900581 0.0012408576 -0.010202532
0.00164511 0.0025703479 -0.007898734
-0.00093371107 -0.0029248786 -0.0042658229
0.00022231216 0.003102144 -0.0082531646
0.0025343585 0.0018612863 -0.0039113923
0.0028011331 0.001418123 -0.0039113923
0.0026232835 -0.0017726537 -0.010202532
0.0026232835 -0.001684021 -0.010202532
0.0020008094 -0.0023930825 -0.0058607594
0.0019118845 0.0024817153 -0.0058607594
0.0019118845 0.0023930825 -0.007898734
-0.0012004856 -0.002836246 -0.0042658229
0.0027122083 -0.0015953884 -0.010202532
0.0019118845 -0.0024817153 -0.0058607594
0.00093371107 0.0029248786 -0.0097594941
0.0018229596 0.0025703479 -0.0058607594
-0.0011115607 -0.002836246 -0.0005443038
0.0028011331 -0.001418123 -0.010202532
-0.00057801162 -0.0030135114 -0.00621519
0.0027122083 0.0015953884 -0.0039113923
0.0027122083 0.0015067557 -0.0039113923
-0.0019118845 0.0023930825 -0.0024936709
0.0029789829 0.0010635923 -0.0063037975
-0.002267584 0.0020385517 -0.0082531646
-0.0019118845 0.0023930825 -0.0078101265
0.0020008094 0.0023044499 -0.0097594941
0.0026232835 0.001684021 -0.0043544304
0.0026232835 0.0017726537 -0.0043544304
4.4462431e-05 -0.003102144 -0.010202532
-0.0018229596 -0.0024817153 -0.0024936709
0.0026232835 -0.001684021 -0.0043544304
0.0027122083 -0.0015953884 -0.0043544304
-0.0019118845 -0.0023930825 -0.0078101265
-0.0020008094 0.0023044499 -0.0078101265
-0.002267584 0.0020385517 -0.005772152
0.0027122083 0.0015067557 -0.0043544304
0.0027122083 0.0015953884 -0.0043544304
-0.00093371107 0.0029248786 -0.0038227849
0.0019118845 0.0023930825 -0.0097594941
0.0025343585 -0.0017726537 -0.0043544304
0.000311237 0.0029248786 -0.000721519
0.0028011331 0.001418123 -0.0063037975
0.002267584 -0.0020385517 -0.0012531646
-0.0017340349 0.0025703479 -0.0078101265
0.0024454338 0.001949919 -0.0043544304
-0.0020008094 -0.0023044499 -0.005772152
-0.0017340349 -0.0025703479 -0.0024936709
0.00013338729 -0.003102144 -0.010202532
0.0021786592 -0.0022158171 -0.0097594941
-0.00057801162 -0.0030135114 -0.0018734178
-0.0018229596 0.0024817153 -0.0078101265
0.0025343585 0.0018612863 -0.0043544304
-0.002267584 -0.0020385517 -0.0082531646
0.0029789829 -0.0010635923 -0.0063037975
-0.0030679076 0.00035453076 -0.00621519
0.000311237 -0.003102144 -0.010202532
0.0018229596 -0.0024817153 -0.0097594941
0.00048908673 -0.0030135114 -0.0020506328
-0.0020008094 0.0023044499 -0.0082531646
-0.0030679076 -0.00070906151 -0.00621519
-0.0030679076 -0.00062042882 -0.00621519
-0.0030679076 -0.00053179613 -0.00621519
-0.0030679076 0.00026589807 -0.00621519
0.00022231216 0.003102144 -0.010202532
-0.0030679076 0.00044316342 -0.00621519
-0.00093371107 -0.0029248786 -0.0018734178
-0.0019118845 -0.0023930825 -0.0082531646
0.0029789829 -0.00097495952 -0.0043544304
0.0029789829 -0.00088632683 -0.0043544304
0.000311237 0.003102144 -0.010202532
-0.0020008094 -0.0023044499 -0.0082531646
0.0028011331 -0.001418123 -0.0043544304
-0.002267584 -0.0020385517 -0.005772152
-0.0020008094 -0.0023044499 -0.0078101265
-0.00093371107 -0.0029248786 -0.0038227849
0.0028011331 0.001418123 -0.0043544304
0.00013338729 0.003102144 -0.010202532
0.00022231216 -0.003102144 -0.010202532
-0.0020008094 0.0023044499 -0.0024936709
-0.00164511 -0.0025703479 -0.0078101265
-0.0031568327 -0.00017726538 -0.00621519
-0.0031568327 -8.8632689e-05 -0.00621519
-0.0031568327 0 -0.00621519
-0.0031568327 8.8632689e-05 -0.00621519
-0.0031568327 0.00017726538 -0.00621519
0.0028900581 -0.0012408576 -0.0043544304
0.0028900581 -0.001152225 -0.0043544304
0.0025343585 -0.0018612863 -0.0063037975
0.0020897342 0.0023044499 -0.0043544304
0.0024454338 0.001949919 -0.0063037975
-0.0017340349 0.0025703479 -0.005772152
0.0025343585 -0.0018612863 -0.0097594941
0.0024454338 -0.0018612863 -0.0012531646
-0.00057801162 0.0030135114 -0.010202532
-0.00164511 -0.0025703479 -0.005772152
-0.00048908673 -0.0030135114 -0.010202532
0.0025343585 -0.0017726537 -0.0063037975
0.0024454338 0.0018612863 -0.0097594941
0.0021786592 0.0022158171 -0.0043544304
0.0025343585 0.0018612863 -0.0063037975
-0.00048908673 0.0030135114 -0.0018734178
-0.0018229596 0.0024817153 -0.005772152
-0.0015561851 -0.0026589807 -0.0024936709
0.0026232835 0.0017726537 -0.0097594941
0.0026232835 0.001684021 -0.0097594941
-0.0012894105 0.002836246 -0.0078101265
-0.0015561851 -0.0026589807 -0.005772152
0.0023565087 0.0020385517 -0.0063037975
0.0026232835 -0.001684021 -0.0097594941
0.0026232835 -0.0017726537 -0.0097594941
-0.00164511 0.0025703479 -0.0024936709
0.0024454338 -0.001949919 -0.0063037975
0.0024454338 -0.0018612863 -0.0063037975
-0.00057801162 -0.0030135114 -0.010202532
0.0025343585 0.0018612863 -0.0097594941
0.0025343585 0.0017726537 -0.0097594941
-0.0013783354 0.0027476132 -0.0078101265
-0.00048908673 -0.0030135114 -0.0018734178
0.0023565087 -0.0020385517 -0.0097594941
-0.0015561851 -0.0026589807 -0.0078101265
0.002267584 0.0020385517 -0.0097594941
0.0027122083 0.0015067557 -0.0063037975
0.0027122083 0.0015953884 -0.0063037975
0.0023565087 0.0020385517 -0.0043544304
0.0027122083 -0.0015953884 -0.0063037975
-0.00057801162 0.0030135114 -0.0018734178
-0.00057801162 0.0030135114 -0.0038227849
-0.0019118845 -0.0023930825 -0.005772152
0.0028011331 -0.001418123 -0.0063037975
0.0024454338 -0.0018612863 -0.0043544304
-0.0020008094 0.0023044499 -0.005772152
0.002267584 -0.0021271845 -0.0097594941
0.0026232835 0.0017726537 -0.0063037975
0.0024454338 -0.001949919 -0.0097594941
0.002267584 -0.0020385517 -0.0043544304
-0.00048908673 0.0030135114 -0.010202532
0.000311237 -0.0029248786 -0.000721519
0.0026232835 -0.0017726537 -0.0063037975
0.0026232835 -0.001684021 -0.0063037975
0.0023565087 0.001949919 -0.0097594941
0.0026232835 0.001684021 -0.0063037975
-0.002267584 0.0020385517 -0.0078101265
0.002267584 0.0021271845 -0.0043544304
-0.00164511 -0.0025703479 -0.0024936709
-0.00048908673 0.0030135114 -0.0038227849
0.0023565087 -0.001949919 -0.0012531646
-0.0019118845 0.0023930825 -0.005772152
0.0023565087 -0.001949919 -0.0043544304
0.002267584 0.0020385517 -0.0012531646
-0.0019118845 0.0023930825 -0.0038227849
0.0011115607 0.002836246 -0.0097594941
-0.0018229596 -0.0024817153 -0.0038227849
-0.0029789829 0.00070906151 -0.0024936709
-0.0030679076 0.00017726538 -0.005772152
-0.0030679076 -0.00053179613 -0.005772152
-0.0028900581 -0.001152225 -0.0078101265
-0.0028900581 -0.0012408576 -0.0078101265
-0.0030679076 -0.00062042882 -0.005772152
0.001022636 -0.0029248786 -0.010202532
-0.0030679076 -0.00070906151 -0.005772152
-0.0029789829 -0.0010635923 -0.0024936709
-0.0030679076 0.00044316342 -0.0024936709
-0.0030679076 0.00035453076 -0.0024936709
-0.0030679076 0.00026589807 -0.0024936709
0.0011115607 -0.0029248786 -0.010202532
-0.0027122083 -0.001418123 -0.0042658229
-0.0028900581 -0.00097495952 -0.0042658229
-0.0028900581 -0.00097495952 -0.005772152
-0.0028900581 -0.0010635923 -0.005772152
-0.00164511 -0.0025703479 -0.0038227849
-0.00093371107 -0.0029248786 -0.002670886
-0.0027122083 -0.001418123 -0.0078101265
0.00093371107 -0.0030135114 -0.010202532
-0.0028900581 -0.0010635923 -0.0042658229
-0.002267584 -0.0020385517 -0.00621519
-0.0027122083 -0.0015953884 -0.0024936709
-0.0017340349 -0.0025703479 -0.0038227849
-0.0029789829 -0.0007976942 -0.005772152
-0.0029789829 -0.00088632683 -0.005772152
-0.0028011331 -0.0012408576 -0.0078101265
-0.0028011331 -0.0013294903 -0.0078101265
-0.0028011331 -0.001418123 -0.0024936709
-0.00093371107 0.0029248786 -0.002670886
0.0030679076 0.00026589807 -0.0025822786
0.0030679076 0.00017726538 -0.0025822786
0.0012004856 -0.0029248786 -0.010202532
0.0012004856 -0.002836246 -0.010202532
0.0030679076 -0.00017726538 -0.0025822786
-0.0026232835 -0.0015953884 -0.0042658229
-0.00093371107 -0.0029248786 -0.0013417721
-0.0030679076 0.00017726538 -0.0078101265
0.0030679076 0.00035453076 -0.0025822786
0.0029789829 0.00097495952 -0.0025822786
0.0029789829 0.00088632683 -0.0025822786
0.0029789829 0.0007976942 -0.0025822786
0.0029789829 0.00070906151 -0.0025822786
-0.0030679076 -0.0007976942 -0.0078101265
0.001022636 -0.0029248786 -0.0097594941
0.0028900581 0.0012408576 -0.0025822786
0.0012894105 -0.002836246 -0.010202532
-0.0020008094 0.0023044499 -0.0038227849
0.0011115607 -0.002836246 -0.0097594941
-0.0031568327 0.00017726538 -0.0024936709
-0.0031568327 8.8632689e-05 -0.0024936709
-0.0031568327 0 -0.0024936709
-0.0031568327 -8.8632689e-05 -0.0024936709
-0.0031568327 -0.00017726538 -0.0024936709
-0.0031568327 -0.00026589807 -0.0024936709
-0.0029789829 -0.00097495952 -0.0078101265
-0.0026232835 -0.0017726537 -0.0024936709
-0.002267584 0.0020385517 -0.00621519
0.0030679076 0.0007976942 -0.0025822786
0.0030679076 0.00070906151 -0.0025822786
0.0030679076 0.00062042882 -0.0025822786
0.0011115607 0.002836246 -0.010202532
0.0030679076 0.00053179613 -0.0025822786
0.0030679076 0.00044316342 -0.0025822786
0.0031568327 -8.8632689e-05 -0.0043544304
-0.0028900581 -0.00097495952 -0.00621519
0.00164511 -0.0025703479 -0.0097594941
-0.0028900581 0.00097495952 -0.00621519
-0.0028900581 0.0010635923 -0.00621519
0.0015561851 0.0026589807 -0.0097594941
-0.0021786592 -0.0022158171 -0.0024936709
0.0031568327 -0.00026589807 -0.0043544304
0.0031568327 -0.00017726538 -0.0043544304
-0.0028900581 -0.0010635923 -0.00621519
0.0031568327 0 -0.0043544304
0.0031568327 8.8632689e-05 -0.0043544304
0.0031568327 0.00017726538 -0.0043544304
0.0031568327 0.00026589807 -0.0043544304
-0.0026232835 -0.0015953884 -0.005772152
0.00048908673 0.0030135114 -0.0020506328
0.00057801162 -0.0030135114 -0.0020506328
-0.002267584 -0.0020385517 -0.0078101265
0.0029789829 0.0010635923 -0.0043544304
0.0017340349 -0.0025703479 -0.0097594941
-0.0029789829 -0.00088632683 -0.00621519
-0.0029789829 -0.0007976942 -0.00621519
-0.0019118845 0.0023930825 -0.0082531646
0.00164511 0.0025703479 -0.0097594941
-0.0029789829 0.00070906151 -0.00621519
-0.0011115607 0.002836246 -0.0018734178
-0.002267584 -0.0021271845 -0.0024936709
0.0030679076 -0.0007976942 -0.0043544304
0.0030679076 -0.00070906151 -0.0043544304
0.0030679076 -0.00062042882 -0.0043544304
0.0030679076 -0.00053179613 -0.0043544304
0.0030679076 -0.00044316342 -0.0043544304
0.0030679076 -0.00035453076 -0.0043544304
-0.00164511 0.0025703479 -0.0038227849
-0.0026232835 -0.0015953884 -0.00621519
-0.00164511 0.0025703479 -0.0082531646
0.0020008094 -0.0023044499 -0.0012531646
-0.0015561851 -0.0026589807 -0.0082531646
-0.0025343585 -0.0017726537 -0.0024936709
-0.0025343585 -0.0018612863 -0.0024936709
-0.0015561851 -0.0026589807 -0.0038227849
-0.0026232835 -0.0015953884 -0.0078101265
-0.0030679076 0.00017726538 -0.0042658229
0.00084478618 -0.0030135114 -0.010202532
-0.0029789829 -0.00088632683 -0.0042658229
-0.0029789829 -0.0007976942 -0.0042658229
-0.0028900581 0.0010635923 -0.005772152
-0.0028900581 0.00097495952 -0.005772152
-0.0015561851 0.0026589807 -0.0082531646
-0.0026232835 -0.001684021 -0.0024936709
-0.0015561851 0.0026589807 -0.0038227849
-0.0023565087 0.001949919 -0.0024936709
0.0015561851 -0.0026589807 -0.0097594941
0.00066693645 -0.0030135114 -0.010202532
-0.00164511 -0.0025703479 -0.0082531646
-0.0027122083 -0.001418123 -0.00621519
-0.0023565087 -0.001949919 -0.0024936709
-0.0023565087 -0.0020385517 -0.0024936709
-0.0027122083 -0.001418123 -0.005772152
0.00048908673 -0.0030135114 -0.002670886
-0.0024454338 -0.0018612863 -0.0024936709
-0.0024454338 -0.001949919 -0.0024936709
0.00057801162 0.0030135114 -0.0020506328
0.00075586134 -0.0030135114 -0.010202532
-0.0030679076 -0.00070906151 -0.0042658229
-0.0030679076 -0.00062042882 -0.0042658229
-0.0030679076 -0.00053179613 -0.0042658229
-0.0018229596 -0.0024817153 -0.0039113923
0.002267584 0.0021271845 -0.0019620254
-0.0026232835 -0.0015953884 -0.0061265822
0.00084478618 0.0030135114 -0.010113924
0.00093371107 -0.0029248786 -0.010113924
0.0019118845 -0.0023930825 -0.0098481011
0.0018229596 0.0024817153 -0.0098481011
-0.002267584 -0.0020385517 -0.0081645567
-0.002267584 0.0020385517 -0.0058607594
0.0023565087 -0.001949919 -0.0019620254
-0.0019118845 0.0023930825 -0.0039113923
0.002267584 -0.0020385517 -0.0019620254
0.0021786592 0.0022158171 -0.0019620254
0.00093371107 0.0029248786 -0.010113924
0.001022636 -0.0029248786 -0.010113924
-0.002267584 0.0020385517 -0.0081645567
0.0018229596 -0.0024817153 -0.0098481011
0.0017340349 0.0025703479 -0.0098481011
-0.002267584 -0.0020385517 -0.007898734
-0.0024454338 -0.0018612863 -0.0081645567
-0.002267584 0.0020385517 -0.007898734
0.0024454338 -0.0018612863 -0.0019620254
0.0023565087 0.0020385517 -0.0019620254
-0.00164511 -0.0025703479 -0.0039113923
0.0015561851 -0.0026589807 -0.0025822786
-0.0027122083 -0.001418123 -0.0061265822
-0.0020008094 0.0023044499 -0.0039113923
0.0020008094 -0.0023044499 -0.0098481011
0.0029789829 -0.0010635923 -0.0042658229
0.00075586134 0.0030135114 -0.010113924
0.00084478618 -0.0030135114 -0.010113924
-0.0023565087 -0.001949919 -0.0081645567
0.0029789829 0.0010635923 -0.0042658229
-0.0017340349 -0.0025703479 -0.0039113923
-0.0020008094 0.0023044499 -0.0081645567
0.0015561851 0.0026589807 -0.0098481011
-0.0020008094 -0.0023044499 -0.0081645567
-0.002267584 -0.0020385517 -0.0061265822
-0.0027122083 -0.0015067557 -0.007898734
-0.0029789829 -0.00088632683 -0.004177215
-0.0029789829 -0.0007976942 -0.004177215
0.00057801162 -0.0030135114 -0.0013417721
-0.002267584 0.0020385517 -0.0061265822
-0.0030679076 0.00017726538 -0.004177215
0.0011115607 -0.002836246 -0.0025822786
-0.002267584 0.0020385517 -0.0039113923
-0.0019118845 -0.0023930825 -0.0081645567
-0.0028900581 -0.0010635923 -0.004177215
-0.0028900581 -0.00097495952 -0.004177215
-0.002267584 -0.0020385517 -0.0039113923
-0.0026232835 -0.0015953884 -0.0058607594
0.0014672602 -0.0027476132 -0.0098481011
0.0020897342 0.0023044499 -0.0019620254
-0.0011115607 0.00017726538 -0.00010126582
0.0011115607 -0.002836246 -0.010113924
-0.0023565087 -0.001949919 -0.0058607594
0.0017340349 -0.0025703479 -0.0098481011
0.002267584 -0.0020385517 -0.0020506328
0.0025343585 0.0015067557 -0.000721519
0.00164511 0.0025703479 -0.0098481011
0.00048908673 -0.0030135114 -0.0013417721
0.00075586134 -0.0030135114 -0.010113924
-0.000311237 0.00026589807 -0.00010126582
0.0011115607 0.002836246 -0.010113924
0.0011115607 0.002836246 -0.0025822786
-0.0030679076 -0.00070906151 -0.004177215
-0.0030679076 -0.00062042882 -0.004177215
-0.0030679076 -0.00053179613 -0.004177215
-0.0024454338 -0.0018612863 -0.0058607594
0.00048908673 0.0030135114 -0.0012531646
0.002267584 0.0020385517 -0.0098481011
-0.0020008094 0.0023044499 -0.007898734
0.0026232835 0.001684021 -0.0042658229
0.0026232835 0.0017726537 -0.0042658229
-0.0030679076 -0.00070906151 -0.0061265822
-0.0030679076 -0.00062042882 -0.0061265822
-0.0030679076 -0.00053179613 -0.0061265822
0.00057801162 -0.0030135114 -0.0012531646
0.0028011331 0.001418123 -0.0019620254
-0.0030679076 0.00026589807 -0.0061265822
-0.0030679076 0.00035453076 -0.0061265822
-0.0030679076 0.00044316342 -0.0061265822
0.0027122083 0.0015953884 -0.0019620254
0.0027122083 0.0015067557 -0.0019620254
0.00164511 0.0025703479 -0.0025822786
0.002267584 -0.0020385517 -0.0098481011
0.0027122083 -0.0015067557 -0.0042658229
-0.0031568327 8.8632689e-05 -0.0061265822
0.0029789829 0.00097495952 -0.0019620254
0.0029789829 0.00088632683 -0.0019620254
0.0029789829 0.0007976942 -0.0019620254
0.0029789829 0.00070906151 -0.0019620254
0.0023565087 -0.001949919 -0.0098481011
-0.0031568327 -0.00017726538 -0.0061265822
-0.0031568327 -8.8632689e-05 -0.0061265822
-0.0031568327 0 -0.0061265822
-0.0020008094 -0.0023044499 -0.007898734
0.000311237 0.003102144 -0.010113924
-0.0031568327 0.00017726538 -0.0061265822
0.0028900581 0.001152225 -0.0019620254
-0.0027122083 -0.0015953884 -0.0081645567
-0.0019118845 -0.0023930825 -0.007898734
0.0028900581 -0.00097495952 -0.0019620254
0.0028900581 -0.0010635923 -0.0019620254
0.00164511 -0.0025703479 -0.0025822786
-0.0025343585 -0.0018612863 -0.0081645567
-0.0028900581 -0.0010635923 -0.0061265822
-0.0028900581 -0.00097495952 -0.0061265822
-0.0025343585 -0.0017726537 -0.0081645567
0.00066693645 -0.0030135114 -0.010113924
0.0028011331 0.001418123 -0.0042658229
-0.0028900581 0.00097495952 -0.0061265822
-0.0028900581 0.0010635923 -0.0061265822
-0.0020008094 0.0023044499 -0.0058607594
0.0015561851 0.0026589807 -0.0025822786
0.0024454338 0.001949919 -0.0019620254
-0.0015561851 -0.0026589807 -0.0039113923
0.00048908673 -0.0030135114 -0.0012531646
-0.0020008094 -0.0023044499 -0.0058607594
-0.00164511 0.0025703479 -0.0039113923
0.00066693645 0.0030135114 -0.010113924
0.0027122083 0.0015067557 -0.0042658229
0.0027122083 -0.001418123 -0.0019620254
0.0026232835 0.0017726537 -0.0019620254
0.0026232835 0.001684021 -0.0019620254
-0.0026232835 -0.0017726537 -0.0081645567
-0.0019118845 0.0023930825 -0.0058607594
-0.0026232835 -0.001684021 -0.0081645567
-0.0029789829 -0.00088632683 -0.0061265822
-0.0029789829 -0.0007976942 -0.0061265822
0.0023565087 0.001949919 -0.0020506328
0.0027122083 0.0015953884 -0.0042658229
0.0026232835 -0.0015953884 -0.0019620254
0.0025343585 0.0018612863 -0.0019620254
-0.0019118845 -0.0023930825 -0.0058607594
0.0020008094 0.0023044499 -0.0020506328
-0.0015561851 0.0026589807 -0.0039113923
-0.0028900581 -0.00097495952 -0.0039113923
-0.0031568327 -0.00017726538 -0.0019620254
-0.0031568327 -8.8632689e-05 -0.0019620254
-0.0031568327 0 -0.0019620254
-0.00164511 0.0025703479 -0.0061265822
-0.00048908673 0.001949919 -0.00010126582
0.0019118845 -0.0023930825 -0.0019620254
0.0018229596 0.0024817153 -0.0019620254
-0.0030679076 -0.0007976942 -0.0019620254
0.0011115607 0.002836246 -0.002670886
-0.0028900581 -0.0010635923 -0.0039113923
-0.0030679076 -0.00053179613 -0.0019620254
-0.0015561851 -0.0026589807 -0.0061265822
0.0011115607 -0.002836246 -0.0013417721
-0.0030679076 0.00017726538 -0.0019620254
0.0029789829 0.00097495952 -0.0079873418
0.0029789829 0.00088632683 -0.0079873418
-0.0030679076 -0.00070906151 -0.0058607594
-0.00164511 -0.0025703479 -0.0061265822
0.0030679076 0.0007976942 -0.0079873418
0.0030679076 0.00070906151 -0.0079873418
0.0030679076 0.00044316342 -0.0079873418
0.0030679076 0.00035453076 -0.0079873418
0.0030679076 0.00026589807 -0.0079873418
-0.0030679076 -0.00053179613 -0.0058607594
-0.0030679076 -0.00062042882 -0.0058607594
0.0030679076 -0.00026589807 -0.0079873418
0.0030679076 -0.00035453076 -0.0079873418
0.0030679076 -0.00044316342 -0.0079873418
0.001022636 -0.0029248786 -0.0098481011
0.0030679076 -0.00017726538 -0.0020506328
0.0030679076 0.00017726538 -0.0020506328
0.0028011331 -0.00097495952 -0.0006329114
-0.0030679076 0.00017726538 -0.0039113923
0.00084478618 -0.0030135114 -0.0098481011
0.0020897342 0.0023044499 -0.010113924
-0.0030679076 -0.00026589807 -0.0039113923
-0.0030679076 -0.00035453076 -0.0039113923
-0.0030679076 -0.00044316342 -0.0039113923
0.0011115607 0.002836246 -0.0013417721
0.0028011331 -0.00088632683 -0.0006329114
-0.0027122083 -0.0015067557 -0.0019620254
0.0027122083 0.001152225 -0.0006329114
0.0021786592 -0.0022158171 -0.010113924
-0.0013783354 0.0027476132 -0.0081645567
0.0028011331 0.001418123 -0.0079873418
0.0028011331 -0.0012408576 -0.0079873418
0.0028011331 -0.0013294903 -0.0079873418
0.0021786592 0.0022158171 -0.010113924
0.00075586134 -0.0030135114 -0.0098481011
0.0028011331 0.00088632683 -0.0006329114
-0.0029789829 -0.00097495952 -0.0019620254
0.0029789829 -0.00070906151 -0.0079873418
0.00093371107 -0.0029248786 -0.0098481011
-0.0023565087 0.001949919 -0.004177215
0.0028900581 -0.00053179613 -0.0006329114
0.0028900581 -0.00062042882 -0.0006329114
-0.0029789829 -0.00070906151 -0.0039113923
0.0028011331 0.00097495952 -0.0006329114
-0.0030679076 0.00017726538 -0.0058607594
-0.0015561851 0.0026589807 -0.0061265822
-0.002267584 -0.0020385517 -0.004177215
0.0028900581 0.0012408576 -0.0079873418
0.0028900581 0.001152225 -0.0079873418
0.0028900581 -0.00097495952 -0.0079873418
0.0028900581 -0.0010635923 -0.0079873418
0.0028900581 -0.001152225 -0.0079873418
-0.0017340349 0.0025703479 -0.0081645567
0.0025343585 0.0018612863 -0.0020506328
0.0015561851 0.0026589807 -0.010113924
0.0026232835 -0.0015953884 -0.0020506328
-0.0030679076 0.00044316342 -0.007898734
-0.0030679076 0.00035453076 -0.007898734
-0.0030679076 0.00026589807 -0.007898734
0.00164511 -0.0025703479 -0.010113924
-0.0019118845 -0.0023930825 -0.0061265822
-0.00164511 -0.0025703479 -0.0081645567
-0.0028900581 0.0010635923 -0.0058607594
-0.0026232835 -0.0015953884 -0.004177215
-0.0028900581 0.00097495952 -0.0058607594
-0.0019118845 0.0023930825 -0.0061265822
-0.0028900581 -0.00097495952 -0.0058607594
-0.0028900581 -0.0010635923 -0.0058607594
0.00164511 0.0025703479 -0.010113924
-0.0020008094 -0.0023044499 -0.0061265822
0.0026232835 0.0013294903 -0.000721519
-0.0019118845 0.0023930825 -0.0081645567
-0.0011115607 0.00044316342 -0.00010126582
-0.0027122083 -0.001418123 -0.0058607594
0.0013783354 -0.0027476132 -0.0098481011
0.0013783354 -0.002836246 -0.0098481011
0.0024454338 0.0018612863 -0.0020506328
-0.0029789829 0.00070906151 -0.007898734
-0.0018229596 0.0024817153 -0.0081645567
0.0015561851 -0.0026589807 -0.010113924
-0.0029789829 -0.0010635923 -0.007898734
-0.0027122083 -0.001418123 -0.004177215
-0.0020008094 0.0023044499 -0.0061265822
0.0020008094 -0.0023044499 -0.0019620254
0.0012894105 -0.002836246 -0.0098481011
0.0028011331 0.001418123 -0.0020506328
0.0017340349 0.0025703479 -0.010113924
0.0018229596 -0.0024817153 -0.010113924
-0.0029789829 -0.0007976942 -0.0058607594
-0.0029789829 -0.00088632683 -0.0058607594
-0.0027122083 -0.001418123 -0.0039113923
0.0011115607 -0.0029248786 -0.0098481011
0.0031568327 -0.00017726538 -0.0079873418
-0.0015561851 -0.0026589807 -0.0081645567
0.0011115607 -0.002836246 -0.002670886
0.0028900581 -0.0010635923 -0.0020506328
0.0028900581 -0.00097495952 -0.0020506328
0.0028900581 0.001152225 -0.0020506328
0.0018229596 0.0024817153 -0.010113924
-0.0011115607 0.001684021 -0.00010126582
-0.0011115607 0.0017726537 -0.00010126582
-0.0031568327 8.8632689e-05 -0.007898734
0.0012004856 -0.002836246 -0.0098481011
0.0012004856 -0.0029248786 -0.0098481011
0.0026232835 0.001684021 -0.0020506328
0.0026232835 0.0017726537 -0.0020506328
0.0027122083 -0.001418123 -0.0020506328
0.0011115607 0.002836246 -0.0098481011
0.0017340349 -0.0025703479 -0.010113924
-0.0031568327 0.00017726538 -0.007898734
0.0030679076 -0.00017726538 -0.0019620254
-0.0031568327 0 -0.007898734
-0.0031568327 -8.8632689e-05 -0.007898734
-0.0031568327 -0.00017726538 -0.007898734
-0.0031568327 -0.00026589807 -0.007898734
-0.0026232835 -0.0015953884 -0.0039113923
0.0027122083 0.0015067557 -0.0020506328
0.0027122083 0.0015953884 -0.0020506328
0.0017340349 0.0025703479 -0.00621519
0.0023565087 -0.001949919 -0.0082531646
0.0017340349 -0.0025703479 -0.00621519
-0.00048908673 0.0030135114 -0.0058607594
0.00022231216 0.003102144 -0.0039113923
-0.0027122083 -0.001418123 -0.0097594941
-0.00057801162 0.0030135114 -0.007898734
-0.0012004856 0.002836246 -0.010113924
0.0023565087 0.001949919 -0.0082531646
0.00164511 0.0025703479 -0.00621519
-0.0019118845 -0.0023930825 -0.0018734178
0.0018229596 -0.0024817153 -0.00621519
0.0024454338 -0.0018612863 -0.0082531646
-0.00057801162 0.0030135114 -0.0058607594
0.00013338729 0.003102144 -0.0039113923
0.0024454338 0.0018612863 -0.0082531646
0.0018229596 0.0024817153 -0.00621519
-0.00093371107 -0.0029248786 -0.010113924
0.00164511 -0.0025703479 -0.00621519
0.0015561851 -0.0026589807 -0.0012531646
-0.0013783354 0.0027476132 -0.010113924
-0.0012894105 -0.002836246 -0.010113924
0.002267584 -0.0021271845 -0.0082531646
0.002267584 -0.0020385517 -0.0082531646
0.0015561851 0.0026589807 -0.00621519
0.0011115607 -0.002836246 -0.0042658229
-0.000311237 -0.003102144 -0.0058607594
0.0025343585 0.0017726537 -0.0082531646
0.000311237 0.003102144 -0.0039113923
-0.0026232835 -0.0015953884 -0.0097594941
0.001022636 0.0027476132 -0.000721519
-0.00048908673 0.0030135114 -0.007898734
-0.0012894105 0.002836246 -0.010113924
-0.0012004856 -0.002836246 -0.010113924
0.0011115607 0.002836246 -0.0042658229
0.0028011331 -0.0013294903 -0.0082531646
0.0014672602 -0.0025703479 -0.000721519
-0.00093371107 0.0029248786 -0.007898734
0.0020897342 0.0023044499 -0.00621519
0.0027122083 0.0015067557 -0.0082531646
0.0027122083 0.0015953884 -0.0082531646
0.0015561851 0.0026589807 -0.0042658229
0.00164511 -0.0025703479 -0.0042658229
-0.00084478618 -0.0030135114 -0.0058607594
-0.0030679076 -0.00017726538 -0.0097594941
-0.00093371107 0.0029248786 -0.0058607594
0.0028011331 -0.0012408576 -0.0082531646
-0.00093371107 -0.0029248786 -0.007898734
0.0021786592 0.0022158171 -0.00621519
0.0028011331 0.001418123 -0.0082531646
0.00164511 0.0025703479 -0.0042658229
0.002267584 -0.0020385517 -0.00621519
-0.00093371107 -0.0029248786 -0.0058607594
-0.0020008094 -0.0023044499 -0.0018734178
0.0025343585 0.0018612863 -0.0082531646
0.0020897342 0.0023044499 -0.0025822786
0.0026232835 -0.0015953884 -0.0082531646
-0.00066693645 -0.0030135114 -0.0058607594
-0.0029789829 -0.00070906151 -0.0097594941
-0.00093371107 0.0029248786 -0.010113924
0.0026232835 0.001684021 -0.0082531646
0.0026232835 0.0017726537 -0.0082531646
0.00057801162 -0.0030135114 -0.002670886
0.0015561851 -0.0026589807 -0.0042658229
0.0027122083 -0.0015067557 -0.0082531646
-0.00075586134 -0.0030135114 -0.0058607594
0.0027122083 -0.001418123 -0.0082531646
-0.0030679076 8.8632689e-05 -0.0097594941
-0.0030679076 0 -0.0097594941
-0.0030679076 -8.8632689e-05 -0.0097594941
-0.0020008094 0.0023044499 -0.010113924
-0.0018229596 -0.0025703479 -0.0097594941
-0.0019118845 0.0023930825 -0.0097594941
0.000311237 0.003102144 -0.0042658229
0.0011115607 0.002836246 -0.0039113923
-0.0020008094 -0.0023930825 -0.010113924
0.0015561851 0.0026589807 -0.0082531646
-0.0020008094 0.0023044499 -0.0097594941
0.0011115607 -0.002836246 -0.0039113923
0.00164511 0.0025703479 -0.0012531646
0.00048908673 -0.0030135114 -0.0042658229
-0.0019118845 -0.0024817153 -0.010113924
0.00164511 0.0025703479 -0.0082531646
-0.0019118845 0.0023930825 -0.010113924
0.00093371107 0.0029248786 -0.0039113923
0.002267584 -0.0020385517 -0.0025822786
0.00057801162 -0.0030135114 -0.0042658229
0.0011115607 -0.002836246 -0.00621519
0.00057801162 -0.0030135114 -0.0058607594
0.00057801162 -0.0030135114 -0.00621519
-0.0023565087 -0.001949919 -0.010113924
-0.0015561851 -0.0027476132 -0.0097594941
-0.0023565087 0.001949919 -0.010113924
-0.002267584 0.0020385517 -0.0005443038
-0.002267584 -0.0021271845 -0.010113924
-0.00164511 -0.0026589807 -0.0097594941
0.00057801162 -0.0030135114 -0.007898734
0.00084478618 0.0030135114 -0.0039113923
0.00013338729 0.003102144 -0.0042658229
-0.0021786592 -0.0022158171 -0.010113924
0.00048908673 -0.0030135114 -0.007898734
0.00048908673 -0.0030135114 -0.0058607594
0.00022231216 0.003102144 -0.0042658229
-0.002267584 -0.0020385517 -0.0005443038
-0.0020897342 -0.0023044499 -0.010113924
0.00057801162 -0.0030135114 -0.0039113923
-0.0015561851 -0.0027476132 -0.010113924
-0.00013338729 0.003102144 -0.0058607594
0.0020008094 0.0023044499 -0.0082531646
0.00084478618 0.0030135114 -0.0042658229
-0.0014672602 -0.0027476132 -0.010113924
-0.00013338729 -0.003102144 -0.0058607594
-0.00022231216 0.003102144 -0.0058607594
0.001022636 -0.0027476132 -0.000721519
-0.0023565087 0.001949919 -0.0097594941
0.0021786592 -0.0022158171 -0.0082531646
0.00093371107 0.0029248786 -0.0042658229
-0.0013783354 -0.002836246 -0.010113924
-0.0013783354 -0.0027476132 -0.010113924
-0.00022231216 -0.003102144 -0.0058607594
-0.000311237 0.003102144 -0.0058607594
0.0015561851 -0.0026589807 -0.00621519
0.00048908673 -0.0030135114 -0.0039113923
-0.0017340349 0.0025703479 -0.010113924
-0.0018229596 0.0024817153 -0.010113924
-0.0018229596 0.0025703479 -0.010113924
0.0021786592 0.0022158171 -0.0025822786
4.4462431e-05 0.003102144 -0.0058607594
0.0011115607 0.002836246 -0.00621519
0.00164511 -0.0025703479 -0.0012531646
0.0015561851 0.0026589807 -0.0012531646
0.00075586134 0.0030135114 -0.0039113923
0.0031568327 8.8632689e-05 -0.0098481011
0.00066693645 0.0030135114 -0.0042658229
-0.00164511 -0.0026589807 -0.010113924
-4.4462431e-05 0.003102144 -0.0058607594
0.0019118845 0.0023930825 -0.0082531646
-0.002267584 -0.0020385517 -0.0097594941
0.00066693645 0.0030135114 -0.0039113923
0.00075586134 0.0030135114 -0.0042658229
0.0029789829 0.0010635923 -0.00621519
0.0029789829 -0.00088632683 -0.00621519
0.0023565087 0.0020385517 -0.0042658229
0.0025343585 -0.0017726537 -0.0098481011
-0.0015561851 -0.0026589807 -0.0058607594
0.00013338729 -0.003102144 -0.010113924
0.0029789829 -0.00097495952 -0.00621519
0.0019118845 0.0023930825 -0.0020506328
0.0020008094 -0.0023044499 -0.0020506328
-0.00164511 0.0025703479 -0.0058607594
-0.0027122083 -0.0015067557 -0.0018734178
0.0030679076 -0.0007976942 -0.00621519
0.0030679076 -0.00070906151 -0.00621519
0.0030679076 -0.00062042882 -0.00621519
0.0030679076 -0.00053179613 -0.00621519
-0.00093371107 0.0029248786 -0.0039113923
0.0021786592 0.0022158171 -0.0042658229
0.002267584 -0.0020385517 -0.0042658229
-0.0030679076 0.00017726538 -0.0081645567
0.0028011331 0.001418123 -0.00621519
-0.0015561851 -0.0026589807 -0.007898734
0.002267584 0.0021271845 -0.0042658229
0.0028900581 -0.0012408576 -0.00621519
0.0028900581 -0.001152225 -0.00621519
0.0030679076 -0.00044316342 -0.00621519
0.0026232835 -0.001684021 -0.0098481011
0.0019118845 -0.0023930825 -0.0025822786
0.0018229596 0.0024817153 -0.0025822786
-0.0015561851 0.0026589807 -0.0058607594
-0.0029789829 -0.0010635923 -0.0081645567
-0.00164511 -0.0025703479 -0.007898734
-0.00093371107 -0.0029248786 -0.0039113923
0.0025343585 0.0018612863 -0.0042658229
0.0031568327 0.00017726538 -0.00621519
0.0031568327 0.00026589807 -0.00621519
0.00022231216 0.003102144 -0.010113924
0.000311237 -0.003102144 -0.010113924
-0.0029789829 -0.0010635923 -0.0018734178
-0.0030679076 0.00017726538 -0.0018734178
-0.0019118845 0.0023930825 -0.007898734
0.0031568327 8.8632689e-05 -0.00621519
0.0030679076 0.0007976942 -0.0019620254
0.0030679076 0.00070906151 -0.0019620254
0.0030679076 0.00062042882 -0.0019620254
0.0030679076 0.00053179613 -0.0019620254
0.0030679076 0.00044316342 -0.0019620254
0.0030679076 0.00035453076 -0.0019620254
0.0030679076 0.00026589807 -0.0019620254
0.0030679076 0.00017726538 -0.0019620254
-0.00164511 -0.0025703479 -0.0058607594
0.0030679076 -0.00035453076 -0.00621519
0.0024454338 0.001949919 -0.0042658229
0.00013338729 0.003102144 -0.010113924
0.00022231216 -0.003102144 -0.010113924
0.00057801162 0.0030135114 -0.0012531646
0.0024454338 -0.0018612863 -0.0098481011
0.0027122083 -0.0015953884 -0.0098481011
0.0017340349 0.0025703479 -0.0025822786
-0.00022231216 0.0020385517 -0.00010126582
-0.0028011331 -0.001418123 -0.0081645567
0.0031568327 -0.00026589807 -0.00621519
0.0031568327 -0.00017726538 -0.00621519
0.0031568327 -8.8632689e-05 -0.00621519
0.0031568327 0 -0.00621519
0.0029789829 0.0010635923 -0.0082531646
0.0023565087 0.0020385517 -0.00621519
0.0019118845 -0.0023930825 -0.0020506328
0.0029789829 -0.00088632683 -0.0082531646
0.0029789829 -0.0007976942 -0.0082531646
0.0029789829 -0.00070906151 -0.0082531646
0.0018229596 0.0024817153 -0.0042658229
-0.002267584 0.0020385517 -0.0018734178
0.0019118845 -0.0023930825 -0.0042658229
0.0018229596 -0.0023044499 -0.000721519
-0.00048908673 0.0030135114 -0.0039113923
0.0029789829 0.0010635923 -0.0098481011
-0.00048908673 0.0030135114 -0.010113924
0.0011115607 -0.002836246 -0.0012531646
0.0024454338 0.001949919 -0.00621519
-0.001022636 -0.0029248786 -0.0058607594
0.0031568327 0 -0.0098481011
0.0031568327 -8.8632689e-05 -0.0098481011
0.0031568327 -0.00017726538 -0.0098481011
0.0031568327 -0.00026589807 -0.0098481011
0.002267584 0.0021271845 -0.00621519
0.0017340349 0.0025703479 -0.0042658229
0.0011115607 0.002836246 -0.0012531646
-0.00057801162 0.0030135114 -0.010113924
0.0030679076 -0.00026589807 -0.0098481011
0.0030679076 -0.00035453076 -0.0098481011
0.0030679076 -0.00044316342 -0.0098481011
0.0030679076 -0.00053179613 -0.0098481011
0.0030679076 -0.00062042882 -0.0098481011
0.0030679076 -0.00070906151 -0.0098481011
0.0030679076 -0.0007976942 -0.0098481011
0.0028011331 -0.001418123 -0.0098481011
0.0031568327 -0.00017726538 -0.0082531646
0.0031568327 -8.8632689e-05 -0.0082531646
0.0031568327 0 -0.0082531646
0.0031568327 8.8632689e-05 -0.0082531646
0.0031568327 0.00017726538 -0.0082531646
0.0031568327 0.00026589807 -0.0082531646
0.0026232835 0.001684021 -0.00621519
0.0026232835 0.0017726537 -0.00621519
0.0031568327 -0.00026589807 -0.0082531646
0.0020897342 0.0023044499 -0.0042658229
0.0019118845 0.0022158171 -0.000721519
0.0020008094 -0.0023044499 -0.0025822786
0.0027122083 -0.0015067557 -0.00621519
0.0027122083 0.0015067557 -0.0098481011
0.0027122083 0.0015067557 -0.00621519
0.0027122083 0.0015953884 -0.00621519
-0.00057801162 0.0030135114 -0.0039113923
0.0029789829 -0.00088632683 -0.0098481011
0.0029789829 -0.00097495952 -0.0098481011
0.0030679076 -0.00070906151 -0.0082531646
0.0030679076 -0.00062042882 -0.0082531646
0.0030679076 -0.00053179613 -0.0082531646
0.0030679076 -0.00044316342 -0.0082531646
0.0030679076 -0.00035453076 -0.0082531646
0.0030679076 -0.00026589807 -0.0082531646
0.0011115607 0.002836246 -0.0064810128
0.0020008094 -0.0023044499 -0.0042658229
0.0019118845 -0.0022158171 -0.000721519
0.0025343585 0.0018612863 -0.00621519
0.0028900581 -0.001152225 -0.0098481011
-0.002267584 -0.0020385517 -0.0018734178
0.0028900581 -0.0012408576 -0.0098481011
-0.0020008094 0.0023044499 -0.0067468355
-0.0019118845 0.0023930825 -0.0092278477
-0.0028900581 -0.0010635923 -0.0086962022
-0.0028900581 -0.00097495952 -0.0086962022
-0.00048908673 -0.0030135114 -0.0053291139
-0.00057801162 0.0030135114 -0.0053291139
-0.00093371107 0.0029248786 -0.0028481013
-0.00048908673 0.0030135114 -0.0032911391
0.0021786592 -0.0022158171 -0.0073670885
0.00066693645 0.0030135114 -0.0010759494
-0.00057801162 -0.0030135114 -0.0047974684
-0.0019118845 -0.0023930825 -0.0067468355
-0.0020008094 0.0023044499 -0.0092278477
-0.00057801162 -0.0030135114 -0.0053291139
-0.00048908673 -0.0030135114 -0.0032911391
-0.00057801162 0.0030135114 -0.0032911391
-0.0019118845 0.0023930825 -0.0067468355
-0.00057801162 0.0030135114 -0.0047974684
-0.0029789829 -0.0007976942 -0.0086962022
-0.0030679076 0.00026589807 -0.0086962022
-0.0030679076 0.00035453076 -0.0086962022
-0.0030679076 0.00044316342 -0.0086962022
0.0023565087 -0.0020385517 -0.0073670885
0.00075586134 0.0030135114 -0.0010759494
-0.0018229596 0.0024817153 -0.0092278477
-0.0029789829 -0.00088632683 -0.0086962022
-0.00048908673 -0.0030135114 -0.0047974684
-0.00048908673 0.0030135114 -0.0053291139
-0.0029789829 0.00070906151 -0.0086962022
0.002267584 -0.0021271845 -0.0073670885
-0.00057801162 0.0030135114 -0.0015189874
-0.00048908673 -0.0030135114 -0.0015189874
-0.0020008094 -0.0023044499 -0.0067468355
0.00048908673 -0.0030135114 -0.0010759494
-0.0015561851 -0.0026589807 -0.0067468355
-0.002267584 -0.0020385517 -0.0092278477
-0.00093371107 0.0029248786 -0.0032911391
0.0011115607 -0.002836246 -0.010734177
-0.00093371107 -0.0029248786 -0.0053291139
0.0017340349 -0.0025703479 -0.0073670885
-0.00022231216 0.003102144 -0.0047974684
0.00164511 0.0025703479 -0.0073670885
-0.000311237 0.003102144 -0.0047974684
0.0011115607 0.002836246 -0.010734177
-0.00093371107 -0.0029248786 -0.0032911391
0.00164511 -0.0025703479 -0.0073670885
-0.00013338729 0.003102144 -0.0047974684
0.0015561851 0.0026589807 -0.0073670885
-0.0023565087 0.001949919 -0.0086962022
-0.002267584 -0.0020385517 -0.0086962022
-0.0026232835 -0.0015953884 -0.0086962022
0.0020008094 0.0023044499 -0.0073670885
-0.0027122083 -0.001418123 -0.0086962022
-0.00057801162 -0.0030135114 -0.0032911391
-0.0018229596 0.0024817153 -0.0067468355
-0.00048908673 0.0030135114 -0.0047974684
-0.00048908673 0.0030135114 -0.0015189874
0.0019118845 0.0023930825 -0.0073670885
0.00057801162 -0.0030135114 -0.0010759494
-0.0030679076 -0.00053179613 -0.0086962022
0.00093371107 -0.0029248786 -0.010734177
-0.0017340349 0.0025703479 -0.0067468355
-0.00164511 -0.0025703479 -0.0067468355
-0.002267584 0.0020385517 -0.0092278477
0.0020897342 0.0023044499 -0.0022278482
-0.00093371107 0.0029248786 -0.0053291139
0.0018229596 -0.0024817153 -0.0073670885
0.0028900581 0.0012408576 -0.0087848101
0.0028900581 -0.001152225 -0.0073670885
0.00022231216 0.003102144 -0.0032911391
-0.0012894105 0.002836246 -0.0092278477
0.0028900581 -0.0010635923 -0.0087848101
0.0028900581 -0.00097495952 -0.0087848101
0.0028011331 0.001418123 -0.0073670885
-0.0026232835 -0.0015953884 -0.0067468355
0.0028900581 0.001152225 -0.0087848101
0.0028900581 -0.0010635923 -0.0073670885
0.0028011331 -0.0012408576 -0.0073670885
0.0028011331 -0.0013294903 -0.0073670885
0.00013338729 0.003102144 -0.0032911391
0.0011115607 0.002836246 -0.0010759494
-0.0013783354 0.0027476132 -0.0092278477
0.0029789829 -0.00070906151 -0.0087848101
0.0027122083 0.0015953884 -0.0073670885
0.0027122083 0.0015067557 -0.0073670885
0.0028011331 -0.0012408576 -0.0087848101
0.0030679076 -0.00044316342 -0.0073670885
0.0027122083 -0.0015067557 -0.0087848101
0.00048908673 -0.0030135114 -0.0032911391
0.00022231216 0.003102144 -0.0053291139
0.0027122083 0.001418123 -0.0087848101
0.0029789829 0.0010635923 -0.0073670885
0.0029789829 -0.00070906151 -0.0073670885
0.0028011331 -0.0013294903 -0.0087848101
0.0029789829 0.00097495952 -0.0087848101
-0.0012004856 0.002836246 -0.0092278477
0.000311237 0.003102144 -0.0032911391
0.00013338729 0.003102144 -0.0053291139
0.0028011331 0.0013294903 -0.0087848101
-0.0027122083 -0.001418123 -0.0067468355
0.0028900581 -0.00097495952 -0.0073670885
0.0020008094 0.0023044499 -0.0024050632
-0.002267584 -0.0020385517 -0.0067468355
-0.0031568327 -0.00017726538 -0.0086962022
-0.0031568327 -8.8632689e-05 -0.0086962022
-0.0031568327 0 -0.0086962022
-0.0031568327 8.8632689e-05 -0.0086962022
-0.0031568327 0.00017726538 -0.0086962022
0.00084478618 0.0030135114 -0.0010759494
-0.00093371107 0.0029248786 -0.0047974684
0.0024454338 0.0018612863 -0.0073670885
0.0024454338 -0.001949919 -0.0073670885
-0.002267584 0.0020385517 -0.0067468355
0.0023565087 0.001949919 -0.0073670885
-0.0017340349 0.0025703479 -0.0092278477
-0.0030679076 -0.00070906151 -0.0086962022
-0.0030679076 -0.00062042882 -0.0086962022
0.0025343585 0.0017726537 -0.0073670885
0.0027122083 -0.0015067557 -0.0073670885
0.0030679076 -0.00053179613 -0.0087848101
0.0026232835 0.0017726537 -0.0073670885
0.0026232835 0.001684021 -0.0073670885
0.0030679076 0.0007976942 -0.0087848101
0.0011115607 -0.002836246 -0.0010759494
0.0026232835 -0.001684021 -0.0073670885
0.0025343585 0.0018612863 -0.0073670885
-0.0013783354 0.0027476132 -0.0067468355
0.0031568327 -0.00026589807 -0.0087848101
