# .PCD v0.7 - Point Cloud Data file format
VERSION 0.7
FIELDS x y z
SIZE 4 4 4
TYPE F F F
COUNT 1 1 1
WIDTH 1028
HEIGHT 1
VIEWPOINT 0 0 0 1 0 0 0
POINTS 1028
DATA ascii
0.00076983724 -0.0060870829 -0.0042347596
0.00024494811 -0.0060870852 -0.0047564954
0.00024494811 -0.0060870838 -0.0042347587
0.00024494811 -0.0060870838 -0.0037478039
-0.0030321849 -0.0057120272 -0.0036706778
-0.0030443582 -0.0052522821 -0.0036782373
-0.0030443557 -0.0052522831 -0.0032608495
-0.0030628794 -0.0047059814 -0.0032608507
-0.0011477572 -0.0027687526 -0.00046781497
-0.00076983758 -0.0027478829 -0.00044346694
-0.0011739024 -0.0032814459 -0.00045856135
-0.0016796446 -0.0020869996 -0.00047824951
-0.00076090283 -0.0022305739 -0.00044494681
-0.0026312105 -0.0047336076 -0.0017796152
-0.0030416651 -0.0042301877 -0.002396639
-0.0030351474 -0.0047122259 -0.0024242394
-0.0025474606 -0.0047305324 -0.0013965076
-0.0030453571 -0.0032845398 -0.0023694236
-0.0025194664 -0.0038261667 -0.0013825946
-0.0030517792 -0.0037428979 -0.0023881241
-0.002606276 -0.0037860314 -0.0018207206
-0.00076983729 -0.0060870848 -0.0022521561
0.00024494811 -0.0060870848 -0.0017304191
0.00024494811 -0.0060870857 -0.0022521568
-0.00027994069 -0.0060870829 -0.0017304192
-0.00027994069 -0.0060870834 -0.0022521561
0.0030288035 0.0041778646 -0.0023912876
0.0030093635 0.0045566158 -0.0028434596
0.0026100886 0.0046038865 -0.0017892823
0.0025427949 0.005031988 -0.002913024
0.0020295705 0.0055653327 -0.0028434594
0.0030093638 0.0045566154 -0.003260849
0.0025194669 0.0029913664 -0.005069539
0.0016096598 0.0027668558 -0.0056134076
0.0025194669 0.003246444 -0.005084998
-0.0030306641 -0.0057286639 -0.0027769196
-0.00303036 -0.0057322932 -0.0032608497
-0.0026922151 -0.0060848789 -0.0032652519
-0.0026805436 -0.0060765902 -0.0027772065
-0.002239526 -0.0060870824 -0.0037478029
-0.0026396299 -0.0060759233 -0.0037674929
-0.0022395253 -0.006087082 -0.00326085
-0.00027994069 -0.0060870824 -0.0027738947
0.00024494811 -0.0060870838 -0.0027738942
-0.00027994069 -0.0060870834 -0.0047564963
-0.00027994069 -0.0060870834 -0.0037478036
0.00024494811 -0.0060870834 -0.0032608495
-0.0017352737 -0.0037566004 -0.00080288597
-0.0015396742 -0.0042783492 -0.00047824951
-0.0020327517 -0.003766086 -0.00089880149
-0.00076983747 -0.0032696323 -0.00044346671
0.0012433408 -0.0057687052 -0.0056827767
0.00076295336 -0.0060819481 -0.0057081687
0.0011992914 -0.0060522999 -0.0056576799
0.00076983846 -0.0057740337 -0.0056956215
-0.00027994069 -0.0060870824 -0.0052782353
-0.00076983729 -0.0060870843 -0.0047564954
-0.00028250148 0.0057112523 -0.00316032
-0.00075848831 0.0057039969 -0.003153211
0.00020995557 0.0060522994 -0.0030521543
0.0012597336 0.0060522999 0.00077392021
0.0012597335 0.0060522999 0.00025218283
0.0012220495 0.0058789155 0.00024897209
-0.0012586737 0.0058825957 0.0017531
-0.0012630658 0.0060522994 0.0017875812
-0.0012763963 0.0060522994 0.0012708132
-0.0012628912 0.0058828252 0.0012624443
0.00082191895 0.0060539176 -0.0022772327
0.0011897483 0.0060522999 -0.0022521571
0.0011574471 0.0060522999 -0.0027337607
0.00076490862 0.0060738521 -0.002769975
0.00075869303 0.0057155434 -0.0031536228
-0.003079348 -0.0042435667 -0.0032608488
-0.0030443566 0.0042435662 -0.0032608479
-0.0030758479 0.0037461654 -0.0037478055
-0.0030408187 0.0042255884 -0.0037392064
-0.0030758469 0.0037461659 -0.0032608493
-0.0026917215 -0.0042492123 -0.0042008734
-0.002558264 -0.0042549078 -0.0046884418
-0.0027052341 -0.0047344998 -0.0042116437
-0.0025663732 -0.0047260937 -0.0046684295
-0.0030443568 -0.0027478826 -0.0023999829
-0.0025194669 -0.0029913664 -0.0018347668
-0.0026190626 -0.0042556059 -0.0017852685
-0.0017496299 -0.0060522975 -0.0012434644
-0.0026388536 -0.0060809422 -0.002327861
-0.0025410007 -0.0057231952 -0.0014013234
-0.0016796445 -0.0060730204 -0.00080979336
-0.0022364829 -0.0060870815 -0.0022975251
-0.0017301895 -0.0060587381 -0.0017368607
-0.001255802 -0.0060835634 -0.00074478518
-0.0015396742 -0.0060522994 -0.00047824951
-0.0012084108 -0.0060754884 -0.00046433648
-0.0022395258 -0.0060870829 -0.0027738949
0.00024494811 -0.0060870838 -0.0052782339
0.0012167881 -0.0060554612 -0.0052703288
0.00075428496 -0.0060797799 -0.005250752
-0.0020925577 -0.005765337 -0.00092868274
-0.0015979951 -0.0057508438 -0.00047824951
-0.0016068598 -0.0052620219 -0.00047546718
-0.0020995564 -0.0052522831 -0.00093042199
-0.0015816652 -0.0047444464 -0.00047824951
-0.0020848217 -0.004741516 -0.00092676049
-0.0011162636 -0.0022365681 -0.00047824951
-0.0025474601 -0.0052522831 -0.0013965075
-0.0030443557 -0.0052522831 -0.0024608527
-0.0025449151 -0.0042562149 -0.0013952426
-0.00076983718 -0.006087082 -0.0017304196
-0.0007631366 -0.0060856012 -0.0012501251
-0.0012597336 -0.0060870848 -0.0022521566
0.00024494811 -0.0060870843 -0.0007565096
0.00024494811 -0.0060870843 -0.0012434645
-0.00076983694 -0.0060870824 -0.00044346717
0.0012597336 -0.0060870829 -0.0037478048
0.0030326918 -0.0057160608 -0.0024956344
0.0026532162 -0.0060631204 -0.00277544
0.0030443566 -0.0056955218 -0.0027888012
0.0030604121 -0.0057011936 -0.0032289322
0.00076983683 0.0027478836 -0.00044346671
0.0012210847 0.0032820909 -0.00040608854
0.00079358264 0.0032820541 -0.00042607565
0.001259734 0.0027478833 -0.00044346671
0.0016446518 0.0022261331 -0.00047824974
0.0012597342 0.0022261331 -0.00044346694
0.001644652 0.0027478829 -0.00047824974
0.0016160215 0.0017486528 -0.00047824974
0.0012694239 0.0007748655 -0.00046112575
0.0012622937 0.0012598351 -0.00045025372
0.0015746668 0.00076523318 -0.00047824951
0.0015746668 0.0012521998 -0.00047824951
0.0015746667 0.00024348331 -0.00047824951
0.0012669733 0.00025067988 -0.00047585065
0.00076405925 0.00024827002 -0.00044442411
0.00076983718 0.00076523342 -0.00044346671
0.00076983718 0.0022261334 -0.00044346671
0.0025194669 0.0045392243 -0.0013999857
0.0012597336 0.0060522999 0.0017478301
0.001239738 0.0058883177 0.0022347856
0.0012422375 0.0058870777 0.0017478305
0.0012432667 0.0058875894 0.0026491054
0.0012597335 0.0060522994 0.002652175
0.0021980531 0.0046068616 -0.0012924176
0.0030093633 0.0045218328 -0.003608674
0.0025385537 0.0050277724 -0.00315334
0.0025599843 0.0045511234 -0.0046228585
-0.0002799411 -0.0052522859 -0.0056956196
-0.00076855364 -0.0052474989 -0.0056659412
-0.0012524936 -0.004733732 -0.0056508519
-0.00027994131 -0.0047305324 -0.0056956247
-0.00075619057 -0.0042414786 -0.0056712739
-0.00027510599 -0.003751287 -0.0057183891
0.00023743333 -0.0042398302 -0.0057082246
0.00023772492 -0.0027463001 -0.0057262019
0.00024494869 -0.0022261313 -0.0057304036
0.00076983735 -0.0027478845 -0.0056608394
0.00024457497 -0.0047297892 -0.00569636
-0.0030443557 -0.0052522831 -0.0027738942
-0.0025695802 -0.005762009 -0.0046349736
-0.0027034155 -0.0057665133 -0.0042131376
-0.0017496307 -0.0060870829 -0.0032608502
-0.00076983729 -0.0060870829 -0.0032608497
-0.0030428679 -0.004236165 -0.0037404033
-0.0017456686 -0.006085115 -0.0022639695
0.001646711 -0.0057556182 -0.0056004813
0.0026631204 -0.0060632839 -0.0023143997
0.0026708632 -0.0060622361 -0.0032622688
0.002239526 -0.0060870829 -0.003260849
0.0026609257 -0.0060626599 -0.0037404029
0.00076180149 0.0046426603 -0.0052539362
0.00073873263 0.0045914012 -0.0056647034
0.0012564531 0.0045827045 -0.0056358404
-0.0011839159 0.0045218323 -0.0056898273
-0.0016759941 0.0042242077 -0.0056302911
-0.0017496297 0.0045218328 -0.005556494
-0.0012482704 0.004242667 -0.0056884261
-0.0020645633 -0.0028022316 -0.0051108422
-0.0015863311 -0.0037851403 -0.0056046536
-0.0015646688 -0.0033242924 -0.0055714012
-0.0015396742 -0.0028870162 -0.005556494
-0.0016803443 -0.0052599334 -0.0056017111
-0.001664207 -0.0047489484 -0.0055922982
-0.0012411245 -0.0057756398 -0.0056522004
-0.00077098445 -0.0060865106 -0.0056750965
-0.00076506607 -0.0057756128 -0.0056541217
-0.001230916 -0.0060768519 -0.0056199203
-0.00075191434 -0.0060802912 -0.0052536326
-0.00027994069 -0.006087082 -0.0042347591
-0.0015863311 -0.0060754884 -0.0055680885
-0.0016497989 -0.0057443646 -0.0056015048
0.00024562416 0.0046518333 -0.0052626561
0.00076983764 0.0046920492 -0.0047513181
0.00095646433 0.0059595439 -0.00044346717
0.0012353095 0.0058921524 -0.00074250344
0.0012072448 0.0059305555 -0.0012608559
-0.0012648797 0.005884517 0.0022409239
-0.0012749473 0.0060522999 0.0022620058
-0.0012574516 0.0058738445 0.0026453699
-0.0012457364 0.0060522999 0.0026521746
0.00024643747 0.0057092761 -0.0031657536
0.00024494863 0.0046957494 -0.0042347554
0.00076983793 0.0046957494 -0.0042347577
0.0012408373 0.0056995968 -0.0031154579
-0.0012842279 0.0060522999 0.00022087852
-0.00095646433 0.0059595439 -0.00044346717
-0.0012441812 0.0060522999 -0.00028501358
-0.001269297 0.0058807544 0.00024246075
-0.001539674 0.0057740333 -0.00075650937
-0.0012372381 0.0060522999 -0.00070433575
-0.0012752855 0.0060522999 0.00079710851
0.0012306834 0.0058823191 0.00077392044
0.00080809643 0.0037705139 -0.00038967002
0.00076729263 0.0042530526 -0.00034228177
0.0012183341 0.0037536612 -0.00040035602
0.0012241672 0.0042378637 -0.00041609677
0.0012486831 0.0045840763 -0.00044712843
0.0016410318 0.0032768296 -0.00047585089
0.0021253391 0.0032842783 -0.00092492974
0.0021292751 0.0037661302 -0.0009108868
0.0016184079 0.0042331317 -0.00045564095
0.0021153588 0.0042301016 -0.00091471337
0.0025610528 0.0037445021 -0.0013392428
0.0012441812 0.0060522999 0.0021961376
0.00024494863 0.0046920488 -0.0047513181
0.0002292268 0.0027342727 -0.00043338467
0.00028789358 0.0045929807 -0.00043714303
-0.00028817423 0.0042367456 -0.00043801079
-0.00027994072 0.0045913998 -0.00044346717
-6.9985181e-05 0.0060522989 -0.0013825945
-0.00085731852 0.0060522999 -0.0018260713
-0.0012247405 0.0060522999 -0.0012318705
-0.00015510229 0.0060805012 -0.0017868236
-0.0011982312 0.0060522999 -0.0017409596
-0.0001774624 0.0060808691 -0.0022546411
0.00086560618 0.0060614534 -0.001712113
0.00024494811 0.006081285 -0.0027449082
0.00014984005 0.006080837 -0.0022655341
-0.00022926179 0.0060702879 -0.002773894
-0.0030758465 -0.0042435653 -0.0027843281
-0.003035608 -0.005678378 -0.002460852
-0.002639659 -0.0052544014 -0.0017655032
-0.001058526 -0.0012261124 -0.00047824951
-0.00072460301 -0.00075420429 -0.00044516358
-0.001208005 -0.00073196227 -0.00047824974
-0.0015396742 -0.00083479995 -0.00047824951
-0.00027994069 -0.0027478833 -0.00044346647
0.00076619233 -0.0060863574 -0.00075216172
0.0012130768 -0.0060569374 -0.00076114736
0.0012247409 -0.0060522999 -0.00047824951
0.0017107492 -0.0060677589 -0.0013825946
0.00074650859 -0.0060793534 -0.00046279072
0.0025418622 -0.0057128132 -0.0013992899
0.0020933803 -0.0057290182 -0.00092837587
0.0022320792 -0.0057651536 -0.0017304225
0.00076164765 -0.0060856021 -0.0012501252
0.00076983724 -0.0060870834 -0.0047564963
0.001710073 -0.0057633086 -0.00079830294
0.001565458 -0.0057557262 -0.00045994297
-0.0020552319 -0.0042551612 -0.00091650896
-0.0022088017 -0.0057740347 -0.0012706119
-0.00026097309 -0.00027111487 -0.00035244739
-0.00024418233 0.0002503382 -0.00032566395
-0.0012553595 -0.0060863583 -0.0017340425
-0.00076619233 -0.0060863569 -0.00075216196
-0.00027994069 -0.0060870829 -0.0012434649
-0.00027994069 -0.0060870824 -0.00075650983
0.00076983724 -0.0060870824 -0.0017304189
0.0012506051 -0.0060848128 -0.0017326879
0.0015630025 -0.0047305324 -0.00045506121
0.0012597338 -0.0052522821 -0.00044346671
0.0015630027 -0.0052522831 -0.00045506144
0.0030688022 -0.0052494244 -0.0027958113
0.0025865368 -0.0042505222 -0.0046701198
0.0025760918 -0.0037724106 -0.0046768128
0.0030093638 -0.0032696328 -0.0040608468
0.0021567089 -0.0047351709 -0.00521215
0.00021680766 -0.00028264459 -0.00032768794
0.0002357967 -0.00075346028 -0.00033109286
0.0015746668 -0.00027826667 -0.00047824951
0.00076983741 0.0012521996 -0.00044346671
0.00074836449 -0.00027589506 -0.00044741947
0.00075854943 -0.00076897343 -0.00044533703
0.00205853 0.00076523318 -0.00087165157
0.0012476207 -0.0012602267 -0.00047423621
0.0012597338 -0.00076523324 -0.00047824951
0.0012597336 0.0017427894 -0.00044419151
0.00076983729 0.0017391666 -0.00044346671
0.0012239633 -0.0027525208 -0.00045196898
0.0015746668 -0.0022261331 -0.00047824951
0.0012181483 -0.0022291578 -0.00045808568
0.0020995552 -0.0052522831 -0.00093042199
0.0012559708 -0.0057628122 -0.0004453368
0.0025467773 0.004204541 -0.0013673237
0.0026858866 0.0046079848 -0.0022655036
0.0022256544 0.0046478054 -0.0017357474
0.0030412469 0.0042281058 -0.002783169
0.0030758474 0.0037461654 -0.0032608511
0.0030725568 0.0037472555 -0.0027832389
0.0030093638 -0.0027478831 -0.0040608468
0.0026464509 0.0045878161 -0.0042017703
0.0030093633 0.0040348661 -0.0040956293
0.0022011306 0.0051402054 -0.0031666486
0.0016670834 -0.005247823 -0.0056224866
0.0012491294 -0.0047305333 -0.0056871874
0.0016790082 -0.0047273724 -0.0056228996
0.0012127638 -0.001743835 -0.0056433342
0.0015778479 -0.0012395513 -0.0055912766
0.0016551496 -0.0016869915 -0.0055843205
0.0007636018 -0.0022237215 -0.0056666969
-0.00077560125 0.0042435648 -0.0057065375
-0.00026933689 -0.006087081 -0.0056871907
-0.00028022582 -0.0042427164 -0.0056964676
-0.00074359303 -0.0037534693 -0.0056719691
-0.00027777679 -0.0032681962 -0.0057286094
-0.00027804953 -0.0027463178 -0.0057288352
-0.0012441815 -0.0037574577 -0.0056406604
0.00024494872 -0.0052522845 -0.0056956219
0.00024532754 -0.0057725273 -0.0056941099
0.0025194669 0.0036174664 -0.005069539
0.0030308974 0.0032910388 -0.0041223839
0.0030249159 0.003717951 -0.0040956293
0.0026187394 0.003744124 -0.0046975142
0.0015746666 0.0022539599 -0.0055982335
0.0021761023 0.0022370031 -0.0051217172
0.0012491301 -0.0052522863 -0.0056871888
0.00076983828 -0.0047305324 -0.0056956196
0.0012448757 0.0022284647 -0.0056509366
0.0012398564 0.0017436942 -0.0056449967
0.001257362 0.0046157697 -0.0052597607
0.00023747822 0.0032743199 -0.0056888456
0.00076983834 0.0027478845 -0.0056608426
0.00023645777 0.0027407238 -0.0056728618
0.00076983788 0.0032696309 -0.0056608431
0.0030093638 0.0027400285 -0.0041270456
0.0030093638 0.0022261331 -0.0041304114
0.0030093638 0.0017391663 -0.0041304114
0.003057814 0.0027478831 -0.0036835899
0.0030578149 0.0017391661 -0.0036835894
-0.0017496299 -0.0060870824 -0.0027738942
-0.00076983724 -0.006087082 -0.0027738938
-0.00027994069 -0.006087081 -0.0032608488
-0.0030399836 -0.004721838 -0.0037086743
-0.0030689593 -0.0037484483 -0.003731499
-0.0030793489 -0.0037565997 -0.0032608516
-0.002239526 -0.0057740347 -0.0017304198
0.00024494811 -0.0037566 -0.00044346671
-0.00027994069 -0.0037566007 -0.00044346671
0.00024494811 -0.0042435653 -0.00044346647
-0.00027994069 -0.0042435662 -0.00044346694
0.0022395258 -0.0060870824 -0.0037478036
-0.0012358219 0.0045879246 -0.0052353372
-0.0007598396 0.0046196259 -0.0052476269
-0.00075661443 -0.0032664242 -0.0056799171
-0.0021368426 -0.0042509777 -0.00517275
-0.0021400729 -0.0052522849 -0.0051793815
-0.0016298478 -0.0042449045 -0.0055912756
-0.0012590007 -0.0052531958 -0.0056457259
-0.0022045334 -0.006087082 -0.0040608463
-0.00076983747 -0.0060870829 -0.0042347596
-0.0012515 -0.0060550254 -0.0052714138
-0.00174963 -0.0060522961 -0.0047564968
-0.0022351511 -0.0057734889 -0.0047516101
0.0021266469 0.0045532491 -0.0051660319
0.0025888956 0.0042258981 -0.0046731294
0.0021544809 0.0042290357 -0.0051919427
-0.001572917 0.0057949033 -0.0017617239
-0.0016176127 0.0058017001 -0.0022877299
-0.0015552263 0.0057740333 -0.0012511939
-0.0015396742 0.0057740328 -0.00044346717
-0.0012607863 0.0058770711 0.00077391998
0.0012328165 0.0058837328 0.001256862
0.0015746668 0.0045566158 -0.00047824951
0.0021045543 0.0045715231 -0.00093539106
0.0016229 0.0037659998 -0.00046132854
0.00076615391 0.0045785867 -0.00037390203
-5.4569682e-12 0.0056348993 -0.00086085708
6.9985188e-05 0.0060522994 -0.0013130296
-0.00095116219 0.0059511126 -0.00074702338
0.00090980734 0.0060522999 -0.00079333805
0.00085495401 0.0060579404 -0.0012603856
0.0011762024 0.0060522999 -0.0017528599
0.00011497566 0.0060804565 -0.0018049536
-0.0030606443 -0.0047089444 -0.0027792919
-0.0010752269 -0.001777112 -0.00047824951
-0.0012266848 -0.00026860466 -0.00047824974
-0.0025674584 -0.0052506267 -0.0046607605
-0.0021444173 -0.0057603563 -0.0051599182
-0.00027994069 -0.0032696319 -0.00044346671
0.00024494811 -0.0032696321 -0.00044346671
-0.00027994069 -0.0022261334 -0.00044346694
0.00024494811 -0.0022261334 -0.00044346647
-0.0007483607 -0.0047261161 -0.0056647114
0.0022358431 -0.0060870801 -0.0023363668
0.0012329059 -0.0060696881 -0.0012852036
-0.0025194669 0.00034783329 -0.0014521595
-0.0020295705 0.00090436649 -0.00096520456
-0.0025385534 0.00079053023 -0.001417377
-0.00030893483 -0.00074436364 -0.00040172762
-0.00073305011 -0.0012548757 -0.00045238552
-0.0030793482 -0.0032696314 -0.0027738938
-0.0030793459 -0.0027478843 -0.0027738938
-0.0012347389 -0.0060731666 -0.0012732784
-0.00028431477 -0.0057704109 -0.00044419151
-0.00076983776 -0.0057740328 -0.00044346694
0.00076983758 -0.0060870843 -0.0022521564
0.00076983729 -0.0060870824 -0.0032608507
0.00076983741 -0.0060870829 -0.0027738938
0.0012597336 -0.0060870824 -0.003260849
0.0012597336 -0.0047305338 -0.00044346694
0.0012597338 -0.0042435653 -0.00044346671
0.0030093633 -0.0035826829 -0.0040608468
0.0027038464 -0.0042435639 -0.0042165001
0.0025816772 -0.0057310918 -0.0046341131
0.0026914158 -0.0057218559 -0.0042152684
0.0021595426 -0.006087082 -0.0041005979
0.0027050094 -0.0052522859 -0.0042153466
0.0025965513 -0.00524926 -0.0046531563
0.0017337048 -0.0057595405 -0.005272212
0.0012597335 -0.00027826667 -0.00047824951
0.0020741066 -0.00072728784 -0.00086085708
0.0020995557 -0.0011130666 -0.00086085708
0.0012259072 -0.0017461232 -0.00046549598
0.0015746668 -0.0012521999 -0.00047824951
0.00076983741 -0.0017391662 -0.00044346694
0.0030434607 -0.0042399983 -0.0023324238
0.0025474606 -0.0047305319 -0.0013965069
0.0030390548 -0.0047199936 -0.0023596671
0.002646941 -0.0047305329 -0.001782593
0.0030773901 -0.001247335 -0.002778759
0.0030093635 -0.0022261334 -0.0023217215
0.0030093635 -0.0017391664 -0.0023217218
0.00019772076 0.00023691569 -0.000341309
-0.00027406818 0.00077009783 -0.00030628312
0.00018662727 0.00076394505 -0.00035844324
0.0020995555 -0.0047305324 -0.00093042152
0.0030348138 0.0033075775 -0.0022521568
0.0026630128 0.0037548235 -0.0017626854
0.0030358026 0.0037365034 -0.0022815282
0.0030443559 0.0042435662 -0.0032608497
0.0021677813 -0.0052388255 -0.0051950384
0.0021408102 -0.0057073962 -0.005165468
0.0030404676 -0.0056890058 -0.0035738912
0.0020295703 -0.0017391664 -0.00086085708
0.0026957607 0.0046072523 -0.0037429617
0.001638477 0.0056287609 -0.0031094428
0.0016711785 0.0056960504 -0.0028227011
0.0022328454 0.0046451562 -0.0042296983
0.0022233031 0.0045891004 -0.0047295438
0.0017426306 0.0046751471 -0.004220577
0.0017277267 0.0045871548 -0.0052548693
0.0030610336 0.0032852357 -0.0037087963
0.0030586852 0.0037420243 -0.0037067274
0.0030636007 -0.003758339 -0.0037234572
0.0030610336 -0.003285236 -0.0037087963
0.0030793471 -0.0037566002 -0.003260849
0.0030793478 -0.0032696312 -0.0032608507
0.0030578128 -0.0027478831 -0.0036835903
0.003057814 -0.0022261331 -0.0036835903
0.0030093638 -0.0017391666 -0.0040608468
0.0020776854 -0.0022478728 -0.0051043215
0.0030093638 -0.0012304602 -0.0040738899
0.0030578149 -0.0017391662 -0.0036835889
0.0030793459 -0.001739166 -0.0032608502
0.0030793471 -0.0022261329 -0.0032608507
0.0030093638 -0.0007652333 -0.0041304124
0.003079348 -0.0012521996 -0.0032608507
0.0021818453 0.0037569823 -0.0051880321
0.0016313223 0.0042328001 -0.0056285425
0.0030578149 -0.0012521995 -0.0036835896
0.0011821032 -0.0012638917 -0.0056359945
0.0015396744 -0.00083479995 -0.005591277
0.0011883485 -0.000765929 -0.0056239702
0.0021205507 -0.0027722309 -0.0051077991
0.0025389071 -0.0028445036 -0.0045709894
0.0025194669 -0.0023652662 -0.0045130192
0.002125127 -0.0037693093 -0.0051718829
0.0016757562 -0.0022338624 -0.005556494
0.0020295705 -0.00055653328 -0.005069539
0.0027294222 0.00043479164 -0.0046347575
0.0030093638 -0.00026991864 -0.0041345861
0.0021384347 -0.00026684016 -0.0047116294
-0.00075368676 0.0045539429 -0.0056956233
0.00024168214 -0.0060866158 -0.0056900587
0.00023298639 -0.0037554894 -0.0057176203
-0.00027994148 -0.0022261322 -0.0057304017
0.0002427422 -0.0017379132 -0.0057288329
-0.00027994119 -0.0017391659 -0.0057304027
-0.0007564156 -0.00027985487 -0.0056791054
-0.00027922471 0.0007659453 -0.0057298099
-0.00075846503 0.0002414542 -0.0056724367
-0.00027872613 0.00024952184 -0.0057014138
-0.00076259725 0.00076386239 -0.0056675263
0.001554671 0.0017391666 -0.0055763698
0.0012688128 0.0042484533 -0.0056723133
0.00024494811 0.0045914031 -0.0056956257
0.00024793574 0.0017353484 -0.0057270098
0.00024316227 0.0012538712 -0.0057288292
-0.00027556741 0.0012493012 -0.0057275034
0.001742931 0.0046073138 -0.0047453945
0.00076353288 0.0037672548 -0.0056821527
0.00024407073 0.0037573483 -0.0056951232
0.0030793468 0.0022261329 -0.0032608502
0.0030793478 0.0017391659 -0.0032608502
0.0026230074 0.002759479 -0.0046982057
-0.0012597335 -0.0060870829 -0.0032608497
-0.0012597336 -0.0060870829 -0.0027738938
-0.0026831557 -0.0037618389 -0.0041823639
-0.0030718108 -0.0032728424 -0.0037242603
-0.0026333807 -0.0057644122 -0.0017726048
-0.00209148 -0.0032763218 -0.0051230513
-0.0025350186 -0.0033082818 -0.0018347667
-0.0021995711 -0.0032768992 -0.0012743528
-0.00076983694 -0.0037566004 -0.00044346671
0.0017496301 -0.006087081 -0.0037478043
0.0017274828 -0.0060787136 -0.0042101033
-0.00075375568 -0.0027424085 -0.0056722378
-0.0021517014 0.0042340169 -0.0051895748
-0.0016967637 0.0037525962 -0.0056375698
-0.0021540315 0.0037463224 -0.0052090664
-0.0012567281 -0.0042427122 -0.0056418539
-0.0012300659 -0.0060795196 -0.0047406172
-0.0017229691 -0.0060522994 -0.005253389
-0.00076983724 -0.0060870824 -0.0037478041
-0.0017496302 -0.0060870834 -0.0037478048
-0.0030501012 0.00026269202 -0.0023969971
-0.003051355 0.00076523307 -0.0023773746
0.0012469484 0.00274521 -0.0056528156
0.00076160458 0.0022220404 -0.0056690276
0.00025804096 0.0022209263 -0.005710525
-0.00027502485 0.0032713555 -0.0056944727
-0.0016881287 0.0027626408 -0.0056292242
-0.002155141 0.0032724135 -0.0052070813
-0.0021578018 0.0027653836 -0.0051754024
-0.0017109667 0.0032744962 -0.0056352983
-0.001148848 -0.0012494894 -0.0056161201
-0.0016701225 -0.0012564592 -0.0051755444
-0.0011630536 -0.0017355804 -0.0056260568
-0.0016938793 -0.001747813 -0.005185483
-0.0012491305 0.0037565995 -0.0056871898
-0.00076983724 0.0037566004 -0.005695621
-0.00027968298 -0.00077344762 -0.005715644
-0.00074745389 -0.0012583962 -0.0057032215
-0.00074468146 -0.00076875964 -0.005683125
-0.0011939268 -0.00025957706 -0.0056530572
0.0015396742 0.0014261166 -0.005591277
0.0030793478 0.0012521995 -0.002773894
0.0030793466 0.0012521999 -0.0032608502
0.0030793466 0.00024348326 -0.0032608495
0.0012395217 0.004665738 -0.0047448203
0.0016414711 0.0032696326 -0.0056134094
-0.0030275078 0.0045707864 -0.0032531202
-0.0030758481 0.003746165 -0.0027738947
-0.0021112198 0.0045392239 -0.005121713
-0.002554459 0.0045218323 -0.004638236
-0.0025878116 0.0042283479 -0.004677691
0.0021876001 0.0032804029 -0.0051642423
-0.0025194669 0.0045218328 -0.001417377
-0.0030299476 0.0041862763 -0.0024117469
-0.0030093633 0.0045218328 -0.0024608518
0.0012597336 0.0060522999 0.0012608755
0.00025221071 0.0042363466 -0.00044543552
-0.00031811467 0.0037439517 -0.00040763034
0.00024494811 0.0037566009 -0.00044346671
-0.00030743529 0.0032613489 -0.00038549607
-0.0012498634 0.0037539247 -0.00039173895
-0.0016213236 0.0037566 -0.00045506121
-0.0016213236 0.0032696333 -0.00045506121
-0.0012265833 0.0032760382 -0.00039403909
-0.00077307806 0.0042351913 -0.00034684897
-0.0012491879 0.00423213 -0.0003977255
0.0012141372 0.0058804867 -0.0002800948
0.0026710548 0.003267898 -0.0017685215
-0.0015396742 0.0014261166 -0.00047824951
-0.0020550194 0.0012901453 -0.00096520456
0.0001974582 0.0022095691 -0.00038880878
0.0011560514 0.0060522999 -0.0007333213
0.0015941078 0.0057817618 -0.0023217229
-0.0030788672 -0.0037551711 -0.0027753226
-0.0030793478 -0.0032696312 -0.0032608511
-0.0016541955 -0.001701221 -0.00047824951
-0.0011997462 0.00023354523 -0.00047824951
-0.0007539916 0.00077835913 -0.00042771641
-0.00076405873 0.00024827002 -0.00044442411
-0.00074650877 -0.00027346902 -0.00044786464
-0.0026160576 0.0032769539 -0.0046989336
-0.0030093633 0.0040348661 -0.0040956289
-0.0026162453 0.0037482521 -0.0046958756
-0.0030249159 0.003717951 -0.0040956293
-0.0020762272 0.00027826664 -0.005084998
-0.0015396741 0.00083479995 -0.0056260596
-0.0015719753 0.0012682535 -0.0056260587
-0.001616022 0.0017486528 -0.0056260559
-0.0012491976 -0.0057673012 -0.0004453368
-0.00027994069 -0.0047305338 -0.00044346671
0.00024494811 -0.0047305338 -0.00044346671
0.0022395256 -0.0060870824 -0.0027738935
-0.00029609114 -0.006087082 -0.00044614286
0.0017107495 -0.0060677547 -0.0017304195
0.0002669805 -0.006085794 -0.00044990843
0.0017431496 -0.0060857949 -0.0022573094
0.0017496302 -0.006087081 -0.002773894
0.00076983776 -0.0052522854 -0.005695621
-0.003038181 -0.002219995 -0.0023493436
-0.0027232794 -0.0017387721 -0.0022774779
-0.0030414886 -0.0017494304 -0.0023781718
-0.0020937831 -0.0017535099 -0.001315899
-0.0020954392 -0.0012497446 -0.0013474033
-0.0025629704 0.0012616009 -0.0014089161
-0.0030560205 -0.00076523324 -0.0024028816
-0.0025282144 -0.00025217916 -0.0017999848
-0.0022223627 -0.0007596942 -0.0017426065
-0.0021265678 -0.00074936746 -0.0013478126
-0.00029578639 -0.0012443243 -0.00043296651
-0.0030793461 -0.002747884 -0.0032608509
0.0012597338 -0.0060870843 -0.0022521561
0.00076983724 -0.0060870824 -0.0037478032
0.0026469401 -0.0042435653 -0.001782593
0.0025474604 -0.0037565988 -0.0013965074
0.0025474601 -0.0042435667 -0.0013965071
0.0026372808 -0.0037534537 -0.0017660755
0.0021218909 -0.0042361664 -0.00093412213
0.00076983718 -0.0052522821 -0.00044346671
0.0015746667 -0.0027478829 -0.00047824951
0.0025400498 -0.0027785737 -0.0013928243
0.0030311632 -0.0033004244 -0.0023348369
0.0026497343 -0.005254332 -0.0017713406
0.00213607 -0.0032635834 -0.0051159183
0.0016563168 -0.0032939808 -0.0056017088
0.0030673009 -0.0042378637 -0.0037181533
0.0017107497 -0.0060677552 -0.0047217142
0.0022280253 -0.0057606637 -0.0047449712
0.0030793482 0.0022261324 -0.0027738938
0.0030793464 0.0017391659 -0.0027738942
0.0030093638 0.0017391666 -0.0022521566
0.0030093638 0.0022261334 -0.0022521564
0.0025194664 0.00076523318 -0.0013825943
0.0025496562 0.0017555348 -0.0013566779
0.0015746668 -0.0017391666 -0.00047824951
0.0025709274 -0.001763719 -0.0017713401
0.0028121318 -0.0002181864 -0.0017620396
0.002540462 -0.0012939398 -0.0017999848
0.0025194667 -0.00093914988 -0.0017999843
0.00076983724 -0.0012521995 -0.00044346694
0.0030793466 -0.0027478845 -0.0032608502
0.0030473571 -0.0037566002 -0.0023495483
0.0030719806 -0.0032696319 -0.0027922003
0.0030793473 -0.0042435648 -0.0032608495
0.0030719817 -0.0017391664 -0.0027922008
0.00024494811 -0.0027478843 -0.00044346647
0.00076983758 -0.0027478836 -0.00044346647
0.00025747647 -0.001227293 -0.00038678432
0.00024494811 -0.0017391666 -0.00044346671
0.0022203694 -0.005740012 -0.0012683445
0.0030793478 0.0032696314 -0.0032608504
0.0030757713 0.0032726778 -0.0027891265
0.003076656 0.0027425326 -0.0027899463
0.0026475054 0.0042342683 -0.0017579894
0.0027050117 -0.0047305324 -0.004215348
0.0030341975 -0.0052320841 -0.0036580439
0.0030352846 0.0042023417 -0.0036666449
0.0030233604 -0.0052105426 -0.0023912876
0.0017427456 0.0052260547 -0.0031758936
0.0030578135 0.0022261334 -0.0036835903
0.0016184074 0.0045653116 -0.0055869292
0.00076363696 -0.00027709239 -0.0056909234
0.00075564766 -0.0012521999 -0.0056779929
0.0007575074 -0.0017371784 -0.0056730979
0.00023628262 0.0007689402 -0.0057211365
0.00076148188 0.00024140652 -0.0056893919
0.0016621482 -0.0027896224 -0.0055773631
0.0020383184 -0.001765254 -0.005104322
0.0020451227 -0.0002396185 -0.005069539
0.0017034697 -0.00027037261 -0.0051489761
-0.0002690813 -0.005771935 -0.0056890291
0.00023546428 -0.0032689809 -0.0057222778
0.00076199224 -0.0032783661 -0.0056818989
0.0012466311 -0.0037594584 -0.0056790994
-0.00074701646 -0.0022218977 -0.0056913863
0.0026340196 0.0032706156 -0.0047007101
0.0007587719 0.00076998991 -0.0056902696
0.0021345473 0.0017498691 -0.0051284037
0.0025974063 0.001740747 -0.0046647969
-0.0012471143 0.001740306 -0.0056534251
-0.0012542383 0.0022279534 -0.0056581125
0.00024494861 0.0042435657 -0.0056956178
-0.00027994119 0.0042435657 -0.005695621
-0.00027994119 0.0037565995 -0.0056956252
-0.00076661288 0.0032824543 -0.0056776754
0.0026014361 0.0022342331 -0.0046783537
-0.0027149965 -0.0052529639 -0.0042173164
-0.0025369627 -0.0038114502 -0.0047003105
-0.0021036719 -0.0037746057 -0.005162023
-0.0017285033 -0.0032748808 -0.00080113579
-0.0012080056 -0.0037676909 -0.00045506121
0.0017496304 -0.006087082 -0.003260849
0.0012433539 -0.0060811606 -0.0047350344
-0.0017103405 0.0045499038 -0.0052074478
-0.0012553595 -0.0060863569 -0.0042311368
-0.0012597336 -0.0060870829 -0.0037478032
-0.0030436271 0.0042399419 -0.0027782414
-0.0030210279 0.0045682103 -0.0028434591
-0.0030470495 0.0037396546 -0.0023529371
-0.00076983729 0.0012521999 -0.0056608436
-0.00076983724 0.0017391661 -0.0056608403
-0.0016563166 0.0022377276 -0.0056260559
-0.001167731 -0.00076366996 -0.005619803
-0.00074900902 -0.0017364052 -0.0057052881
-0.0012391506 0.0002537136 -0.0056608426
-0.0012428698 0.00076649082 -0.0056419852
-0.00027994119 -0.00027826644 -0.0056956275
-0.00027994107 -0.0012521999 -0.0057304031
0.00023375099 -0.00076801569 -0.0057095271
0.0011958105 0.00077016349 -0.0056359177
0.0012307257 0.0012563192 -0.005635215
0.0026235329 0.0012703474 -0.0046430761
0.0017080446 0.000771955 -0.0051979166
0.0017002294 0.00025303164 -0.0051807119
0.0030578147 -0.00076523324 -0.0036835896
0.003057814 0.0012521995 -0.0036835899
0.0016357992 0.0037658205 -0.00562438
0.0012592928 0.0037600999 -0.0056435592
0.0012432906 0.0032658591 -0.0056419875
0.0021343736 -0.0012665929 -0.0047162292
-0.0020656236 0.0017497066 -0.00092093553
-0.00156067 0.0017809063 -0.00047824951
-0.0030093633 0.0045357463 -0.0036365003
-0.0025933399 0.0050667729 -0.0029516716
-0.0020295705 0.0055653327 -0.0029130243
-0.0025921438 0.0050489348 -0.0031350967
-0.0016892079 0.0056992797 -0.0027967938
-0.00075890176 0.0060522999 -0.0027847639
-0.00076007261 0.0046755262 -0.0047540716
-0.00027123338 0.0046452568 -0.0052628452
-0.0020645631 0.0045218328 -0.00096520456
-0.00261172 0.0045218323 -0.0017841742
-0.0011897482 0.0045218323 -0.00044346717
-0.0012194684 0.0017448842 -0.00045537879
-0.0012203666 0.0012554607 -0.00046194508
0.00021280089 0.0017289851 -0.00033827126
-0.00027994139 0.0012521999 -0.00030433713
-0.00028581399 0.0017362469 -0.00030822889
-0.00029601183 0.0022235564 -0.00031670416
0.00024494811 0.0032696321 -0.00044346647
-0.00077595271 0.0037626792 -0.00036377111
-0.00076983724 0.0032696307 -0.00037390226
-0.0016250225 0.0027707885 -0.0004595858
-0.0012025621 0.0027586618 -0.00040672463
-0.00018896 0.0056348997 -0.00088172662
0.0011697522 0.0060522994 -0.00030930596
0.0011197629 0.0060522994 -0.0012434643
-0.00027994069 -0.0017391666 -0.00044346694
-0.0021833756 -0.0012438407 -0.001745249
-0.00074461033 -0.0017432112 -0.00044832006
-0.0012043287 0.00077827694 -0.00046955398
-0.0016966924 0.00077682815 -0.00086888461
-0.0030793461 0.0032696316 -0.0032608502
-0.0030793464 0.0032696312 -0.0027738945
-0.0021345483 0.0017498691 -0.0051284037
-0.0030293595 0.0032845403 -0.0041403491
-0.0020295705 -0.0023304829 -0.0051043215
0.00076983718 -0.0032696326 -0.00044346671
0.00076983741 -0.0037566004 -0.00044346694
0.0012531035 -0.0037609935 -0.0004445652
-0.0012578419 -0.0052544768 -0.0004437801
-0.00076983747 -0.0052522821 -0.00044346671
-0.00076983741 -0.0042435653 -0.00044346671
0.00024687682 -0.0052503664 -0.00044374052
0.00076983718 -0.0057740328 -0.00044346671
0.0021345464 -0.0042537106 -0.0052014263
0.0016583164 -0.0042429036 -0.0056306962
-0.0030793482 -0.0022261327 -0.0027738942
-0.0030793478 -0.0022261331 -0.0032608509
-0.0030529613 -0.0012464978 -0.0024021198
-0.0030793461 -0.001739166 -0.002773894
-0.003052067 -0.00029005768 -0.0024013093
-0.0025661241 0.00027826664 -0.0017767961
-0.0021563119 -0.00026681356 -0.0013257555
-0.0015778481 -0.0012395513 -0.00047824951
-0.0026336748 0.0012556606 -0.0017511849
-0.0026015027 0.00078181911 -0.0017580607
0.0021372396 0.0027425312 -0.00094112405
0.0025640039 0.0027478831 -0.0013256782
0.0012597338 -0.0060870829 -0.0027738942
0.0026060762 -0.0022396115 -0.0017543312
0.001564169 -0.0042540017 -0.0004573802
0.0015746668 -0.0037565995 -0.00047824951
0.00076983724 -0.0047305343 -0.00044346671
0.0020295705 -0.0022493219 -0.00088404538
0.0025474599 -0.0032696335 -0.0013965073
0.0030093638 -0.0027478829 -0.0023217218
0.0025474601 -0.0052522831 -0.0013965074
0.0026378373 -0.0057246466 -0.0017720731
0.0025494599 -0.0032950302 -0.0046510459
0.0030793471 0.00076523365 -0.0027738954
0.0030793466 0.00024348326 -0.0027738919
0.0030093638 0.0027478829 -0.0022521564
0.0020645631 -0.00027826667 -0.00086085685
0.0025640028 0.0032696326 -0.0013256783
0.0025329252 0.0012816321 -0.0013906212
0.0026876042 0.00079619896 -0.0017707156
0.0026557061 0.0012475625 -0.0017628836
0.0027465292 0.00028986114 -0.0017845253
0.002645443 0.0022261327 -0.0017652025
0.0015746668 -0.0007652333 -0.00047824951
0.0030093635 -0.0012521999 -0.0023217227
0.0030719792 -0.0047305338 -0.002792201
0.0030731256 -0.0047212578 -0.0032484829
0.0030719796 -0.0037566002 -0.0027922005
0.00076983729 -0.0022261334 -0.00044346671
0.0030793473 0.0027478843 -0.003260849
0.0025933404 -0.0047305333 -0.0046676076
0.0030542461 -0.0047048242 -0.0037001667
0.0030676825 -0.0052522845 -0.003237664
0.0022288503 0.0046565454 -0.0037463342
0.0012582951 0.0046945591 -0.004233567
0.0030093638 -0.0022261331 -0.0040608463
0.0012579662 -0.003271739 -0.0056625991
0.001188376 -0.00027553859 -0.0056294668
0.0011717221 0.00024453734 -0.005641873
0.00075883564 -0.00076249923 -0.0056859031
0.00024170853 -0.00125585 -0.005723963
0.00024418562 0.00024424147 -0.0056962655
0.0012315746 -0.0022327185 -0.005650348
-0.0016847971 -0.00026631652 -0.0051805046
0.0012491297 -0.0042435648 -0.0056871912
0.00074875081 0.0017376469 -0.0056892461
-0.0012427428 0.0012542104 -0.0056469701
-0.00027994069 0.0045914021 -0.0056956257
-0.0021510329 -0.0047339834 -0.0051592286
-0.0030093633 -0.002539183 -0.0040260642
-0.0016942932 -0.0027581309 -0.00079479697
-0.001257624 0.0032727779 -0.0056634601
-0.0017346335 -0.0060731675 -0.0041979891
0.0021947564 0.0027596485 -0.0051345048
-0.0002618804 0.0022210835 -0.0057046022
-0.0017035257 -0.0022323963 -0.0052037234
-0.001683588 -0.00076817308 -0.0051621348
-0.0012583707 -0.0032732447 -0.0056323851
0.00075953745 0.0012497907 -0.0056880908
0.0026775373 0.00081920717 -0.004641355
0.0030093638 0.00024348331 -0.0041304119
0.0030093638 0.0012522001 -0.0041304114
0.00074727181 0.0042367382 -0.0056813215
0.0021094871 -0.00076523371 -0.0046952344
-0.0030093635 -0.00076523324 -0.0040260642
-0.003075663 -0.00076523353 -0.0037258361
-0.0030093635 -0.0012521999 -0.0040260642
-0.0030745387 -0.0012495447 -0.0037233769
-0.0030756637 -0.00027826661 -0.0037258354
-0.0030093635 -0.00027826667 -0.0040260642
-0.0021967259 0.0052485457 -0.002917049
-0.0022051777 0.0051573217 -0.0031673857
-0.0022055726 0.0045845159 -0.0041782809
-0.0017332593 0.0046247602 -0.0041969242
-0.0017471005 0.0046707438 -0.0037704373
-0.00083613867 0.0060522999 -0.0022741251
-0.0017435561 0.0052400776 -0.0031852517
-0.0012409207 0.0056536025 -0.0031404207
-0.002192036 0.0045454362 -0.0012968808
-0.0025462252 0.0042374283 -0.0013969165
-0.0026717912 0.0027478845 -0.0017692928
-0.0026523101 0.0022312852 -0.0017671346
-0.0025661229 0.0022261331 -0.0014057828
-0.0030404679 0.0022261336 -0.0023719624
-0.0030404679 0.0027478829 -0.0023719624
-0.0016207095 0.0042234287 -0.00045811245
-0.00074542349 0.0045541893 -0.00037309341
-0.00028710513 0.0027339167 -0.00034815795
0.00020554733 0.0012598683 -0.0003404892
0.0012073573 0.0058803991 -0.0017452299
-0.0015956626 -0.00077288569 -0.00079616182
-0.00070709153 0.0012665929 -0.00035231281
-0.0030793485 0.0027478843 -0.0027738947
-0.0030793445 0.0022261331 -0.0027738938
-0.0030093635 0.00024348331 -0.0040260642
-0.0025903385 0.0027492053 -0.0046891328
-0.003079348 0.0032696309 -0.003747805
-0.0021152801 -0.0017555803 -0.0047260132
-0.0020926092 -0.0012601655 -0.0046994109
0.0020806408 -0.0032790343 -0.0009257216
0.0012364052 -0.0032744298 -0.00044786464
-0.00076983753 -0.0047305338 -0.00044346671
-0.0012269006 -0.0042487183 -0.00045076711
-0.00027994069 -0.0052522821 -0.00044346671
0.00026499238 -0.0057706553 -0.00044650608
0.001644653 -0.0037692487 -0.0056276391
-0.003079348 -0.0012521996 -0.003260849
-0.0030793466 0.00024348326 -0.002773894
-0.002718108 -0.00076398335 -0.0022875629
-0.0016765109 0.00025438555 -0.00088889152
-0.0021913927 0.00025243589 -0.0013159638
0.0021064167 0.0022247692 -0.00092019164
0.00076983764 -0.0042435662 -0.00044346671
0.00076983729 -0.0037565995 -0.0056956178
0.0030719806 -0.0022261331 -0.0027922003
0.0030093638 0.00025067988 -0.0022749461
0.0030093638 -0.00027036137 -0.0023106551
0.0030093638 0.00076523307 -0.0022521573
0.0026682199 0.0027544308 -0.0017676398
0.0020429012 0.0012389491 -0.00091551524
0.0020645633 0.00024348331 -0.00086085708
0.0025640037 0.0022261334 -0.0013256782
0.0026454416 0.0017391659 -0.0017652017
0.0021574276 -0.0012615644 -0.0013290823
0.0030719803 -0.0042435653 -0.002792201
0.0030719806 -0.002747884 -0.0027922012
0.0026410928 -0.0032676049 -0.0017631765
0.002074722 0.00077196548 -0.0051031988
0.00024494855 -0.00027826632 -0.0056956224
0.0012505763 -0.0027498347 -0.0056559644
-0.001688467 0.00025342134 -0.0052139275
-0.0030093635 -0.0022261331 -0.0040260642
-0.0025350191 -0.0033082813 -0.0045130192
-0.0021698247 -0.0027639279 -0.0012832161
0.0012597337 -0.0060870824 -0.0042347596
-0.0021997811 0.0045433072 -0.0047586435
-0.0017312129 0.0045840815 -0.0047564949
-0.00026706405 0.0027531716 -0.0056819906
-0.00076983758 0.0027478843 -0.0056608384
-0.00026387072 0.0017365896 -0.0057180398
-0.0020451227 -0.00023961853 -0.005069539
-0.0012227603 -0.002752478 -0.0056313118
0.0030578135 -0.00027826667 -0.0036835899
0.0030793457 -0.00027826667 -0.0032608502
0.0030793478 -0.00027826661 -0.0027738924
0.0030793478 -0.00076523365 -0.0032608493
0.003057814 0.00076523318 -0.0036835906
0.0030793461 0.00076523365 -0.0032608493
-0.00216483 0.0022441936 -0.0051364321
-0.0030793478 -0.00027826667 -0.0032608497
-0.0030793466 0.00024348326 -0.0032608504
-0.0030793478 0.00076523365 -0.0032608495
-0.0016096593 0.0022356196 -0.00047508767
-0.0020715615 0.0022261329 -0.00092346524
-0.00027994139 0.0046920492 -0.0047513214
-0.002696763 0.0045850263 -0.0037634566
-0.0026895471 0.0045501492 -0.002275615
-0.0026734339 0.0045417082 -0.0041453182
-0.001200515 0.0060522999 -0.0026909513
-0.0016633146 0.0056140288 -0.0031008492
-0.0022257403 0.0046356707 -0.0037671309
-0.0025792723 0.0037528058 -0.0013914483
-0.0026550442 0.0042338949 -0.0017628622
-0.002580703 0.003269633 -0.0013912903
-0.0026699789 0.0032693394 -0.0017682586
-0.0025782045 0.0027565788 -0.0014012281
-0.00076983793 0.0027478847 -0.00037390226
-0.00076032523 0.0022200537 -0.00036377157
-0.00072164054 0.0017385097 -0.00033977581
-0.0030093638 0.002766856 -0.0040893052
-0.0030483431 0.0032907669 -0.0023476982
-0.0030484726 0.0012470847 -0.0023759408
-0.0026432883 0.0017411726 -0.0017638636
0.0021135518 -0.003765875 -0.00093274075
0.0015746668 -0.003269633 -0.00047824951
-0.001240075 -0.0047344416 -0.00044698431
-0.0027276094 -0.0012528014 -0.002281327
-0.0030793478 -0.0012521999 -0.0027738952
-0.0030793466 0.00076523365 -0.0027738947
-0.0030793466 0.0012521996 -0.0027738942
0.0020476314 -0.0027692018 -0.00091134757
0.00076983793 -0.0042435648 -0.0056956247
0.0030093638 0.0012522001 -0.0022521566
0.0020947289 0.0017751489 -0.00092922221
0.0030093635 -0.00076523324 -0.0023217215
0.0021843973 -0.0017499946 -0.001306467
0.0020762277 0.00027826664 -0.005084998
0.002171376 -0.0017508907 -0.0047258846
-0.00076983811 0.0022261322 -0.0056608454
-0.0021921487 -0.0027588287 -0.0047482937
-0.0030093635 -0.0017391666 -0.0040260642
-0.0021555983 -0.0022319527 -0.0047402829
-0.0030715703 -0.0022261329 -0.0037168879
-0.0025194669 -0.0029913664 -0.0045130192
-0.0026642268 -0.0032809819 -0.0041618939
-0.0020715611 0.0027478826 -0.00092346547
-0.0020295705 -0.00055653328 -0.005069539
-0.0011943707 -0.0022399155 -0.0056194938
0.0021170517 0.0012695916 -0.0051043197
0.0030793475 -0.00076523359 -0.002773894
0.0030093638 0.00076523318 -0.0041304119
-0.0021170517 0.0012695914 -0.0051043206
-0.0025858644 0.0022409982 -0.0046634451
-0.0030793482 -0.00076523359 -0.0032608495
-0.0012171337 0.0060522985 -0.0022612312
-0.0020741064 0.0042309179 -0.00092725991
-0.0026664962 0.0037566 -0.0017649082
-0.0030793468 0.002747884 -0.0037478067
-0.0030793464 0.0022261329 -0.0037478039
-0.0030793461 0.0017391659 -0.0032608502
-0.0025661241 0.0017391663 -0.0014057825
-0.0030756623 0.00024348331 -0.0037258409
-0.0030404688 0.0017391666 -0.0023719633
-0.0021796641 0.00025617125 -0.0047230306
-0.0030793461 -0.00027826661 -0.0027738947
-0.0030793475 -0.00076523371 -0.0027738942
-0.0016282275 -0.00027613709 -0.00085872784
0.0026300696 -0.0027522321 -0.0017552646
-0.0030715694 -0.002747884 -0.0037168881
-0.0030715717 -0.001739166 -0.0037168865
0.0025194669 -0.0023652664 -0.0013825943
-0.002134775 -0.0022384089 -0.0013002981
-0.0012597328 0.0027478845 -0.0056608408
-0.0012524941 0.004632181 -0.0047564963
-0.00076217565 0.0046830545 -0.0042296806
-0.0021112191 -0.00075688568 -0.0046860022
0.0030578137 0.00024348331 -0.0036835894
-0.0020747227 0.00077196548 -0.0051031997
-0.0025598446 0.0017659225 -0.0046575
-0.0025404622 0.00129394 -0.0045825844
-0.0020715618 0.0032696333 -0.00092346524
-0.0020715618 0.003756599 -0.00092346524
-0.0030793478 0.0027478843 -0.0032608502
-0.0030793461 0.0022261327 -0.0032608518
-0.0030793461 0.0017391661 -0.0027738942
-0.0030793464 0.0012522 -0.003260849
-0.0030793478 -0.001739166 -0.00326085
-0.0012535678 0.0046536112 -0.0042160652
-0.00027994136 0.0046957489 -0.0042347559
-0.0021384344 -0.00026684016 -0.0047116322
-0.0030093635 0.00076523318 -0.0040260642
-0.0012089752 0.0022444804 -0.00043467572
-0.0030093638 0.0022261329 -0.0040608463
-0.0030093638 0.0017391663 -0.0040608463
-0.0030093638 0.001281186 -0.0040550497
-0.0025194669 0.00093914988 -0.0045825844
-0.0030756628 0.00076523353 -0.0037258349
-0.0030756628 0.0017391661 -0.0037258356
-0.0030756635 0.0012521998 -0.0037258368
