# .PCD v0.7 - Point Cloud Data file format
VERSION 0.7
FIELDS x y z
SIZE 4 4 4
TYPE F F F
COUNT 1 1 1
WIDTH 861
HEIGHT 1
VIEWPOINT 0 0 0 1 0 0 0
POINTS 861
DATA ascii
-0.00057532027 -0.00053846155 -0.011540322
-0.00075766211 -0.0011361912 -0.01065084
-0.00025453561 -0.00056643353 -0.011540323
-0.0012297983 -0.0011194758 -0.010626873
-0.0011723194 -0.00058193982 -0.0033917525
-0.00075995125 -0.00026047765 -0.003310129
-0.0012431087 -0.00024985112 -0.0033423293
-0.0051138084 -0.00090769242 0.00023778901
-0.0051290686 -0.00093006983 0.00074242381
-0.0048806323 -0.00093269232 0.00074242381
-0.0048840446 -0.00092438073 0.00024110032
-0.0051555098 -0.00041826934 -0.00085509848
0.00026848292 0.0016923075 -0.0082496284
-0.00026200956 0.0016871141 -0.0082457541
0.00026325279 0.0016687067 -0.0087227104
-0.00026033274 0.0016543267 -0.0087221833
-0.005121754 -0.00093245751 0.0026490916
-0.0048863874 -0.0011076923 0.0026556239
-0.0050926502 -0.0011253562 0.0026457035
-0.0048806323 -0.00093269226 0.0026556239
-0.0048863865 -0.0011076921 0.0022347202
-0.0048806318 -0.00093269226 0.0022347192
0.0051290682 0.0010699296 0.0026556249
0.0048749773 0.0010848122 0.0026467941
0.005085832 0.00089230761 0.0026556239
-0.0051241871 -0.00092211564 0.0022232397
0.0050858315 0.00089230743 0.0022347202
0.0048745316 0.00089160836 0.0026451875
0.0031178861 -0.00063076918 -0.0048476001
0.0036103434 -0.00058862881 -0.0053881356
0.0030300203 -0.0010769231 -0.005494609
0.0032192527 -0.00071010867 -0.0052893688
-0.0021842995 -0.0011173075 -0.010093944
-0.0017314402 -0.0015531138 -0.0091843512
-0.0011809206 -0.0015384613 -0.0096593434
-0.0017430909 -0.0011598205 -0.010167281
-0.0017552677 -0.0012342267 -0.0097247092
-0.0016876061 -0.0010769231 -0.010583721
-0.0051103788 -0.0011292303 0.001740349
-0.0048863869 -0.0011076923 0.0017372877
-0.0048814104 -0.0011101868 0.00023464998
-0.0044355728 -0.00085917168 -0.00083464198
-0.0048050554 -0.00085576944 -0.00029070443
0.00026223922 0.00020989891 -0.003259575
0.00075556623 0.00020975218 -0.0032932775
0.00026717153 -0.00025838302 -0.0032501167
0.004862125 0.00089087669 0.0022240416
-0.0048806323 -0.00093269243 0.0012398558
-0.004886386 -0.0011076921 0.0012398558
-0.00018081495 0.001 -0.0033518248
-0.00075239694 0.00071243726 -0.0033446725
-0.00027540408 0.00070445344 -0.0033351386
-0.0051290682 -0.00093007012 0.0012398553
-0.001119957 0.0010153847 -0.0039181318
-0.0015981118 0.00062820513 -0.0034283528
-0.0048258058 -0.00042998031 -0.00085583469
-0.0047960761 -0.00039510505 -0.0012507834
-0.0055962959 -0.00086480187 -0.00089597143
-0.00075711653 0.00021831939 -0.0033053758
-0.0012480828 0.00021361763 -0.0033466513
-0.0048264125 -0.0015958044 -0.00085422909
-0.0047858842 -0.0016342896 -0.0012479536
-0.0044874982 -0.0015384615 -0.0012549572
-0.0044499598 -0.0012029457 -0.0008475678
-0.0040272418 -0.00017582416 -0.0090476954
-0.0040272418 -0.00053846155 -0.0085557289
-0.004158997 -0.00024684941 -0.0082314704
-0.0040735132 -0.00022832731 -0.0087014949
-0.00026848289 -0.0017159766 -0.0072508114
-0.00076709368 -0.0016923072 -0.0082496284
-0.0012657045 -0.0016923075 -0.0072547393
-0.0007670935 -0.0016923072 -0.0077521829
-0.0040584044 -0.00059615384 -0.0082089622
-0.0040847738 -0.00062278099 -0.0077448268
0.00027359687 0.001707692 -0.0077598337
0.0017141594 0.0010236687 -0.01061904
0.0026081186 0.001 -0.01008629
0.0021095078 0.00058119657 -0.011013129
0.0022200735 0.0006657826 -0.010685856
-0.00075915788 0.0016657816 -0.0082258768
-0.0012246489 0.0015807154 -0.0091668796
-0.00073540962 -0.00020401341 -0.011570268
-0.0011712932 -0.00014201182 -0.011540323
-0.00072260248 0.00015538458 -0.01156787
-0.0011476903 7.692309e-05 -0.011540323
-0.0020766321 -0.00058241759 -0.011015559
-0.0017196733 -0.00063051691 -0.011081157
0.0051208995 0.0010648348 0.0022380003
0.00026848281 0.00056153844 -0.011540323
0.0007609913 0.00068793714 -0.011175922
0.0010355766 0.001 -0.011004626
0.0012402979 0.00067025976 -0.011145964
0.00075514719 0.00016141236 -0.011575444
0.001258353 0.0011567317 -0.010214168
0.0017420051 0.0011146307 -0.010205343
0.0041646441 -0.00024926991 -0.006772337
0.0040449435 -0.00056213012 -0.0063481908
0.0041025854 -0.00023832431 -0.0062885792
0.0051299403 0.0010874125 0.0002249903
0.0055957031 0.0011538458 -0.00085733738
0.0055852341 0.00081167102 -0.00086862268
0.0051737605 0.0011559115 -0.00028608181
0.0029341334 0.0010576923 -0.0034283528
0.0034710991 0.00086538459 -0.0029691847
0.0034574009 0.0010989011 -0.0029691847
0.0011619214 0.000561086 -0.0033833364
0.0016562252 0.00016550113 -0.0034005248
0.0051212455 0.001200575 -0.0031644378
0.0055784751 0.0011509971 -0.0025950477
0.0055775777 0.00082995946 -0.0026026554
-0.001251033 -0.0011975622 -0.01019503
-0.0017455644 -0.0016017093 -0.0087342914
-0.0012634972 -0.0016297733 -0.008733565
-0.0012571812 -0.001649572 -0.0082496302
-0.00076453644 -0.0016529915 -0.0087189898
0.0048723007 0.0010870108 0.001739169
0.0048631467 0.0010746601 0.0022324692
-0.00073409104 0.0010393556 -0.0038643854
-0.005110275 -0.0011303778 0.0012398558
-0.0051107625 -0.0011249996 0.00074242381
-0.0044874982 -0.0015384615 -0.0017256048
-0.0044057244 -0.0012409287 -0.0012566904
-0.0034672637 -0.00092307694 -0.0029385735
-0.0034007821 -0.00044230768 -0.0033900884
-0.0039121779 -0.00046153847 -0.002892657
0.0048043458 0.0011443703 -0.00028571347
0.0044874982 0.0010769231 -0.00040549645
0.0048244181 0.0015852188 -0.00084890844
0.0048710429 0.0010846149 0.00074242381
0.0048667821 0.00088888861 0.00074454956
0.0048639085 0.00088908774 0.0012469748
-0.00074290053 -0.00064970402 -0.003363597
-0.0002507809 -0.00072296947 -0.0033400522
-8.9494271e-05 -0.0010769231 -0.0034028434
0.00026189446 -0.00073997176 -0.0033306973
-0.00025803901 -0.0002535214 -0.0032673895
-0.0048806318 -0.00093269226 0.0017372877
0.00024203137 -0.0011308576 -0.010696747
-0.00026783827 -0.00071493263 -0.011177299
-0.00025649715 -0.0011354167 -0.010700102
-0.00026553264 -0.00025443797 -0.011575633
0.00026553249 -0.00025443794 -0.011575633
0.00026848281 -0.00053846155 -0.011540323
-0.0044430881 -0.00044129547 -0.0022804327
-0.0039505325 -0.00096153852 -0.0024334886
-0.004401545 -0.00082051312 -0.0017452794
-0.0044054543 -0.0008247493 -0.0012529613
-0.0011994556 0.00066550111 -0.0033715365
-0.0051290686 -0.00093006995 0.0017372877
-0.0051581198 -0.00085198152 -0.00028896518
-0.001273741 -0.0012315022 -0.0037833001
0.0040746219 -0.00060180988 -0.0068045892
0.0041060271 -0.0006216215 -0.0072650919
-0.0014574782 -0.0015384615 -0.0039640488
-0.00031109914 -0.0015555556 -0.0044232174
-0.00079883554 -0.0015862072 -0.0043704398
-0.0017682845 -0.0016870023 -0.0047728731
-0.0022613492 -0.0016587767 -0.0042929202
-0.0012757104 -0.0016739133 -0.0047842325
-0.0027640364 -0.0016558947 -0.004271518
-0.0022490136 -0.0016787557 -0.0047666039
-0.00076507474 -0.0016855594 -0.0057523875
0.00026987746 -0.0017174827 -0.0072519518
-0.00026848295 -0.0016923073 -0.0067573171
-0.0051054354 -0.0011267801 0.0022361367
-0.0048863865 -0.0011076923 0.00074242381
-0.0051167556 -0.0011358169 0.00022825133
-0.0051611438 -0.0011937061 -0.00029070443
-0.0007680977 -0.0016774059 -0.0052806484
-0.00028034963 -0.0016676584 -0.0057609775
-0.00028084166 -0.00164829 -0.0052905311
-0.0027470998 0.00018371052 -0.0038177476
-0.0027711759 -0.00027455649 -0.0037929425
-0.0032128308 7.189071e-05 -0.0037795238
-0.0040272418 7.6923076e-05 -0.0090531614
-0.0036471405 -0.00022990504 -0.0096950475
-0.0035669857 -0.00011538461 -0.010009762
-0.003588903 -0.0005604396 -0.0096052568
-0.00026848284 -0.0016923075 -0.0082496312
0.00026848301 -0.0016923069 -0.007752182
0.00026690448 -0.0016910412 -0.0082477406
-0.00026569364 -0.0016601396 -0.0087185325
0.00025867141 -0.0016645793 -0.0087257009
-0.0022368121 -0.0011789418 -0.0097150384
-0.0040732692 -0.00062564097 -0.0067802789
-0.0040491582 -0.00058241759 -0.0063291285
-0.0035669857 -0.0010769231 -0.0063746809
-0.0035925549 -0.0011025642 -0.0067573213
-0.0035925549 -0.001102564 -0.0072547533
-0.0026081186 -0.0015384613 -0.0072547537
0.00076709298 0.0016923074 -0.0082496312
0.00076209073 0.0016555185 -0.0087204343
0.00076709292 0.0016923076 -0.0077521815
0.0051534018 0.0015761049 -0.0008475678
0.0011809206 0.0015384613 -0.0096593443
0.0036444447 0.0001892912 -0.0096931402
0.0035797709 0.00056410261 -0.0096016126
0.0040312782 0.00015384615 -0.0090914257
0.0026239119 0.00057918549 -0.010612982
-0.0017259609 0.0015576923 -0.0090914248
-0.0012487154 0.0016257099 -0.0082188081
-0.0020327982 0.0015384615 -0.0090914257
-0.00076709321 0.0016923073 -0.0077521815
0.00025078061 0.001 -0.011039946
-0.00025078061 0.001 -0.011039946
0.00026848272 0.0015695582 -0.0096482895
0.00075875595 0.0015752506 -0.0096620591
-0.00024291297 0.0015705127 -0.0096207447
-0.0010355766 0.001 -0.011004626
-0.002653779 -0.00060073257 -0.010585544
-0.0027147948 -0.00024519247 -0.010666831
-0.002156253 -0.00023437505 -0.011059633
-0.0012409596 -0.00068635237 -0.011128533
0.0011305502 0.0001062271 -0.011554901
0.0017196735 0.00063051697 -0.011081155
0.0012414299 0.0010652384 -0.010656853
0.0022002629 0.0010509207 -0.010149889
0.0020327982 0.0015384615 -0.009014897
0.001715733 0.0015512821 -0.0091373427
0.0029533107 0.00088461535 -0.0034283528
0.0035970022 -0.0001571906 -0.0048657483
0.0016624776 -0.00023872675 -0.0034098809
0.0012397408 -0.00025680492 -0.0033424068
0.0015981119 -0.00062820513 -0.0034283528
0.00026848304 -0.0016923076 -0.0067573274
0.0036792222 -0.00064777327 -0.0057950844
0.0037184563 -0.00069894595 -0.0062680515
0.0046710493 0.0011950549 -0.0036230891
0.0046712784 0.00076602586 -0.0036220625
0.0041386411 0.0011899665 -0.0041583623
-0.0012475584 -0.0015814722 -0.0092066331
-0.0052081039 -0.0016037299 -0.0022270959
-0.0056222011 -0.0012187811 -0.0022257697
-0.005578862 -0.0011958042 -0.0025969797
-0.0051572751 -0.0015912743 -0.0026710671
-0.0052053151 -0.0016226837 -0.0017296532
-0.0052059446 -0.0016266417 -0.0012482381
-0.005627912 -0.0012358972 -0.0017447374
-0.0056279129 -0.001235897 -0.001247305
-0.0056199119 -0.00083701458 -0.0017492832
-0.0056141699 -0.0008365385 -0.0022316459
-0.0056217029 -0.00084615411 -0.001247305
-0.0035669857 -0.0015384615 -0.0046145367
-0.0040464192 -0.0015384615 -0.004097973
-0.003661081 -0.0012020509 -0.0046915747
-0.004182681 -0.0015921055 -0.0036599503
-0.0042485436 -0.0016319867 -0.0032329052
-0.0047003045 -0.0015905709 -0.0031876585
-0.0041356217 0.00020214684 -0.0062919301
-0.0041882955 -0.00024861904 -0.0067638825
-0.0041888738 0.00021323813 -0.0067624869
-0.0030683749 -0.0015384615 -0.0050737048
-0.0025697639 -0.0015384615 -0.0064512091
-0.003194497 -0.0011469158 -0.0062895389
-0.0031642611 -0.0011442305 -0.0057471502
-0.0017542456 -0.0016656637 -0.0052624601
-0.0022499065 -0.0016335666 -0.0052478635
-0.0055968324 -0.0011863905 -0.00089998497
-0.0048073377 -0.0012027377 -0.00029654102
-0.0038086667 -0.00081139937 -0.0028202774
-0.0044006035 -0.0012361775 -0.001741149
-0.0029533107 -0.00088461541 -0.0034283528
-0.0016804148 -0.00023317302 -0.0034092211
-0.0016775131 0.00018825906 -0.0034082148
0.0048699621 0.0010845067 0.0012377002
0.0044874982 0.0015384615 -0.0012473045
-0.00026848289 0.00021555708 -0.0032544485
0.0051540523 0.00080806582 -0.00029739132
0.004864906 0.0010830767 0.0002398896
0.00023710159 -0.0015664337 -0.0097256778
0.00026378638 -0.0012392477 -0.010210621
-0.00026848307 0.000198718 -0.011572197
-0.00076095702 -0.0015753844 -0.0096730376
0.00076537614 -0.0016865674 -0.0082393484
0.0011889953 -0.0015384615 -0.0095505938
0.00069735799 -0.0015559439 -0.0096410364
0.0020583679 -0.00056410255 -0.011004626
0.0016876062 -0.0010769231 -0.010545458
0.0017143384 -0.00060139858 -0.011051008
0.0012330326 -0.00066025654 -0.011099572
0.0012026934 -0.001107143 -0.010611054
0.00075539673 -0.00067648664 -0.01114464
0.00073919963 -0.00019405592 -0.011571631
0.0017398112 -0.0011249997 -0.010170261
0.0021947401 -0.001102564 -0.010077787
-0.0018445115 -0.0015524473 -0.003922306
-0.0017602805 -0.001262753 -0.0037985086
0.0035669857 -0.0010769231 -0.0064894729
0.0035765744 -0.0010865385 -0.0068051512
0.0031067291 -0.0011131221 -0.0058074733
0.0031810906 -0.001141287 -0.0062864418
0.0027511511 -0.0012171477 -0.006269461
0.0025953336 -0.0015384615 -0.0069231316
-0.0012866252 -0.0016083919 -0.0043348614
-0.00028781637 -0.0011482176 -0.0037780164
-0.00077234744 -0.0011875659 -0.0037779715
-0.0012666484 -0.0016916768 -0.0052659609
-0.0012583284 -0.0016449703 -0.0057550995
-0.0012589367 -0.0016583706 -0.006766323
-0.0017747758 -0.0016351986 -0.0043142214
-0.00076709356 -0.0016923073 -0.0072547426
-0.0051544011 -0.0015777082 -0.00084358035
0.0044420413 0.00080626796 -0.00083065219
0.0048177117 0.00080659345 -0.00029726373
0.0048292037 0.0004248253 -0.00084379315
0.00075317721 -0.00070728391 -0.0033369272
0.00076082617 -0.00026093543 -0.003300807
0.004438878 0.0011527623 -0.00082424469
0.0012441461 0.00021266985 -0.0033418185
0.0056237006 0.0011592759 -0.0022309157
0.0052113188 0.0016193298 -0.0022333395
0.0047943331 0.00040109904 -0.0012473045
0.0044124741 0.00078106538 -0.0012519304
0.0056273025 0.0011647155 -0.0012464733
0.0056058411 0.0008056683 -0.0012452905
0.0044184597 0.00046153847 -0.0023416551
0.0026272959 -0.0010961539 -0.0049589127
-0.003700939 -0.00067508622 -0.0057773073
-0.004094929 0.00062443432 -0.0072603808
-0.0040820353 0.00060439552 -0.0067791869
-0.0035925549 0.001025641 -0.0067573218
-0.0036085367 0.0010224361 -0.0072675087
-0.0042000599 0.00021248207 -0.0072556017
-0.0035765746 0.0010096155 -0.0063459836
-0.0036460184 -0.00061654998 -0.0091969436
-0.0035669855 -0.0010769231 -0.0081730895
-0.0055869976 -0.00087749289 -0.0025978819
-0.00026848289 -0.0016923069 -0.0077521824
-0.0030837166 -0.0010923077 -0.0091756061
-0.0026046319 -0.0015384614 -0.0077347932
-0.003590957 -0.0011009616 -0.0077282707
-0.0017485574 -0.0016446034 -0.0077340892
-0.0022127705 -0.0015818543 -0.0077394322
-0.0025851058 -0.0015384615 -0.0081271725
-0.0040755416 -0.00062535598 -0.0072420007
-0.00076709368 -0.0016923079 -0.0067573222
0.0017462933 0.0015996296 -0.0087133916
0.0012387746 0.001584288 -0.0092029655
-0.0020711527 0.0015384614 -0.0087470496
0.0017530344 0.0016108602 -0.0082496181
0.0012571814 0.0016495718 -0.0082496256
-0.00076709338 0.0015972849 -0.0092174783
-0.00072873908 0.0015641024 -0.009588859
0.0026081186 0.0015384613 -0.0072547528
0.0022309644 0.0015705127 -0.0072547547
0.0025953341 0.0015384615 -0.0067955856
0.0032310463 0.0011273209 -0.0072547444
0.0036181251 0.0010512816 -0.0072547547
-0.00305559 0.001 -0.0095761037
-0.0035669857 0.001 -0.0086322576
-0.003130795 0.0010467566 -0.0091694538
-0.0036477845 0.00063897431 -0.0091781588
-0.0026081186 0.001 -0.010048026
-0.0026913409 0.0010449921 -0.0096935406
-0.0012386307 0.0015972852 -0.008747045
-0.0012273501 0.0010517235 -0.010644414
-0.00076119282 0.0011821181 -0.010217774
-0.00075125135 0.001076923 -0.010690188
-0.00026848281 0.00053846155 -0.011540323
0.00076077133 0.0010760778 -0.010686733
-0.00026300381 0.0010950549 -0.010713283
-0.0017484245 -0.00025796873 -0.011164003
-0.00076464546 -0.00070785626 -0.011167432
-0.0022426045 0.0011049417 -0.009732021
-0.0017036905 0.00059801486 -0.011051532
-0.0012305761 0.00064845453 -0.011109757
-0.0016918676 0.0010170941 -0.010609232
0.00026392943 -0.00070600671 -0.011168859
-0.0017451384 0.0016057688 -0.007752182
0.0017495146 0.00021794889 -0.011179163
0.0021792438 0.00019580428 -0.011074968
0.00076203403 0.0011829797 -0.010217213
0.00026544477 0.0012020831 -0.01022572
0.0036172441 0.0010397879 -0.0067876675
0.0040381993 -0.00022252744 -0.0058417171
0.0040370771 0.00018145952 -0.005804644
0.0035976693 0.0010307693 -0.0051119691
0.0040464192 0.00055769226 -0.0063555487
0.0036889648 0.00066897867 -0.0057687303
0.0027145401 0.0015861325 -0.0052057425
0.0022488351 0.0016185248 -0.0052509638
0.0027452866 0.0016290746 -0.0047643515
0.0025697639 0.0015384615 -0.0064129452
0.0022555343 0.00072829961 -0.003802571
0.0050500338 0.0015641026 -0.0030457128
0.0033811124 0.0015798814 -0.0033635986
0.0022992624 0.0015762484 -0.0038445576
0.0027792063 0.0015955056 -0.003780897
0.0031729783 0.0015932403 -0.0047188918
0.0033282179 0.00075700454 -0.0032935424
0.0036883147 -0.00024685793 -0.0053140381
0.0036197228 0.0010432693 -0.007733054
0.0041905656 -0.00025310196 -0.0072547421
0.0041802912 0.00021304698 -0.006768215
0.0042008515 0.00021255082 -0.0072547388
0.0041882121 -0.00025178673 -0.0077490443
0.0041704392 0.00021230792 -0.0082363682
0.0041500735 -0.00024587938 -0.0082350513
-0.00026226332 -0.0016763678 -0.0062719621
0.003221791 -0.0011678323 -0.00725475
0.0032052617 -0.0011598141 -0.0067639165
0.0027403675 -0.0011784616 -0.0057768459
0.00076709362 0.0016923073 -0.0072547407
0.00027092788 0.001697824 -0.0072513847
0.00076709315 0.0016923076 -0.0067573232
-0.00026475918 0.0016893201 -0.0067602918
-0.00026848289 0.0016923075 -0.0072547384
-0.00076709327 0.0016923075 -0.0072547449
-0.0050500338 -0.0015641026 -0.0030457128
-0.0047463961 -0.001636218 -0.0027199374
-0.0042990358 -0.0016047746 -0.0027653305
-0.0022410084 -0.0002675041 -0.0037728876
-0.0037516356 -0.0016313189 -0.0037328277
-0.0037799077 -0.0016254497 -0.0032595629
-0.0034022022 -0.0015783475 -0.0033376524
-0.0027886876 -0.0016024201 -0.0037972359
-0.0032713031 -0.0016349645 -0.0037581215
-0.0029533107 -0.0011538462 -0.0034283528
-0.0051296172 -0.0012307689 -0.0031566338
-0.005129185 -0.00080602005 -0.0031688216
-0.0052076727 -0.00039432419 -0.0012521339
-0.00028255818 -0.0016069162 -0.004786903
-0.003100829 0.0010236687 -0.0054416279
-0.0026177075 0.0010096155 -0.0049015167
-0.0031364965 0.00062456931 -0.004832129
-0.0017003908 0.0015512818 -0.0054180813
-0.0030300203 0.00053846155 -0.0044997451
-0.0026081183 -0.0015384614 -0.0067573213
-0.0022266458 -0.0015738048 -0.0067624911
-0.0039505325 -0.0011153846 -0.0024334886
-0.0036053406 6.3664629e-12 -0.0035814089
-0.0015725421 -0.00053846155 -0.0034283528
-0.002275879 -0.001273505 -0.0037943304
0.0051200734 0.0010635448 0.001235419
0.0048688524 0.00089010963 0.0017449404
0.0050858315 0.00089230749 0.0012398558
0.0050858315 0.00089230755 0.00074242381
0.0012708998 0.0011906232 -0.0037820323
0.0018321736 0.0015621299 -0.0039287279
0.0050825146 0.00088565476 0.00023464998
-0.00025514205 -0.0015730209 -0.0097047547
-0.00076261547 -0.0012292077 -0.010205949
-0.00076709356 -0.0015913459 -0.0092205694
0.00075915788 -0.0012051285 -0.010212967
0.0035669857 7.6923068e-05 -0.010009762
0.0035669857 -0.0001153846 -0.010009762
0.0026300356 -0.00057142851 -0.01060012
0.0027084572 -0.00024061554 -0.010669744
0.0030300203 -0.00019230768 -0.010545458
0.0035669855 -0.0010769231 -0.0081730895
0.0030997561 -0.0010979022 -0.0091366461
0.0025697639 -0.0015384615 -0.0081730895
0.0031764652 -0.0011188808 -0.0087470477
-0.0023061628 -0.001569231 -0.0038332553
-0.00077599182 -0.0016381538 -0.0047844318
0.0051469053 0.00041568061 -0.00084258942
0.0011994551 -0.00066550117 -0.0033715358
0.0043953359 0.0011940298 -0.0012501604
0.0051170452 0.000769231 -0.0031653405
0.0052060625 0.0003971743 -0.002240607
0.0056074578 0.00080000033 -0.0017447365
0.0052130399 0.00039487178 -0.0017492007
0.0055997842 0.00080473389 -0.0022274517
0.0022076506 -0.0011233026 -0.0048238644
0.0020941659 -0.0010769231 -0.0044691339
0.00076709356 -0.0016923068 -0.0067573218
0.00076709333 -0.0016923068 -0.0072547384
-0.0035669857 -0.0010769231 -0.0050354409
-0.0037041432 -0.00076337822 -0.0047438876
-0.002697614 0.00061872898 -0.0043821814
-0.0036203486 0.0010200669 -0.0077438666
-0.0041875741 -0.0002482686 -0.0072525651
-0.0040464187 0.00058076927 -0.0063211122
-0.0040585534 0.00016169543 -0.0058272737
-0.0036776986 0.00064948457 -0.0057912553
-0.0037068976 -0.00068093179 -0.0087271128
-0.0040400266 0.00055128208 -0.0086322576
-0.0050704898 -0.00044615386 -0.0030610184
-0.0047528883 -0.00038585602 -0.0027365142
-0.004704474 -0.00039890129 -0.0031867414
-0.003221791 -0.0011678319 -0.00725475
-0.0026608566 -0.0011057693 -0.009684517
-0.0032004325 -0.00068678049 -0.0097109722
-0.0031107662 -0.00060323882 -0.010110458
-0.0027405063 -0.0012094292 -0.0087438496
-0.0020972339 -0.0015569231 -0.008739396
0.0012588357 0.0016268659 -0.0087276315
0.0025697639 0.0015384615 -0.0085557289
0.0047505056 0.0016384094 -0.0027198181
0.0047034649 0.0015940832 -0.0031893491
0.0021926095 0.0015598289 -0.0086641423
-0.0032188422 0.0011153846 -0.0077521834
-0.0032188403 0.0011153849 -0.0072547439
-0.0027615353 0.0011923083 -0.0077521824
-0.0027458391 0.0011713835 -0.0087460708
0.0012554195 -0.0016446064 -0.0082367994
0.0012358729 -0.0015940171 -0.008721536
-0.0002684831 0.0016025645 -0.0092189722
0.0002684831 0.0016025642 -0.0092189722
0.00076709333 0.0015972854 -0.0092174783
0.0052085645 0.0016230771 -0.0012549567
0.0056268773 0.0011686661 -0.0017377166
-0.00075824239 0.001627219 -0.0087382142
-0.0017259615 0.0015576925 -0.0087470487
0.00076709368 0.001 -0.011004626
0.00025720234 0.0010921946 -0.010712589
-0.00026697884 0.0012038727 -0.010227353
-0.00076709373 0.001 -0.011004626
-0.0017431375 0.00020742459 -0.011161096
-0.0022148383 -0.00066188292 -0.010677961
-0.0017544194 0.0011629451 -0.0097390264
-0.0011889953 0.0015384615 -0.0095505938
-0.0022045358 0.0010447757 -0.010149118
-0.0021248497 0.0015538465 -0.0072547528
-0.0012571812 0.0016495727 -0.0077521824
-0.0017451387 0.0016057694 -0.0072547556
-0.0021158999 0.001551282 -0.0067955852
-0.0027512526 0.0011787243 -0.0062625022
-0.0020711527 0.0015384613 -0.0062598893
-0.0032119583 0.0010981264 -0.0062721567
0.0002702263 0.0002071679 -0.011574226
0.0017540179 0.0011976501 -0.0097277332
0.0036700377 0.0011554002 -0.0046999534
0.0037139722 0.00072777527 -0.0047439942
0.0036053406 0.0015384615 -0.0045762728
0.0040740171 0.0006191369 -0.006797452
0.0041124788 0.00019818387 -0.006284331
0.0027689314 0.0002383582 -0.0037972699
0.0022462273 0.00022906634 -0.0037872761
0.0040491587 0.0005604396 -0.008610392
0.0041039549 0.00020013624 -0.0087169064
0.0032444233 0.0016311514 -0.0042501958
0.0017530344 0.0016108598 -0.0077521829
0.0035765746 0.0010096155 -0.0063459831
0.0040655965 0.001551282 -0.0040788408
0.0022656978 0.0016339197 -0.0042918245
0.0017735489 0.0016054134 -0.0042992141
0.0032694757 0.0016205825 -0.0037535974
0.0037581688 0.0016201189 -0.0037338755
0.0030683749 0.0015384615 -0.0050737048
0.0032044628 0.0011037039 -0.0057553714
0.0026081186 0.0015384615 -0.0056859287
0.0037874037 0.00038753674 -0.0032927333
0.0042550848 0.00036854189 -0.0032581647
0.0039121779 0.00044871797 -0.0029309208
0.00073597586 0.00062409276 -0.0033547124
0.002224572 0.0015664336 -0.0077417474
0.0017530349 0.0016108601 -0.007254757
0.0017497672 0.0016087538 -0.006263847
0.0022056811 0.0015820897 -0.0057139131
-0.00026848295 0.0016923072 -0.0077521824
-0.0012633321 -0.001680412 -0.0077395574
-0.0044390508 -0.0015668015 -0.002320711
-0.0047891075 -0.0016317015 -0.0017406782
-0.0047737565 -0.0016360226 -0.0022449684
-0.0027475648 -0.0016410258 -0.0047589936
-0.0032415225 -0.0016411736 -0.0042542373
-0.0033223939 -0.00079943636 -0.0032841095
-0.0041435733 -0.0012240065 -0.0041465391
-0.0041381153 -0.00080649043 -0.0041768928
-0.0055614295 -0.00046153847 -0.0019743205
-0.0052114422 -0.00040384606 -0.0017447365
0.0006903843 -0.0010961539 -0.0039066528
0.00022676359 -0.0011147094 -0.0038405298
0.0012571812 0.0016495725 -0.0067573199
-0.00076283177 0.0016780623 -0.0067743268
-0.00125274 0.0016370531 -0.0067788777
-0.0012409596 0.0015645162 -0.0053316783
-0.00076709362 0.0015769232 -0.0052650236
-0.00076709344 0.0016153849 -0.0057624578
-0.00075065618 0.0015714286 -0.004855054
-0.0011570331 0.0015384614 -0.004895139
-0.00025510343 0.0016019681 -0.0048298864
-0.00025730263 0.0011613214 -0.0042890576
-0.0036217782 0.00059340661 -0.0053880163
-0.0040272418 -6.3664629e-12 -0.005494609
-0.0021574511 0.001 -0.0044710469
-0.0025953336 -0.0015384615 -0.0056604198
-0.0038797243 -0.0015562128 -0.0028985438
-0.0034683594 -0.0011318681 -0.0029473195
-0.004250356 -0.00035444958 -0.003246288
-0.004177684 -0.00037640051 -0.0036631373
-0.0052114446 -0.00040384624 -0.0022421698
0.0051283175 0.0010686386 0.00073948037
0.0051246821 0.0010657562 0.0017385227
0.0048530907 0.0008903438 0.00023522228
-0.00026569911 -0.0012410064 -0.010211893
-0.00026531328 -0.0015988557 -0.0092349956
0.00073660683 -0.0011065087 -0.010653385
0.0012480409 -0.0011664978 -0.010209148
0.0031067289 0.00060407229 -0.010097544
0.0030300203 0.00015384614 -0.010545458
0.0021512473 -0.00022624445 -0.011072153
0.0017487564 -0.0002487915 -0.011160722
0.0027125177 0.00019867564 -0.010671664
0.0032030935 -0.00067788479 -0.0097098593
0.0026464737 -0.0010961539 -0.0096577313
0.0031067287 -0.00059946952 -0.01008629
0.003588903 -0.0005604396 -0.0096052568
0.0027286641 -0.00068772922 -0.010181048
0.002739334 -0.0012064778 -0.0087430254
0.0026986364 0.001041538 -0.0096852835
0.0031300751 0.0010367889 -0.0091779353
0.0035925554 -0.001102564 -0.0072547537
0.0035889023 -0.001098901 -0.0077084554
0.0041014785 -0.00062903215 -0.0077299662
0.0040499694 -0.00059259264 -0.0082156062
0.0040491587 -0.0005604396 -0.008610392
0.003216312 -0.0011648351 -0.0077448948
0.0025851058 -0.0015384615 -0.007652699
0.0036549438 -0.00062871794 -0.0091842823
0.0037112592 -0.00068568526 -0.0087321056
0.004094142 -0.00023434711 -0.0087150093
0.0040390426 -0.00016568045 -0.009073765
0.0036396552 -0.000228745 -0.0096774651
0.0027065971 -0.0011320163 -0.0053239716
0.0052184099 0.00039477501 -0.0012501925
0.0050858315 0.00089230749 0.0017372877
0.0039505325 0.00092307694 -0.0024334886
0.0043942868 0.0011952289 -0.0017428002
0.0038149536 0.0007638642 -0.0028345191
0.0035669857 -7.6923076e-05 -0.0038875209
0.0031789257 -0.00011915533 -0.0038244973
0.0045833848 0.0004423077 -0.0035240126
0.0041914182 0.00038102095 -0.0036715246
0.0027432751 -0.00020879132 -0.0038255709
0.0021650558 -0.00057029177 -0.0038848817
3.8354694e-05 -0.0015384615 -0.0044232174
0.00065202976 -0.0015384613 -0.0048058573
0.00075648457 -0.001183306 -0.0043157507
0.0026081186 -0.0015384613 -0.0072547528
-0.0041542156 0.00020765462 -0.0082337987
-0.0041933362 0.00020889226 -0.0077465628
-0.0040551354 0.00060372951 -0.0082241092
-0.0041905656 -0.00025310199 -0.0077521801
-0.0032188427 0.0011153846 -0.006757318
-0.0040594614 -0.00023846159 -0.0058206194
-0.0031917735 -0.00025250865 -0.010177386
-0.003588903 0.0005604396 -0.0096052568
-0.0051321271 -0.00041970328 -0.002702008
-0.004610233 -0.00044615386 -0.0035201863
-0.0031627393 -0.0011245419 -0.0087233614
-0.0027252019 -0.001156545 -0.0092223324
-0.0032217929 -0.0011678322 -0.0077521829
0.0051579182 0.0015922023 -0.0026903288
-0.0027548217 0.0011826934 -0.0082448479
0.0047828304 0.0016346156 -0.001247305
0.0052034464 0.0016300367 -0.0017447365
0.0026004477 0.0015384614 -0.007721574
0.0022169009 0.0015615388 -0.0082496209
-0.0026592584 0.00058119663 -0.010587972
-0.0022186702 0.00066213025 -0.010670264
-0.00075641245 0.00067624165 -0.011165896
-0.0021732526 0.00018093178 -0.011050976
-0.0027102276 0.0001980251 -0.010670601
-0.0012516932 0.0011422555 -0.010212101
-0.0032152876 0.0011093121 -0.0082393344
-0.0020980011 0.0015461536 -0.0081922207
-0.0017413031 0.0015961543 -0.0067879311
-0.0012571811 0.001649572 -0.0072547458
-0.0021248495 0.0015538464 -0.0077521852
-0.0027162882 0.001076923 -0.0053432719
-0.0022355509 0.0011618264 -0.0052869259
0.002234445 0.0011248275 -0.0097228885
0.0035669857 0.001 -0.0057241931
0.0032241286 0.0011214825 -0.006764784
0.0036720082 0.00025813133 -0.0047740135
0.0037181079 0.00022879706 -0.0052888882
0.0036599378 0.00063529407 -0.0091949673
0.0042008543 0.00021255085 -0.007752181
0.0040929946 0.00062087912 -0.0077521862
0.0022701747 0.0012334955 -0.0038028618
0.0027595728 0.0016449705 -0.0042662355
0.0022629246 0.001653846 -0.0047675953
0.0012592035 0.0016414599 -0.0062728641
0.0017643153 0.0016153849 -0.0047675949
0.0037097493 0.0015918805 -0.0042010737
0.0045948913 0.0015384615 -0.0035661035
0.0034245253 0.00043406591 -0.0033682233
0.00076709321 -0.0016923072 -0.007752182
0.0012571816 -0.0016495722 -0.0077521829
0.0017530343 -0.0016108599 -0.0072547547
0.0012571812 -0.001649572 -0.0072547426
-0.00075663294 -0.0016573424 -0.0062807626
-0.0017519994 -0.0016210307 -0.0067696068
-0.0017474933 -0.0016072883 -0.0062632458
0.0017338283 -0.00063050631 -0.0037809068
0.0017530345 0.0016108599 -0.0067573208
0.0012571808 0.001649572 -0.0072547458
0.002191796 0.0015594407 -0.0063016317
-0.0021956377 -0.0015614036 -0.0082039703
-0.0022081349 -0.0015879119 -0.0072547551
-0.0017483353 -0.0016570505 -0.0072547495
-0.0031755425 -0.0015950226 -0.0047158231
-0.003702139 -0.0015885228 -0.0041875606
-0.0046776705 -0.0012331726 -0.0036156857
-0.0022400508 0.00022753056 -0.0037731354
-0.0021814227 0.00058173062 -0.0038556342
0.0013807686 0.0015384615 -0.0039640488
0.00026848304 0.0016153851 -0.005265024
0.00076709321 0.0016153851 -0.0057624583
0.00076709333 0.0016153851 -0.0052650231
0.0002684831 0.0016153849 -0.0057624569
-0.00075841765 0.0011231686 -0.0042961282
-0.0012410476 0.0010868132 -0.0043166233
-0.0020583679 0.0015384615 -0.0059282682
-0.001729614 0.0015512824 -0.0057715676
-0.002745366 0.0011441153 -0.005774905
-0.0017259611 0.0015576927 -0.0062598879
-0.0047943327 -0.00040109898 -0.0017447369
-0.0017499611 0.0011615817 -0.0047883317
-0.0022110769 0.0010833335 -0.0048072767
-0.0032217919 -0.0011678322 -0.0067573199
-0.0027096465 -0.0015927602 -0.0051839929
-0.0043059541 -0.00041025644 -0.0027923191
0.0021974037 -0.0015608974 -0.0077091395
0.0021665483 -0.0015562132 -0.0082103712
0.003199375 0.0006728273 -0.0097110942
0.003198371 -0.0011470387 -0.0082198251
0.0010739312 -0.0010769231 -0.0039640488
-0.00023943777 0.0010657208 -0.0038028203
0.0030300203 -0.00053846155 -0.0044997451
0.004796633 0.00039769243 -0.001745502
0.0044045146 0.00078811194 -0.0017440403
0.0041177631 0.00076384633 -0.0041844486
0.0043184096 0.00040777505 -0.002777453
0.0047577797 0.00038100962 -0.0027330238
0.0051389202 0.00041025659 -0.0026837222
0.0047071651 0.00040326361 -0.0031825348
0.002244873 -0.00026174757 -0.0037964529
0.0022309641 -0.0015705129 -0.0072547547
0.0021827302 -0.001562937 -0.0068060206
0.00075711083 -0.0015742886 -0.0052964743
0.0011889952 -0.0015384618 -0.0053032888
0.0012508814 -0.0012329995 -0.004779242
-0.0036493225 -0.00068313337 -0.0052292198
-0.0036100168 0.00010694182 -0.0048394543
-0.0040793312 0.0001956316 -0.0087002823
-0.0040901438 0.00061692297 -0.0077231051
-0.0041352664 -0.00024699132 -0.0062926859
-0.003703776 0.0002050021 -0.0053038527
-0.0036405933 0.00018570328 -0.0096959155
-0.0030935032 0.00060212205 -0.010099484
-0.0030300203 0.00015384615 -0.010545458
-0.0032054414 -0.0011568277 -0.0082258936
-0.0020327982 -0.0015384615 -0.0090914257
-0.0021588211 -0.0015586084 -0.0063163736
0.0032029522 0.0010843455 -0.0087282471
0.0035669857 0.001 -0.0086322576
0.0047774967 0.0016360228 -0.0022449689
0.0044390503 0.0015668015 -0.002320711
0.0044874982 0.0015384617 -0.0017447369
0.0038891654 0.0015692306 -0.0029028603
0.00075498165 -0.0016275307 -0.0087289186
0.0025697637 0.0015384617 -0.0082496172
-0.0020903302 0.00055769231 -0.011004626
-0.0017460516 0.0010866912 -0.010209595
-0.0031960991 0.0010761764 -0.0087295836
-0.0036033213 0.001020243 -0.0082053114
-0.0031658164 0.001063409 -0.0057996884
0.001112286 -0.00013076923 -0.011547975
0.0032098719 0.0010930354 -0.0062754033
0.0040895692 0.00062259601 -0.007257144
0.0017643155 0.0016153851 -0.0052650231
0.0012657046 0.0016153851 -0.0052650226
0.001265705 0.0016153853 -0.0057624578
-0.00025837976 0.0016675411 -0.0062819188
-0.00075485255 0.0016317514 -0.0062680324
-0.00026848304 0.0016153849 -0.0057624583
0.00076709362 0.0016774191 -0.0062845838
0.0042081787 0.0015928096 -0.0036770685
-0.0012628098 -0.0016269955 -0.0062743267
0.0012571815 0.0016495727 -0.0077521838
0.0022245718 0.0015664337 -0.0067677563
-0.0017497675 -0.0016087533 -0.0082456619
-0.0045897774 -0.0015641026 -0.0035048807
-0.0046816049 -0.00082073594 -0.0036213347
-0.0025697639 0.00053846155 -0.0039640488
-0.0017417228 0.00064594328 -0.0037659146
0.0017564957 0.001611651 -0.0057561425
0.0012915826 0.001583874 -0.0043402351
0.00027601709 0.0016092035 -0.0047894609
0.00080544862 0.0015583129 -0.0043935939
0.0017589851 0.0012224907 -0.0037972706
-0.0012386303 0.0015972853 -0.0062598889
0.00077372033 0.0011478054 -0.0037665204
0.00028035461 0.0011057692 -0.00377273
0.0020711527 -0.0015384614 -0.0087470487
0.0017430072 -0.001600622 -0.0082194749
0.002245798 -0.0012110918 -0.0092359213
0.0022302421 -0.0011531771 -0.0097216116
0.0017557151 -0.0012200469 -0.0097254403
0.0017552928 -0.0012579197 -0.0092444625
0.0031935659 0.00020754745 -0.010174379
0.0027355121 -0.001154533 -0.0092048561
0.00025261214 0.00070159149 -0.0033472059
0.0026841788 -0.00061668828 -0.0043907906
0.0040425835 0.00044615386 -0.0040864935
0.0047806064 0.00039271268 -0.0022441829
0.0050704898 0.00044615386 -0.0030610184
0.00025761098 -0.0016075106 -0.0052993698
0.0017221257 -0.0011269227 -0.0044232174
-0.0035797709 1.2820518e-05 -0.0044232169
-0.002761533 0.0011923086 -0.0072547402
-0.002758642 0.0011886797 -0.0067602172
-0.0040272418 -0.00011538462 -0.005494609
-0.003186055 0.0002030021 -0.010177014
-0.0035669857 3.8461545e-05 -0.010009762
-0.0021976663 -0.0015855341 -0.0057127704
0.003616079 0.0010215386 -0.0082251271
0.0047828327 0.0016346155 -0.0017447365
0.0037731417 0.0016081734 -0.0032545712
0.0038086425 0.0012018676 -0.0028187816
0.0042490489 0.0016207518 -0.0032331778
0.00026664214 -0.0016018462 -0.0092426445
0.00076478318 -0.0015764594 -0.0092417207
0.0011889951 -0.001538462 -0.009244482
0.0032272697 0.0011236267 -0.0077467156
-0.0027394854 0.0011173079 -0.0092205582
-0.0017344846 0.0015790601 -0.0082071051
0.003660674 0.00069289492 -0.0052556759
-0.00026848304 0.0016153848 -0.0052650236
0.0007703809 0.0016131871 -0.0047730603
0.00026848295 0.0016923074 -0.006757325
0.00026848289 0.0016774188 -0.0062845862
0.00025835156 -0.0016719881 -0.0062815575
0.00076058024 -0.0016531206 -0.0062887683
0.0020711529 -0.0015384615 -0.0059155133
0.0012322672 -0.0015897438 -0.005809553
-0.0017288022 0.0010341875 -0.0043566097
-0.0047789901 -0.00040000011 -0.0022421693
0.00044107888 0.0015576923 -0.0044997451
-0.0012386303 0.0015972853 -0.0057624578
0.001761079 0.0007247866 -0.0037620168
0.0022220868 -0.00066131714 -0.010682003
0.0017451383 -0.0016057688 -0.0077521843
0.0027383384 0.0011182335 -0.0092251059
0.00022327898 -0.0015659342 -0.0048017567
0.0012337987 -0.0011545267 -0.0043439809
0.00014574782 0.0010153847 -0.0033900887
0.00025381811 -0.001626697 -0.0057647084
0.0017483342 -0.001175641 -0.0047937427
-0.0040528118 -0.00043589747 -0.0040788408
-0.0030300203 -0.00019230769 -0.010545458
-0.0027349545 -0.00069678482 -0.01019522
-0.0017552499 -0.0016216786 -0.0057464549
0.0040655974 0.00062062923 -0.0082061356
0.0043321201 0.0012082843 -0.0022729756
0.0012657049 0.0016153848 -0.0047675944
0.0022447342 -0.0011990487 -0.0052894792
0.0017259611 -0.0015576922 -0.0058389856
0.0012571814 -0.0016495725 -0.0067573213
0.0012513216 -0.0016212608 -0.0062891189
0.0017478779 -0.0016075353 -0.0067604445
0.0017259613 -0.0015576928 -0.0087470496
0.0032166766 0.0011149574 -0.0082475012
0.00076709344 -0.0016057695 -0.0057815905
0.0042963899 0.0016061007 -0.0027725864
0.0017535785 -0.00124889 -0.0052769245
0.0017374674 -0.001586539 -0.0063058073
0.0021061725 -0.001548495 -0.0063197813
