# .PCD v0.7 - Point Cloud Data file format
VERSION 0.7
FIELDS x y z
SIZE 4 4 4
TYPE F F F
COUNT 1 1 1
WIDTH 1193
HEIGHT 1
VIEWPOINT 0 0 0 1 0 0 0
POINTS 1193
DATA ascii
0.0061358386 -0.00019642856 -0.014218946
0.0051377025 0.00051111117 -0.015182497
0.0055895527 6.6666667e-05 -0.015126961
0.0066602477 -0.00022765956 -0.013251737
0.0070789848 -9.9999997e-05 -0.0126445
-0.0045687067 -0.00060000003 -0.015593464
0.0070789843 0.00050000002 -0.0092956778
0.0055728178 0.0015999998 -0.0047972584
0.0055728178 0.0016 -0.0051471358
0.0052253432 -0.00024605257 -0.015237008
0.0046021771 0.00011666666 -0.016093286
0.0041001211 0.00050000002 -0.016126608
0.0046356474 0.00051666674 -0.015626784
0.0052374844 0.00057169812 -0.014769225
0.002761306 0.0015999998 -0.013094341
0.0037597325 0.001164151 -0.013785606
0.0035645952 0.0016 -0.012294623
0.004244301 0.0010846158 -0.013794095
0.0042473911 0.0011549999 -0.013294272
0.001757195 0.001 -0.016193252
0.0021889627 0.001 -0.01617326
0.0016065781 0.00050000002 -0.017092938
0.00024146488 0.00053333334 -0.01716434
0.0042116893 -0.00061666663 -0.015693428
0.00375065 -0.0007607842 -0.015275937
-0.0056230235 -0.0011 -0.012144676
-0.0052213785 -0.0011 -0.012794448
-0.0045687067 -0.0011 -0.014093991
-0.0030625395 -0.0011 -0.015593464
-0.0036850884 -0.00061999995 -0.016093288
-0.0026465508 -0.00061428564 -0.016635956
-0.0032257074 -0.00064687512 -0.016208872
-0.0027323735 -0.00068474578 -0.016252559
-0.0022592505 -0.0011 -0.015743412
-0.0022415954 -0.00074395584 -0.016265761
0.0056964001 0.00056153844 -0.014250346
0.005741457 0.00061923073 -0.013773592
0.0051711728 0.001 -0.013744115
-0.001757195 0.0015999998 -0.012294623
-0.0012551391 0.0015999998 -0.012294625
-0.0012551394 0.0016444442 -0.011772586
-0.001752631 0.0016431817 -0.01176981
-0.0022592507 0.0015999998 -0.012294623
-0.002250883 0.0015999997 -0.012794446
-0.0027533781 0.0016342106 -0.01175534
-0.0021387569 0.0015999998 -0.013134329
-0.0027613062 0.0015999995 -0.012794447
-0.0027613055 0.0016499996 -0.011294973
-0.0035645952 0.0016 -0.012144676
-0.0035645955 0.0015999998 -0.011294975
-0.0056062867 -0.00088333344 -0.0032977858
-0.0051891045 -0.00047142859 -0.0028015319
-0.0051675872 -0.0016535715 -0.0057326443
-0.0065769292 -0.00060000003 -0.0079961345
-0.0067145294 -0.00025185177 -0.0078184213
-0.0066170939 0.00052000006 -0.0078661796
-0.0055728178 0.001 -0.0078461869
-0.0051711733 0.001 -0.0069465037
-0.0061306581 0.00052222225 -0.0069187358
-0.006207977 0.00055813952 -0.0073033553
-0.0017402249 0.00018450705 -0.003400567
-0.0021897352 0.00055384618 -0.0034746472
-0.0022233899 0.00018333329 -0.0034548729
-0.0044682953 -0.00096666673 -0.00046544895
-0.0048482292 -0.00094864873 0.00019287877
-0.0051557249 -0.00095769245 0.0016927673
-0.0048699398 -0.00095000019 0.0022002812
-0.0048699393 -0.00095000013 0.0017004572
-0.0051510925 -0.0012300003 0.0017004563
-0.0051640011 -0.00095357158 0.00070437789
-0.0051557249 -0.00095769239 0.0012006322
-0.0051625669 -0.00092857151 0.00018670317
-0.004851683 -0.0012000003 0.0022002822
-0.0048516835 -0.0012000003 0.0026501231
-0.0051413216 -0.0012351352 0.0026433682
-0.0051447488 -0.0009578949 0.0026422311
0.0052297465 -0.0011083334 -0.011803131
0.0056230235 -0.0011 -0.011844782
0.0056230235 -0.0011 -0.011294975
0.0071291905 -0.00020312498 -0.0088114729
0.0067112297 -0.00025124985 -0.0078162001
0.0051447488 0.00086842105 0.0021844972
0.0048699393 0.0009000001 0.0022002812
0.0048514437 0.0011710529 0.0021989653
-0.004278041 -0.0017421051 -0.0052970806
-0.0047540809 -0.0017351646 -0.0042963354
-0.0047896127 -0.0017066662 -0.0027979622
-0.0042780424 -0.001742105 -0.0042974339
-0.0052257827 -0.0016789469 -0.0028014695
-0.0052290396 -0.0016813556 -0.0012951
-0.0047896099 -0.0017066663 -0.0022981376
-0.0052275453 -0.0016771925 -0.0032960312
-0.0052259439 -0.0016727268 -0.0042974344
-0.0041545103 -0.0016 -0.011182515
-0.0057290136 -0.0011 -0.011289421
-0.0056230235 -0.0011 -0.011794799
-0.0070789848 -0.00060000003 -0.011095045
-0.0066387206 -0.00061538455 -0.0083575454
-0.0071277567 -0.00021714281 -0.0088129891
-0.0055728178 -0.0016 -0.0047639371
-0.0055916449 -0.0011937498 -0.0057219346
-0.0051510925 -0.0012300003 0.00070080813
-0.0048029991 -0.001658333 -0.00082573853
-0.0044682953 -0.0016 -0.0009985948
-0.0047896113 -0.0017066663 -0.0012984881
-0.0062018647 -0.00065588247 -0.013232529
-0.0062300535 -0.00067272747 -0.012794444
-0.0066940757 -0.00063333346 -0.011794801
-0.0052180318 -0.0011399999 -0.012224649
-0.0057579773 -0.00077339425 -0.012788938
-0.0056114374 -0.00091153861 -0.0022942936
-0.005617443 -0.0012777778 -0.0022981381
-0.0056174425 -0.0012777778 -0.0017983131
-0.0056174425 -0.0012777779 -0.0012984881
-0.0055928999 -0.00088000007 -0.001298489
-0.0042686416 -0.001725581 -0.0057864431
-0.0047536748 -0.0017078943 -0.0057784906
-0.0046885512 -0.0016516129 -0.0062322379
-0.0050707622 -0.0016 -0.0060968022
-0.0010543169 0.001 -0.0039975401
-0.002209045 0.001 -0.0044973646
0.00040164453 0.0016 -0.004947206
-0.00020082228 0.001 -0.003497716
-0.0025981378 0.00016249999 -0.003497716
0.0024600727 0.0016 -0.0039475579
0.0017640861 0.0011882352 -0.0038299519
0.0018074005 0.0015999996 -0.0043474175
0.0012664216 0.0011359552 -0.0038155806
0.0017362759 -0.00064999989 -0.0034227418
0.0012466839 -0.00029368399 -0.0033556605
0.0022018726 -0.00061428564 -0.0034834351
0.0012526602 -0.00071604928 -0.0038124179
-0.0044682953 -0.0015999998 -0.0027979622
-0.0044682953 -0.0015999998 -0.0022981376
-0.0032727756 -0.0016437502 -0.0038882047
-0.0027613069 -0.0013019806 -0.0038451189
-0.0027999261 -0.0016153845 -0.0039437125
-0.0032633618 -0.0013000002 -0.003847593
-0.0037695151 -0.0016775507 -0.0038669733
-0.0027771601 -0.0016789469 -0.0043395245
-0.0047896104 -0.0017066665 -0.0017983136
-0.005224966 -0.0016767855 -0.0017965292
-0.0044682953 -0.0015999998 -0.0017983136
-0.0043835742 -0.0012734379 -0.0012953645
-0.0044055372 -0.00088750001 -0.0017983136
-0.0044058166 -0.00086444453 -0.0012918245
-0.0044112434 -0.0012545456 -0.00083728787
-0.0043840804 -0.0012661295 -0.0023029749
-0.0044058166 -0.00086444453 -0.0023136889
-0.0043866043 -0.00084067788 -0.0028064335
-0.0039662397 -0.00080000004 -0.0034977156
-0.005231421 -0.0011600002 -0.010295324
-0.0052450616 -0.0011622644 -0.009789844
-0.0056230235 -0.0011 -0.010295325
-0.0052314205 -0.0011600002 -0.010795151
-0.0055728178 -0.0016 -0.0023481199
-0.0071680606 0.00016290319 -0.0093198624
-0.0071642431 -0.00023773586 -0.0093088802
-0.0052249655 -0.0016767854 -0.0022981386
-0.0022257795 -0.00019743587 -0.017169833
-0.0011748102 1.9999996e-05 -0.017592762
-0.0032166196 -0.00023620686 -0.016698243
-0.0071778758 0.00015606056 -0.01127831
-0.0071853031 -0.00024852934 -0.010790741
-0.0071982266 0.00016874998 -0.010795152
-0.00025102784 -0.00014999998 -0.01759276
-0.00022871426 -0.00061111111 -0.017126258
-0.0007530835 -0.00015000001 -0.01759276
-0.00075308303 -0.00069999998 -0.016757339
-0.0022264624 0.00012857141 -0.017176582
-0.0026809771 7.3333322e-05 -0.017119596
-0.0041168565 0.00050000002 -0.016093288
0.0026776304 9.444444e-05 -0.017120708
0.0036650067 0.00011666666 -0.016643096
0.0042244405 0.00016571424 -0.016208965
-0.0037026608 0.00053750002 -0.016149515
-0.0036566395 5.8333331e-05 -0.016626434
-0.0027613065 0.001 -0.01569343
-0.0022443747 0.00055185187 -0.01667086
-0.0017420391 0.00057735847 -0.01673834
-0.0050707622 7.4999996e-05 -0.015618455
-0.0050707622 -0.00015000001 -0.015593464
-0.0045687067 -9.999999e-05 -0.016093288
-0.0045687067 0.0001 -0.016093288
0.0071807723 0.00017808218 -0.0092997896
0.0066382904 0.00053333334 -0.012750018
0.0070789848 3.3333337e-05 -0.01262784
0.006232928 0.00057592586 -0.013266508
0.0067432802 0.00059701497 -0.011272592
0.0047838725 0.0016928567 -0.001798314
0.0052572414 0.0016928568 -0.0022981372
0.0047838744 0.0016928568 -0.0022981381
0.002262654 0.0012296613 -0.0038314955
0.0020584282 0.00050000002 -0.003497716
0.0046741376 -0.00062999991 -0.0053720577
0.0041447482 -0.00061111111 -0.0049194382
0.004702589 -0.00019607841 -0.0048560621
0.00373039 -0.00065581419 -0.0048484039
0.0036148007 -0.0011 -0.0054970132
0.0032102028 -0.00061764702 -0.0044091605
0.0037219967 -0.00017297294 -0.0038759615
0.0037414057 -0.00025217378 -0.0043311198
0.0065769292 8.0000005e-05 -0.0069565
0.0052572433 0.0016928565 -0.0032977872
0.0047731572 0.0017192768 -0.0038072448
0.0047838744 0.0017090904 -0.003301681
0.0056910431 -0.00023709674 -0.014742156
0.0061496478 0.00015106378 -0.014236493
0.0051042326 -0.00013333333 -0.015593464
0.0047155768 -0.00024029848 -0.015724756
0.0071040876 0.00012916664 -0.012236311
0.007110693 -0.00017368421 -0.012247271
0.0055728178 0.0015999998 -0.0017983136
0.0055728178 0.0015999998 -0.001298489
0.0052572419 0.0016928567 -0.0012984881
-0.0052076858 -0.00062272721 -0.014752849
-0.0052454532 -0.00070958905 -0.014265158
-0.0047396766 -0.00071351347 -0.014780239
-0.0052125207 -0.00024411763 -0.015228887
-0.0057558571 0.00064791675 -0.013301562
-0.0061575659 0.00054117647 -0.013688251
-0.0062211235 0.0005586957 -0.013283407
0.0056180996 0.0012196078 -0.0052716015
0.0056062872 0.0011111111 -0.0057635866
0.0066309967 0.00053076923 -0.0078807911
0.0042378437 -0.00068852468 -0.0053314981
0.0031924832 -0.0011235294 -0.0054029291
0.0026274247 -0.00060833327 -0.0038559232
0.0016065781 -0.0016 -0.0057969075
-0.00025102784 -0.0015999998 -0.012294624
-0.00025102784 -0.0016499995 -0.011794801
-0.0007530835 -0.0015999998 -0.012294623
0.00075308327 -0.0016499996 -0.011794801
0.0007530835 -0.0015999998 -0.012294624
0.0012551392 -0.0016499996 -0.011794802
0.00075308303 -0.0016928568 -0.010281047
-0.00074967952 -0.0016728808 -0.011286498
0.0067463727 0.00061875011 -0.010795146
0.0061083441 0.0005333334 -0.0068465378
0.0047369623 0.0010324324 -0.013783291
0.0047276914 0.001 -0.014202286
0.0007530835 9.999999e-05 -0.01759276
0.0011658849 7.7777775e-05 -0.01759276
0.00071961316 0.00051666674 -0.017092938
0.0055728178 0.001 -0.013294272
0.0062443176 0.00061875011 -0.01279444
0.0047257133 0.00058545457 -0.015249948
0.0062756944 0.00069999998 -0.010795152
0.0055728178 0.0015999998 -0.0037976108
0.0055728178 0.0015999998 -0.0032977867
0.0051972056 -0.00064444437 -0.014708586
0.0031227863 -0.0011 -0.015153619
0.0022293986 -0.00019999998 -0.017160481
0.0017438076 -0.00022999998 -0.017196236
0.0017440977 -0.00062173902 -0.016697422
0.0012442515 -0.00024216855 -0.017241081
0.001743308 0.00017765953 -0.017239699
0.0047512725 -0.0011636366 -0.011794803
-0.0056062872 -0.00089629641 -0.0042863279
-0.0051831272 -0.0004261905 -0.0043188557
-0.0055728178 0 -0.0054970132
-0.005617443 -0.0012777778 -0.0042974344
-0.005617443 -0.0012777778 -0.0047972598
-0.0057338225 -0.00068103464 -0.013768246
-0.0047130473 -0.0011 -0.013737866
-0.0051975981 -0.0016552631 -0.00083286315
-0.0027236522 -0.0011 -0.015630949
-0.0042138044 0.00015000001 -0.016194984
-0.004203381 -0.00023191489 -0.016182624
0.0066709644 0.00016825393 -0.013257779
-0.00225925 0.0016375 -0.011757315
-0.00025102778 0.0016499996 -0.010795151
-0.00075308338 0.0016499996 -0.011294973
-0.00025102781 0.0016499995 -0.011294973
-0.00075308315 0.0016499995 -0.010795151
-0.004755836 0.0011727274 -0.010795148
-0.0052448097 0.0011066666 -0.010795152
-0.0035645955 0.0015999998 -0.0092956778
-0.0047558369 0.0011727278 -0.0092956778
-0.0042563151 0.0012222235 -0.0092956787
-0.0052342894 -0.0011342857 -0.0083245914
-0.0052394541 -0.0011580002 -0.0087978514
-0.0056230235 -0.0011 -0.0082960287
-0.0055988496 -0.0012333331 -0.0052637625
-0.0060748737 -0.00060000003 -0.0068965205
-0.0055728178 -0.0011 -0.0060968022
-0.00516822 -0.0011676472 -0.0068024364
-0.0067275446 0.00016914893 -0.0078100329
-0.0057168864 0.001026087 -0.0083742617
-0.0062513533 0.00065656571 -0.0083071357
-0.0066657537 0.00053846155 -0.0083037196
-0.0057575349 0.00066792459 -0.007309583
0.0048699393 0.0009000001 0.00070080813
0.0048501235 0.001169737 0.0012006322
0.0048506302 0.0011756412 0.00070209056
0.0044682953 0.00115 -0.0004987698
0.0048364694 0.001178161 0.00019294024
0.0048699388 0.0009000001 0.0012006322
0.0044246376 0.0012065216 -0.00083343498
0.0044431924 0.00083124993 -0.00085489452
0.00027334143 0.0010444445 -0.0034977156
0.0051640035 0.0011857144 0.0022002812
0.0051640035 0.0011857144 0.0017004572
0.0048508751 0.001178481 0.0017004572
0.0051640039 0.0011857144 0.0012006322
0.0016969482 0.00053000002 -0.0034777229
0.0012497412 0.00018387093 -0.0033579818
0.0012149748 0.00062000001 -0.0034577288
0.0017436268 0.00018513511 -0.0033950489
-0.0017417481 -0.00026923072 -0.0034085158
-0.001245823 0.00019278345 -0.0033513755
-0.0012479672 -0.00027499982 -0.0033727596
-0.0044682953 -0.0015999998 -0.001298489
-0.0048516835 -0.00095454557 0.00069777854
-0.0044198199 -0.00090000016 -0.0008434765
-0.0017141615 -0.00059999997 -0.0034691547
-0.0012417511 0.00063833338 -0.0033927532
-0.0044515603 -0.0011666667 -0.00046544895
-0.0048743044 -0.00095217407 0.0026436038
-0.0051510907 -0.00096000015 0.0022002803
0.0048699398 0.0009000001 0.0017004563
0.00025360245 -0.00028888875 -0.0033114571
0.00074381451 -0.00072615384 -0.0033746818
0.00024948301 -0.00073846156 -0.0033885222
-0.005225746 -0.0012684785 -0.00032709166
0.0071836999 0.00016142856 -0.01127926
0.0071306252 -0.00021428571 -0.01178623
0.0071604531 -0.00024150943 -0.011268566
0.0071809641 -0.0002421875 -0.01079515
0.0071794013 -0.00025000001 -0.010296844
0.00075308362 -0.0015999998 -0.0054970132
0.00022013206 -0.0016192307 -0.0053432211
-0.00040164453 -0.0016 -0.0048972238
0.0041503264 -0.0011 -0.0063300529
0.0051879077 -0.00064166659 -0.0058843773
0.0046088714 -0.0011 -0.0069165132
0.0056549725 -0.00061818177 -0.0064148721
-0.0047838725 -0.0017090904 -0.003301681
-0.0070789848 -0.00060000003 -0.010395291
-0.0057145753 -0.0011 -0.0097543402
-0.0067343917 -0.00065000029 -0.010297597
-0.0052361465 -0.0011607846 -0.0092995968
-0.0056564938 -0.0011 -0.0093289996
-0.0070789848 3.3333341e-05 -0.01262784
-0.0070789848 -0.0001 -0.012594518
-0.0066538369 -0.00023191486 -0.013253865
-0.0071277563 -0.00021714284 -0.011777665
-0.0071291905 0.00016739126 -0.011783934
-0.0071082716 0.00010833333 -0.012248806
-0.0071026096 -0.00017647058 -0.012235819
-0.0065970114 -0.00060000003 -0.012714475
-0.0052314214 -0.0011600005 -0.011794802
-0.0065970114 6.9999995e-05 -0.013674138
-0.0061472626 0.00014651159 -0.014224177
-0.0071063684 0.00052727276 -0.010740626
-0.0057331957 0.00061111111 -0.0068159937
-0.0041670618 -0.0015999996 -0.010795152
-0.0043678842 -0.00048125003 -0.0033790083
-0.003769353 -0.00030294093 -0.0038426919
-0.0027613067 -0.00079999992 -0.003847593
-0.00074269541 0.00066896557 -0.0033621313
-0.0055728178 0.00050000002 -0.0059968373
-0.0050707622 0.00050000002 -0.005447031
-0.0061250804 0.00014090908 -0.0064239595
-0.0056625446 0.00014255315 -0.0058713481
-0.0051904833 -0.00047692313 -0.0018021581
-0.0051874565 -0.000445946 -0.0038030143
0.002228569 -0.00063611125 -0.003830933
0.0022421593 -0.00074999995 -0.0043250853
0.0022592505 -0.0011 -0.0048972238
0.0027326164 -0.00115 -0.0053399252
0.0022809608 0.0016378377 -0.0043352596
-0.0007836431 -0.001154348 -0.0038236883
-0.00095390575 -0.0016 -0.0043973997
-0.00028192354 -0.0011192308 -0.0038437489
0.00075308292 -0.00076190458 -0.0038071303
-0.0032720929 -0.0016913037 -0.0043104733
-0.0042810431 -0.0017094592 -0.0038219262
-0.0043833326 -0.0012769232 -0.0027979617
-0.0043838229 -0.0012698413 -0.0017935536
-0.0056230235 -0.0011 -0.010795152
-0.0062623071 -0.00073333335 -0.010791821
-0.0055728178 -0.0016 -0.0018482958
-0.0047025881 -0.00024126979 -0.015723571
-0.0071578813 -0.00025535712 -0.011277121
-0.0055728178 -0.0016 -0.0037976108
-0.0055728178 -0.0016 -0.0028312835
-0.0022486805 0.0010394736 -0.015746042
-0.0017571949 0.0010374998 -0.015755905
-0.0017539037 0.0010770491 -0.015268986
-0.0012450985 -0.00026699982 -0.017257886
0.0002079945 -0.00012857144 -0.01759276
-0.0026162679 -0.00015555555 -0.017126258
0.0026797222 0.00053125003 -0.016668087
0.0030625395 0.00050000002 -0.016593112
-0.0032172711 0.00012950817 -0.016712738
-0.005120968 0.00051666674 -0.015143622
-0.0045938096 0.00052500004 -0.015618455
-0.0047258725 0.00056739122 -0.015241412
-0.0042563141 0.001222223 -0.011294978
-0.0047544665 0.0011560003 -0.011279976
-0.0032466266 0.0011333333 -0.014293918
-0.0027519835 0.0012335721 -0.013786958
-0.0060748737 0.001 -0.011994729
-0.006721966 0.00055555551 -0.0117948
-0.0066802925 0.00055588241 -0.012268163
0.0070789843 0.00050000002 -0.0097955018
0.0067492565 0.00060675683 -0.0098036071
0.0044682953 0.0015999998 -0.0017983136
0.0027897246 0.0016698109 -0.0043313848
0.0027613062 0.0015999998 -0.0039475579
0.0052572414 0.0016928568 -0.0017983126
0.0027524985 0.0012403512 -0.0038546072
0.0027613067 0.00069999992 -0.003847592
0.0032440519 -0.00024999992 -0.0038514389
0.0026274247 -0.00024444444 -0.0034977156
0.0052572414 0.0016928567 -0.0027979631
0.0055728178 0.0015999998 -0.0027979617
0.0047874101 0.0017013694 -0.0028020702
0.0051042326 0.00011111111 -0.015615677
0.0071446407 0.00015961536 -0.01178519
0.0055728178 0.0015999998 -0.0022981376
-0.0057414551 0.00061923085 -0.013773587
-0.0051711733 0.001 -0.013694131
-0.0042419452 0.0010779659 -0.013773764
-0.0047394042 0.0010333335 -0.013734118
-0.0042674723 0.0011000001 -0.013294276
-0.0045687067 0.001 -0.014343902
-0.0052485042 0.0006333334 -0.014297365
-0.0047695292 0.0010499996 -0.013294271
-0.0051557249 0.001 -0.01331734
-0.0046738982 -0.00062857132 -0.015226928
-0.0052207764 0.00016746987 -0.015244187
0.00074914552 -0.0016529408 -0.011294973
0.0057306061 0.0010285714 -0.01079515
0.0057608206 0.0010468082 -0.011288593
0.0052448087 0.0011066668 -0.010795149
0.0052590352 0.0011124999 -0.011294968
0.0056689261 0.00068857148 -0.0058111851
0.0056161759 0.00072045473 -0.0053107152
0.0066594887 0.00013999996 -0.0073630232
0.0057497313 0.001040476 -0.0097788405
0.0041670622 0.0016 -0.0098954672
0.0041670618 0.0016 -0.010195361
0.0052438853 -0.0011137931 -0.011288082
-0.0007530835 -0.0015999998 -0.012794446
-0.0037252537 -0.0016266665 -0.0098288227
-0.0032589957 -0.0016456519 -0.0098128868
-0.0035645955 -0.0015999998 -0.0092956778
0.0012551392 -0.0015999998 -0.012294623
0.001732092 -0.0015999997 -0.013169316
0.0012551392 -0.0015999996 -0.013194307
0.0067463717 0.00061875 -0.01029533
0.006132252 0.00014999998 -0.0064109778
0.005701392 0.00019878044 -0.0058359155
0.0057122107 0.00065882358 -0.006303791
0.0061501828 -0.00062499993 -0.007296382
0.0061200596 -0.00019999998 -0.0063966969
0.0052317688 0.0016827583 -0.0052729533
0.0047565727 0.0017387093 -0.0052938582
0.0057258257 0.0010190477 -0.012218459
0.0057442496 0.0010390242 -0.011780171
0.0052553029 0.001104054 -0.011779945
-0.0012551391 0.0015999998 -0.012794447
-0.0007530835 0.0015999996 -0.013194309
-0.0012551391 0.0015999996 -0.013194309
-0.00025102787 0.0016444443 -0.011772586
-0.0007530835 0.0015999998 -0.012794446
0.001249017 0.00062926824 -0.016756466
0.0012551392 0.001 -0.016193252
0.0007530835 0.001 -0.016193252
-0.00022460383 0.00052631582 -0.017171858
-0.0012121059 0.00050000002 -0.017121498
-0.00075308338 5.0000002e-05 -0.01759276
0.0055728178 0.0016 -0.0009985948
0.0055728178 0.0011999999 -0.0004987698
0.0052424334 0.0010322582 -0.013287824
0.0047569759 0.0011125 -0.012794444
0.0052405051 0.001040476 -0.012801589
0.0056230235 -0.0011 -0.0097955018
0.0056230235 -0.0011 -0.0093956431
0.0067264759 -0.00065957475 -0.010295328
0.0037654168 -0.0012499999 -0.011294969
0.0037654159 -0.00125 -0.011794806
0.0042549213 -0.0012125003 -0.011794804
0.0027613062 -0.0015999998 -0.011794802
0.0052534565 0.0016986106 -0.0038003875
0.0056230244 0.0012500001 -0.0032977867
0.005623023 0.00125 -0.0027979622
0.005623023 0.0012499999 -0.0037976103
-0.006254259 -0.0007337078 -0.0087992242
-0.0056564938 -0.0011 -0.0087791933
0.0057345903 -0.00067037053 -0.013775585
0.0037367288 -0.0011 -0.014322484
0.0032509514 -0.0012337079 -0.013780616
0.0037625059 -0.0011927538 -0.013776713
0.0042284247 -0.0011333334 -0.013771884
0.0027613062 -0.0015999995 -0.012744466
0.0042674728 -0.0011500005 -0.013294275
0.0032565768 -0.00070810813 -0.015760968
0.0042598778 -0.00078991597 -0.014298963
0.0022257802 -0.00061666663 -0.016593112
-0.00024690139 -0.00070821919 -0.016754696
0.002560484 -0.0011 -0.015593464
0.0022366222 -0.00071267603 -0.016250981
0.0023596615 -0.0011 -0.015593464
0.0027302697 -0.0011709094 -0.014770119
0.0037499694 -0.00067500019 -0.015739564
0.0032212539 -0.0011322581 -0.014735698
0.0021387569 -0.0015999998 -0.013134329
0.0027613058 -0.0015999998 -0.011294974
0.0022369365 -0.0016444442 -0.010795152
0.0027613062 -0.0015999998 -0.010795151
0.0022429677 -0.0016324326 -0.011262553
0.0022592507 -0.0015999998 -0.0117948
0.0052571045 0.0006644231 -0.014278545
-0.0061139232 -0.00020000001 -0.0064022499
-0.0056039789 -0.00087586226 -0.0048076003
-0.0052555935 -0.00078053086 -0.013790563
0.0012551391 0.00050000002 -0.017092938
-0.002751892 -0.0011828128 -0.014773443
-0.0032313156 -0.0011595747 -0.01475546
-0.0027613062 -0.0015999998 -0.013094341
-0.0031964208 -0.0011190476 -0.015217408
0.0062597888 0.0006584159 -0.012279782
-0.00075308303 0.0016928568 -0.0082817506
-0.0012343647 0.0016706892 -0.008289136
-0.0007435201 0.0016809518 -0.0072773397
-0.0017443768 0.0016468081 -0.0097933738
-0.0017530972 0.001648979 -0.010299407
-0.0027613055 0.0016499996 -0.010795151
-0.0017502701 0.0016137931 -0.0093232524
-0.0017502701 0.0016137932 -0.0087682772
-0.0022592505 0.0015999998 -0.0087958537
-0.0022592505 0.0016285714 -0.0097812228
-0.0027613055 0.0016285717 -0.0097812219
-0.0027613062 0.0015999998 -0.0087958537
-0.0022523259 0.0016137932 -0.0083098179
-0.0027613058 0.0015999998 -0.0082960287
-0.0027613058 0.0015999998 -0.012294623
-0.0027530165 0.0011706423 -0.014285664
-0.0032405409 0.0010909088 -0.014775571
-0.0035645955 0.0015999998 -0.011794798
-0.004256316 0.0012222226 -0.0097954972
-0.0047560111 0.0011634616 -0.0088073881
-0.0032298914 0.0016166668 -0.010295327
-0.0032298914 0.0016166666 -0.010795151
-0.0051510902 -0.0011399999 -0.0072713895
-0.0041670618 -0.0016 -0.007146433
-0.0062370747 -0.00069538475 -0.0083190994
-0.0062226485 -0.00067358511 -0.0078037493
-0.0067235301 0.00056799996 -0.0088118473
-0.0062605888 0.00067964598 -0.0087993946
-0.0047523845 -0.0012182929 -0.0088031692
0.0051711728 0.0003999999 -0.001298489
0.0055819461 0.00084545458 -0.00085319113
0.0056129824 0.00082000002 -0.001298489
0.0022200649 0.0001536585 -0.0034465129
-0.0048412518 -0.00095714285 0.0012006322
-0.0017507162 0.00059677416 -0.0034428956
-0.001676866 0.0010200001 -0.0044107283
-0.0048532044 -0.0012166668 0.00070080813
-0.0051510925 -0.0012300003 0.0022002822
0.00074860023 0.00018482134 -0.0033201021
0.00073385576 0.0006340426 -0.0034275274
0.00023668332 0.00063333334 -0.0033882307
0.00024604882 0.00019504121 -0.0033043982
-0.0002510279 0.00019999986 -0.0032977862
0.0051353117 0.00088571431 0.0016861763
-0.0051746373 -0.0012293103 0.00018891878
0.0062585799 -0.00072954537 -0.011791393
0.0062422249 -0.00071199995 -0.012281296
0.0062300549 -0.00067272742 -0.012794443
0.0065970114 -0.00060000003 -0.012714477
0.0066215564 -0.00059999997 -0.0083182426
0.0052213785 -0.0011 -0.0079461522
0.00072678539 -0.0011666669 -0.0043688379
0.00025102784 -0.0011 -0.0039975401
-0.0022674466 -0.0016734693 -0.0043627187
-0.0023847644 -0.0016 -0.003972549
-0.0017715392 -0.0016357139 -0.0043902593
-0.0022592505 -0.0016999998 -0.0047972607
-0.00023824823 -0.00074545463 -0.003414108
-0.00074811187 -0.0002831681 -0.0033413363
-0.00071608997 -0.00074210548 -0.0034477324
-0.00065267237 -0.0011 -0.003497716
-0.0017643673 -0.0012333331 -0.0038285521
0.0036912013 -0.0011173913 -0.0058316784
0.0047512725 -0.0011636367 -0.0082960287
0.0047515063 -0.0011410258 -0.0078423433
0.004751273 -0.0011636366 -0.0087958518
0.0052213785 -0.0011 -0.0087958528
0.0047695278 -0.0011 -0.0072963811
-0.0071860934 0.0001733333 -0.009795499
-0.0071655479 -0.00024999998 -0.0097989477
-0.0067133843 -0.00064871821 -0.0098108798
-0.0062602465 -0.0007634614 -0.0097974222
-0.0062659774 -0.00073870958 -0.010294251
-0.0062593003 -0.00075306121 -0.011301089
-0.0066550258 -0.00062777771 -0.012233534
-0.0047527924 -0.0012333334 -0.01079515
-0.0057306057 0.0010285714 -0.01079515
-0.0071124537 0.00053333334 -0.010295326
-0.0057306057 0.0010285714 -0.010295327
-0.0047522164 -0.0012275863 -0.011291523
-0.0032633606 -0.0016999993 -0.0047972593
-0.0022656596 -0.0012829787 -0.0038444037
-0.0022543762 -0.00079514552 -0.0038403142
-0.0032613119 -0.00080306106 -0.0038506542
-0.0026408129 -0.00013999999 -0.0034977156
-0.0051711728 0.001 -0.0072963815
-0.0052300352 0.0010206897 -0.0078306757
-0.00075308338 0.001 -0.0039975401
-0.00074621697 0.00019316227 -0.0033114562
-0.00025488986 0.00065128208 -0.0033682734
-0.0048225238 -0.00046388886 -0.002314799
-0.0048071835 -0.00046249997 -0.0027979617
-0.0056050918 -0.00088928588 -0.0018018833
-0.0056815967 0.0005416667 -0.006380036
-0.0051897676 -0.00047407416 -0.0012947861
-0.0045687067 0.00050000002 -0.0049971887
-0.004116856 0.001 -0.0058468902
-0.0052423971 0.00063488382 -0.0063130059
-0.0048315474 -0.00046470598 -0.0012808479
-0.0022355164 0.00056545454 -0.0038048807
-0.0026980846 0.00052592595 -0.003834635
0.0017536094 -0.00066785736 -0.0038190312
0.0027223704 -0.00067551044 -0.004354557
0.00074760581 -0.00028818159 -0.0033250488
-0.0037654182 -0.0016999996 -0.0047972603
-0.0037654173 -0.0016999993 -0.0042974339
-0.0044459822 -0.0016222221 -0.0033644298
-0.0047683185 -0.0017192768 -0.0038036318
-0.0070789848 -0.00060000003 -0.010795151
-0.0017571949 -0.0011 -0.01574341
-0.006681201 -0.00063076918 -0.0088189226
-0.0055728178 -0.0016 -0.0043474175
-0.0057569039 -0.00073333323 -0.013294279
-0.0052584885 -0.00078260864 -0.013294274
-0.0022592503 0.0011421056 -0.01478322
-0.0022592496 0.0010749997 -0.015268578
0.00024330389 8.4615385e-05 -0.01759276
-0.0036650065 -0.00015000001 -0.016613107
0.0017540578 0.00060468743 -0.016732123
0.0032341278 0.00015443034 -0.016728498
-0.0037576933 0.00061538466 -0.01576391
-0.0032530387 0.00067009329 -0.015774699
-0.0032332384 0.00104 -0.015213598
-0.0017454595 0.00015844154 -0.017213682
-0.0042185555 0.00055128202 -0.015742129
-0.0042563165 0.0012222223 -0.010295329
-0.0047558378 0.0011727274 -0.010295329
-0.0037504302 0.0010880595 -0.014284964
-0.0037654168 0.0011499999 -0.013294272
-0.0032633611 0.0012413802 -0.012794439
-0.0032549934 0.0011916669 -0.013294274
-0.0067312652 0.00057222217 -0.011287565
-0.0062625967 0.00068260863 -0.011294976
0.0071860943 0.0001733333 -0.0097955037
0.0043868823 0.0012162167 -0.0013106465
0.0044296756 0.0008115386 -0.0012907991
0.0044682953 0.0015999998 -0.001298489
0.0044682953 0.0015999998 -0.0022981376
0.0044682953 0.0015999998 -0.0027979622
0.0043804357 0.0012250002 -0.0022981381
0.0022592503 0.0016999998 -0.0047972617
0.0032720934 0.0016913039 -0.0043104738
0.0032799344 0.001256311 -0.0038723429
0.0032585813 0.00069761899 -0.0038761524
0.0039662397 0.00075000001 -0.003497716
0.004428131 0.00082000002 -0.0017983131
0.0042763003 0.0017351646 -0.0043062223
0.0042888718 0.0016901635 -0.0038336636
0.0044482131 0.00164 -0.003377758
0.0037882386 0.0016727273 -0.003874857
0.0056230235 0.0012500003 -0.0022981381
0.0056230221 0.0012500001 -0.001798314
-0.0047625001 0.00065500004 -0.014777751
-0.0041305483 0.001 -0.014775569
-0.0042244401 0.0010285714 -0.014293923
-0.0037517236 -0.00077454536 -0.015284486
-0.0037478015 -0.0006824563 -0.015746038
-0.0056909481 0.00055000006 -0.014252759
-0.0007530835 0.0016444442 -0.011772585
0.0027397892 -0.0016107142 -0.010284616
0.00025102781 -0.0016636357 -0.011294972
0.00075308327 -0.0016636358 -0.010776974
0.0027533786 0.0016342103 -0.011755341
0.0027613055 0.0016499995 -0.011294972
0.0047559594 0.001174775 -0.01129407
0.004756012 0.0011634615 -0.01178327
0.0047561992 0.0011787616 -0.01079338
0.0032537985 0.0016404759 -0.010776112
0.003245105 0.0016242429 -0.010298355
0.0027613053 0.0016444442 -0.010306433
0.0032633618 0.0015999998 -0.012294623
0.0066704149 0.00055172417 -0.0083408421
0.0067212693 0.00056458329 -0.0088125141
0.0042674728 -0.0011500003 -0.0072963797
0.0010543169 -0.0017000001 -0.0062967325
0.00025102781 -0.0016928565 -0.0058111865
0.0022508821 -0.0016479162 -0.0097955028
0.0027864091 -0.0015999997 -0.0079211611
0.0030625395 -0.0016 -0.009845484
0.0037590417 -0.0011841269 -0.0068251183
0.0037654182 -0.0012000001 -0.0072963792
-0.0032537987 -0.0016404761 -0.011266412
-0.0032633611 -0.0016499996 -0.01079515
-0.0037086636 -0.0016260868 -0.01121674
0.0017502708 -0.0016706892 -0.0098161828
0.0017474785 -0.0016790318 -0.010275979
0.0030625395 -0.0016 -0.010195361
0.0027397892 -0.0016107142 -0.0097955028
-0.0017525248 -0.001727907 -0.007310329
-0.0022688131 -0.0017190474 -0.0067775147
-0.002272865 -0.0017271185 -0.0073099351
-0.0022592505 -0.0015999998 -0.012794448
-0.0017571948 -0.0015999998 -0.012294624
-0.0017571945 -0.0015999998 -0.012794448
-0.0042563165 -0.0016972218 -0.0062870141
-0.0035645955 -0.0015999998 -0.0087958537
-0.0027613055 -0.0016499995 -0.0097955028
-0.0022592503 -0.0016444443 -0.010306433
-0.0027613053 -0.001644444 -0.010306433
-0.0022592503 -0.0016499996 -0.0097955028
-0.0027613055 -0.0016499995 -0.01079515
-0.0022592507 -0.0015999998 -0.011794801
-0.0027613065 -0.0015999998 -0.011794798
-0.00225925 -0.0016499995 -0.011294973
0.0022592505 -0.0015999998 -0.012294621
0.0012551391 -0.0015999998 -0.012794448
0.0017571955 -0.0016499996 -0.010795151
0.0012507094 -0.0016897053 -0.010277688
0.0017488276 -0.0016479162 -0.011288725
0.0012494557 -0.0016584902 -0.010783834
0.00025102778 -0.0016499995 -0.011794802
0.00025102784 -0.0015999996 -0.013194307
0.00025102784 -0.0015999998 -0.012294624
-0.00025102784 -0.0015999998 -0.012794446
0.0012571278 -0.0012603959 -0.014775928
0.006275693 0.00070000009 -0.01029533
0.0060748737 -0.00060000003 -0.0069465032
0.0042554825 -0.0011925375 -0.0078230603
0.0055728178 0.0015999998 -0.0042974344
0.0056230226 0.0012500002 -0.0042974339
0.0056230244 0.0012500001 -0.0047972593
0.005612982 0.00082000002 -0.0042974353
0.0056129824 0.00082000002 -0.0037976112
0.005612982 0.00082000002 -0.0032977862
0.005612982 0.00082000002 -0.0027979617
0.005612982 0.00082000002 -0.0022981376
0.004116856 -9.999999e-05 -0.003847593
0.0055728178 0.001 -0.0067965561
0.0055728178 0.001 -0.0074463282
0.0050707622 0.0016 -0.0061467849
0.0037063523 0.0015999996 -0.0077609234
0.0032298912 0.0016166667 -0.0077962037
0.0037063523 0.0015999996 -0.0082607474
0.0032515486 0.0016897053 -0.0072831484
0.0042549213 -0.0012124999 -0.0087958556
0.0027613065 -0.0015999998 -0.0087958537
0.0055728178 0.001 -0.012794448
0.0052497573 0.0010478259 -0.01228376
-0.0017571945 0.0015999998 -0.012794447
-0.001732092 0.001 -0.016168261
-0.0012490168 0.0006292683 -0.016756466
-0.0012524968 0.0010342103 -0.015753932
-0.00025102781 0.0015999998 -0.012794448
-0.00025102784 0.0015999998 -0.012294624
0.00025102784 0.0015999998 -0.012294624
0.00025102784 0.0015999998 -0.012794449
0.0047548623 0.0011348318 -0.012287886
0.0042565758 0.0012124038 -0.011785506
0.0042575225 0.0011765769 -0.012294624
0.0042558867 0.0011605769 -0.012792517
0.0037654175 0.0012000008 -0.012794442
0.00074453733 0.0006478724 -0.01676539
0.00025102781 0.00064736849 -0.016766727
-0.00074576121 0.00065 -0.016769091
-0.00027111004 0.001 -0.016199918
-0.0007530835 0.001 -0.016193252
0.0056230221 0.0012500002 -0.0012984881
0.0047452361 0.0010790321 -0.013292665
0.0036558779 0.001 -0.015229955
0.0042228466 0.00056444452 -0.015740078
0.0056230235 -0.0011 -0.010828473
0.0052071712 0.0008018869 -0.00035542436
0.0051472653 0.00086666673 0.00017718226
0.0051640035 0.0011857142 0.00070080906
0.0057569034 -0.00073333323 -0.013294277
0.0052554267 -0.00073103438 -0.013775713
0.0047695278 -0.0011 -0.013294272
0.0052584931 -0.00078260858 -0.013294278
0.0042294799 0.0010324323 -0.014283112
0.0045687067 0.001 -0.014593815
0.0042581758 -0.00077037018 -0.014778933
0.0047565727 -0.00073870958 -0.014294992
0.0027300664 -0.00066666695 -0.016228803
0.0027161208 -0.001115 -0.0152086
-0.005605381 -0.00081081106 -0.0052970829
-0.0062139034 -0.00025128198 -0.0068324413
-0.004260364 -0.00077964575 -0.014780471
-0.0037096338 -0.0011111111 -0.014710439
-0.0041733375 -0.00111875 -0.014218948
-0.0047518089 -0.0012235292 -0.011794803
0.00075012981 -0.00070441182 -0.016744528
0.00024690133 -0.00070821919 -0.016754698
0.0012234303 -0.0011 -0.015746042
0.001255139 -0.00077727245 -0.0162705
0.0007530828 -0.00078260858 -0.01628018
-0.0017571951 0.0011421053 -0.014783217
-0.0017557696 0.0012340434 -0.014283999
-0.0017571944 0.0012500006 -0.013794096
-0.001732092 0.0015999997 -0.013169316
-0.0022592496 0.0012500014 -0.013794093
-0.0022523734 -0.0012000002 -0.014777314
-0.0022537236 -0.0012733951 -0.014274664
-0.0022162169 -0.0016 -0.013122904
-0.002752939 -0.001291667 -0.013794091
-0.0027557272 -0.0011305556 -0.015251918
-0.0017320922 -0.0015999997 -0.013169316
-0.0017571956 -0.0016636358 -0.011285883
-0.0012551394 -0.0016444442 -0.011772586
-0.0012540714 -0.0012446807 -0.014789489
-0.00025102781 -0.0013000004 -0.013794091
-0.0007530828 -0.0013000004 -0.013794099
-0.00024323724 -0.0012844831 -0.014286168
-0.00075666897 -0.0012767861 -0.014283211
-0.00075308338 -0.0015999996 -0.013194308
-0.0017343744 0.0016454547 -0.008307389
-0.0030625395 0.0016 -0.0079961345
-0.0021588393 0.0015999996 -0.0072963815
-0.001221669 0.0016533332 -0.0078295255
-0.00074352021 0.001680952 -0.0078152474
-0.0012551394 0.0016499995 -0.0097955009
-0.00225925 0.0016499996 -0.01079515
-0.0022656592 0.0016468081 -0.010308087
-0.0047558374 0.0011727273 -0.0097955
-0.0042565754 0.0012124034 -0.0088051539
-0.0052453913 0.0010985507 -0.0088132378
-0.0052506663 0.0010520831 -0.0083147744
-0.0035645955 0.0015999998 -0.010295326
-0.0042563151 0.0012222229 -0.010795152
-0.0035645955 0.0015999998 -0.0097955018
-0.0052072206 -0.00035256386 -0.0048241746
-0.0057502105 -0.00073666655 -0.0073041553
-0.0057197958 -0.00071739126 -0.0068226354
-0.0061715664 -0.00065925927 -0.0073741311
-0.0016065781 0.0016 -0.0059968373
-0.00073482678 0.001663636 -0.0062967315
-0.0012149748 0.0010485715 -0.0043659816
-0.0012337184 0.0011106668 -0.0048185866
-0.0032277319 0.0010387098 -0.0053680264
-0.002761306 0.001 -0.0049472065
0.00077861163 0.0016779657 -0.0053174151
0.00026537225 0.0016928568 -0.0057969047
0.001257968 0.0016943656 -0.0053083454
-0.00025374166 0.0016986482 -0.0062953816
-0.00025102776 0.0016999996 -0.006796557
-0.0066390866 0.0001452381 -0.0073487419
-0.0062431307 0.00061081088 -0.0078124148
-0.007128024 0.00015581393 -0.0088144504
-0.0041670618 -0.0015999996 -0.010295326
-0.003730902 -0.0016218751 -0.010301574
-0.0041670618 -0.0015999996 -0.0097955028
-0.0047527938 -0.0012333331 -0.0097955009
-0.0042172689 -0.0016441178 -0.0067348136
-0.0037542603 0.001222223 -0.0082960315
-0.0030625395 0.0015999998 -0.0082960296
-0.0037489564 0.0010770491 -0.0063114818
-0.0042463336 0.0010701752 -0.0068140938
-0.0037654168 0.0011235293 -0.0068141958
0.0007530835 0.001 -0.0034977156
0.00077162066 0.0010892306 -0.0038237539
0.00025102793 0.0011421054 -0.0043079574
0.00075477047 0.0011907567 -0.0043075159
0.0002953955 0.0010604649 -0.0038417811
0.0049201455 0.00039999999 -0.00094861165
0.0051640007 0.00039999993 -0.0022981376
0.0026483433 8.7499997e-05 -0.003497716
0.0044281306 0.00082000007 -0.0022981381
0.0032516106 0.00019787229 -0.0038571632
-0.00024017257 0.0011040539 -0.004313644
-0.00023868227 0.0012000006 -0.0048120124
-0.0048523238 -0.0012070178 0.0016987026
-0.00024555097 -0.00028909068 -0.0033250498
-0.0048529212 -0.0012135596 0.0012023263
-0.0048345844 -0.0012338026 0.0001939442
0.004751273 -0.0011636366 -0.012294624
0.0052025514 -0.0011 -0.012750714
0.004749883 -0.0011521741 -0.012761849
0.0062625958 -0.00073695637 -0.010799497
0.0062579745 -0.00072352932 -0.011294971
0.0067261891 -0.00064054073 -0.010800553
0.006627135 -0.00059999997 -0.012294622
0.0062614866 -0.00076603756 -0.010287782
0.0066522374 -0.00062499993 -0.0087958546
0.0067403433 0.00017843131 -0.0078118858
0.0052213785 -0.0011 -0.0082960296
0.0057736416 -0.00079999998 -0.0087958565
0.0057652723 -0.00079166668 -0.0082960278
-0.0037654177 -0.0016999993 -0.0062967334
-0.0037654166 -0.0016999996 -0.0057969056
0.0017206816 -0.0011363636 -0.0048517846
0.00073377311 -0.0012153847 -0.0048203296
-0.00027780412 -0.0016533332 -0.0053281826
-0.00025374166 -0.0016986482 -0.0057996078
-0.0017571957 -0.0016846148 -0.0048203296
-0.0012300364 -0.0015999997 -0.0044223908
-0.0012749389 -0.0011999999 -0.0038145049
0.0037654152 -0.00125 -0.0092956787
0.0042522945 -0.0012255814 -0.0098024746
0.0037568912 -0.0012641515 -0.0098011596
-0.003722385 -0.0016285714 -0.010795153
-0.007169832 -0.00025714288 -0.010301677
-0.0067287697 -0.00064634171 -0.011282784
-0.0066271345 0.00052857149 -0.012730184
-0.0042537791 -0.0012727277 -0.011794806
-0.0052450625 -0.0011622644 -0.011294971
-0.0070957192 0.00053333334 -0.0099287881
-0.0067463731 0.00061875 -0.010295329
-0.0067397151 0.00059545465 -0.0098151946
-0.0022075234 -0.00023636362 -0.0034553055
-0.0032534311 -0.00029999981 -0.0038624215
-0.0032475668 0.0001910112 -0.0038560173
-0.0052151922 0.00014246572 -0.0053491215
-0.0056459974 -0.00078474579 -0.0058121551
-0.0042537809 -0.0012727277 -0.0087958546
-0.00074103393 0.0010599999 -0.0043254239
-0.0051520467 -0.00046666671 -0.0022838577
-0.0051891035 -0.00047142865 -0.0032977858
-0.0052063176 0.00055999996 -0.0058468902
-0.0048532039 -0.00046666674 -0.0017983131
-0.003737885 0.00011290321 -0.003847593
-0.0027435115 0.00062151911 -0.0043303347
-0.003235589 0.00056808512 -0.0043569878
-0.0036650065 0.00052000006 -0.0044473819
-0.0032564702 0.00065784308 -0.0048119603
-0.0037462208 0.00059558835 -0.0048251902
0.0017490539 -0.00029324309 -0.0033977511
0.0027586173 -0.00077946408 -0.0048160031
0.0032616721 -0.001290757 -0.01278436
0.0032633597 -0.0013000002 -0.012294628
-0.0017528295 -0.001156522 -0.015250106
0.00025102802 0.0012500009 -0.013794098
0.00075308268 0.0012500003 -0.013794098
0.00024890658 0.001235916 -0.014284772
0.00075380004 0.0012321438 -0.014283928
0.0032415329 0.0010543475 -0.015254451
0.0032524085 0.00067636371 -0.015776126
-0.0041963495 -0.00064583321 -0.015689267
-0.0062640705 -0.0007431577 -0.0092998846
-0.0067321109 0.00057272729 -0.0092956778
-0.0057306066 0.0010285715 -0.0092956768
-0.0062707164 0.00069338834 -0.0098004583
-0.0062625958 0.00068260863 -0.0092956759
-0.0027573679 0.0010627449 -0.015252407
-0.0022472003 0.0012048003 -0.014281932
-0.0027507979 0.0011255817 -0.014782121
-0.00023277127 6.3636362e-05 -0.01759276
0.0007530835 0.0015999996 -0.013194307
0.00025102781 0.0015999996 -0.013194307
0.00025102781 0.0012000005 -0.014793742
0.0007530835 0.0015999998 -0.012794449
0.0037113505 0.00054615387 -0.016189406
-0.0032371681 0.00058043475 -0.016210644
-0.0017525463 -0.00077222206 -0.01627193
-0.0037632801 0.0011414894 -0.013781336
-0.0047533712 0.0011275861 -0.011797099
-0.0052599991 0.001061538 -0.011810183
-0.0057614683 0.0010242425 -0.011831149
-0.0052492726 0.001044444 -0.012294622
-0.0047558933 0.0011148149 -0.012292152
-0.004256316 0.0012222226 -0.011794806
-0.0062431293 0.00061081082 -0.012778234
-0.0056983321 0.001 -0.012769457
-0.0057422607 0.0010218751 -0.011279354
-0.0062707136 0.00069338846 -0.010790192
-0.006749256 0.00060675683 -0.010782991
-0.0062541133 0.00067009329 -0.012292755
-0.0062587704 -0.00073146052 -0.011792555
0.0017571957 0.0016749996 -0.0048222523
0.0012565333 0.0012402784 -0.0043057664
0.0032826716 0.0016384614 -0.0039052656
0.0043895957 0.001222973 -0.0027898573
0.0043804366 0.0012250001 -0.0017983136
0.0051265457 0.00039999999 -0.0027646404
0.0032633613 0.0016999996 -0.0047972617
0.0027613062 0.0016999996 -0.0047972607
0.00075308292 0.0016999996 -0.0057969061
0.0012551395 0.0016999996 -0.0057969061
0.00028449815 0.0016358977 -0.0053022094
0.005612982 0.00082000002 -0.0017983131
-0.0052232402 0.00058333325 -0.014753021
-0.0036148007 0.001 -0.015193604
-0.004249006 0.00063563214 -0.015267146
-0.0007530835 0.0015999998 -0.012294624
0.00025102781 -0.0016636358 -0.010776975
-0.00025102778 -0.0016636358 -0.01129497
-0.00025102778 -0.001663636 -0.010776978
0.0027613055 0.0016285714 -0.0097755073
0.003248486 0.0016074074 -0.0097917998
0.0052276552 0.0010583331 -0.0078066182
0.0051906984 0.0010527777 -0.0073297024
0.0046021771 0.0016333334 -0.0065966267
0.0027613055 0.0016499996 -0.01079515
0.00225925 0.0016499995 -0.010795152
0.0037453352 0.001703333 -0.0067549059
0.0047538816 0.0017103894 -0.0057774312
0.0041469797 0.0015999998 -0.011234997
0.0035645955 0.0015999998 -0.011794799
0.0047560818 0.001176786 -0.009796394
0.0047560814 0.0011767858 -0.010296219
0.0027613055 0.0016499995 -0.0077962051
0.002761306 0.0016999996 -0.0072963792
0.0027613055 0.0015999998 -0.012794448
0.0027613058 0.0015999998 -0.012294621
0.0032397355 0.0016264706 -0.011294974
0.006754579 0.00058461545 -0.0092956768
0.0060748737 0.001 -0.0092956778
0.0060748737 0.001 -0.0089957835
0.0062300549 -0.00067272742 -0.0082960315
0.0052260864 -0.00069687504 -0.0063154777
0.0057548117 -0.00071749993 -0.0073151225
0.0051944852 -0.000225 -0.0053613461
0.0037796053 0.0002032608 -0.0038606306
0.00441809 0.00039999999 -0.003497716
0.0012128608 -0.0016210523 -0.0058074309
0.00073668966 -0.0016571427 -0.0058213891
0.0037431042 -0.0011444447 -0.0062967325
-0.0027613053 -0.0016499996 -0.011294972
-0.003112745 -0.0016 -0.012594518
-0.0032572486 -0.0012843482 -0.013280361
0.0022508821 -0.0016479166 -0.010289079
0.0047512725 -0.0011636366 -0.011294973
0.004751273 -0.0011636368 -0.010795151
-0.0017530968 -0.001648979 -0.010297366
-0.0017516172 -0.0017166665 -0.0067576808
-0.0012551392 -0.0015999998 -0.012794448
-0.0012551395 -0.0016636358 -0.011285883
-0.00074667402 -0.0016468083 -0.011782039
-0.0037152127 -0.0015999995 -0.0082960287
-0.003263362 -0.0016444443 -0.010306434
-0.003248486 -0.0016074074 -0.0093067847
-0.0032633618 -0.0015999998 -0.0087958537
-0.00225925 -0.0016499995 -0.010795152
-0.0022592507 -0.0015999998 -0.012294623
0.0027499567 -0.0012843483 -0.013785404
0.0027369643 -0.0011878787 -0.014289372
0.0017571949 -0.0015999998 -0.012794446
0.0022461535 -0.0015999997 -0.012777061
0.0007530835 -0.0015999998 -0.012794449
-0.00025102781 -0.0015999996 -0.013194307
-0.0002510279 -0.00125 -0.014793742
0.00025102793 -0.0013000007 -0.013794098
0.00025102784 -0.0015999998 -0.012794448
0.0017451892 -0.00074891298 -0.016260624
0.0017069891 -0.0011 -0.01569343
0.001754716 -0.0012160492 -0.014778936
0.0017498247 -0.0012706425 -0.014286585
0.0022592498 -0.0013000006 -0.013794092
0.0062219882 -0.00066046539 -0.0078380518
0.005755479 -0.00074255298 -0.0078025884
0.0042549213 -0.0012125 -0.0082960296
0.0037654161 -0.0012333335 -0.0078128651
0.0037654163 -0.00125 -0.0082960259
0.0056062872 0.00077333354 -0.0048239161
0.0051931399 0.00026249999 -0.004847242
0.0051460699 0.00037499992 -0.0042974348
0.004201489 -0.00015428569 -0.0043631252
0.0047067711 0.00166 -0.0062442506
0.0051644794 0.0016633333 -0.0057335966
0.0062042498 0.0005903847 -0.0073309834
0.0062396508 0.00061794871 -0.0078013311
0.0042549209 -0.0012124999 -0.0092956787
-0.0012551392 0.001 -0.016193252
0.00027111001 0.001 -0.016199917
-0.00025102781 0.0015999996 -0.013194307
0.0027613058 0.0010749998 -0.015268583
0.0027545369 0.0011314609 -0.014779142
0.0022369369 0.0016 -0.013138772
0.0022559578 0.0010786882 -0.015265711
0.0022571583 0.0011437498 -0.014785413
0.0022592498 0.0012500007 -0.013794094
0.001732092 0.0015999997 -0.013169316
0.001757195 0.0012500009 -0.013794093
-0.00075308338 0.00050000002 -0.01714292
-0.0002541334 0.00065051555 -0.016769331
0.0055999542 0.0012162165 -0.00084729586
0.004251407 0.00066100003 -0.015268578
0.0041747857 0.0010153848 -0.014686089
0.0048307972 0.00079491525 -0.00034458749
0.0051397942 0.00088125002 0.00071330369
0.0052452488 -0.00068032811 -0.014279167
0.0046858531 -0.0011 -0.013694131
0.0061796508 -0.00062173902 -0.013281234
0.0057587614 -0.00077129609 -0.012783336
0.0037654173 -0.0012000001 -0.013294277
0.0042531267 -0.0011985715 -0.012771592
0.0032527929 -0.0012421054 -0.013294273
0.0037541029 0.0010943663 -0.0142911
0.0022592503 -0.0011285715 -0.015250728
0.0032339729 -0.0011390246 -0.014308547
0.0037654173 0.0012000006 -0.013294271
0.0012300366 -0.00067083357 -0.016732641
-0.00025102784 -0.0011 -0.015793394
0.00025102778 -0.00125 -0.014793742
-0.0012497115 0.0011792795 -0.014773928
-0.0027511641 -0.0012565658 -0.014269685
-0.0032399786 -0.0012054795 -0.014274746
-0.0012551392 -0.0012916675 -0.014293923
-0.0017589559 -0.0012807024 -0.014280769
-0.0012551387 -0.0013000007 -0.013794103
-0.0017571943 -0.0013000007 -0.013794095
-0.0022592505 -0.0013000006 -0.013794094
-0.00074994506 -0.001246875 -0.014785415
-0.0032633618 0.0015999998 -0.012144675
-0.0012010717 0.0016461539 -0.0072810017
-0.00073946803 0.001672881 -0.0068101101
0.0042780424 0.0017421051 -0.0052970825
0.0032633615 0.0016999996 -0.0057969051
0.0027613065 0.0016999996 -0.0062967348
0.0027613062 0.0016999996 -0.0057969037
0.0017539036 0.0017098357 -0.0067621428
0.0012551395 0.0016904759 -0.0078247664
0.0017631905 0.0016999994 -0.0078141084
0.0012551395 0.0016928567 -0.0082817487
0.0017508205 0.0016825392 -0.0082722297
-0.00075308303 0.0016499996 -0.0097955009
-0.00025102778 0.0016499995 -0.0097955009
-0.00075308338 0.0016285714 -0.0093385177
-0.0012551392 0.0016166667 -0.0093289996
-0.0017571953 0.0016499996 -0.010795152
-0.0012551396 0.0016499993 -0.010295327
-0.0012551394 0.0016499995 -0.01079515
-0.00025102787 0.0016285713 -0.0093385195
0.00025102787 0.0016285713 -0.0093385186
-0.00025102781 0.0016928565 -0.0082817487
-0.0052448092 0.0011066663 -0.0092956759
-0.0057306057 0.0010285714 -0.0097955018
-0.0062756948 0.00069999998 -0.01029533
-0.003248486 0.0016074075 -0.0097917989
-0.0041845255 0.00054782612 -0.0049015693
-0.0050908448 5.9999998e-05 -0.0049771955
-0.0056230235 -0.0011 -0.0079961345
-0.0051952712 -0.0011199999 -0.0078121992
-0.00020082225 0.0015999995 -0.0052970834
-0.001606578 0.0015999998 -0.0062967325
-0.0012195094 0.0016193547 -0.0063031814
-0.0036449239 0.001 -0.0054570273
-0.0032405416 0.001090909 -0.0058150813
-0.0022533438 0.0010294118 -0.0048472411
0.00025374166 0.0016986482 -0.006295383
0.00025102781 0.0016999996 -0.0067965579
-0.00274821 0.0011826088 -0.0062967339
-0.0022480935 0.0012222223 -0.0062967343
-0.0027535842 0.001213847 -0.0068080872
-0.0042455876 0.00061923085 -0.0053265607
-0.0047272504 0.00012763153 -0.0048314589
-0.0047695292 0.0010499996 -0.0072963792
-0.0047527924 -0.0012333331 -0.010295328
-0.004751808 -0.0012235291 -0.009295675
-0.0037626019 0.0011682245 -0.0078092851
-0.0045687067 0.001 -0.0063467147
0.0049064527 0.00039999996 -0.0012803134
0.004920145 0.00039999996 -0.0017983136
0.0051711728 0.0003999999 -0.0017983136
0.0051209675 0.00039999999 -0.00094861165
-0.0008098376 -0.0016260868 -0.0048754914
0.0042549213 -0.0012125 -0.012294625
0.0052213785 -0.0011 -0.012294623
0.0067222603 -0.00064210547 -0.011276559
0.0056230235 -0.0011 -0.010295326
0.0052476781 -0.0011404766 -0.010281047
0.0066731554 -0.00062916655 -0.0093206679
-0.0027613058 -0.0016999996 -0.0047972607
-0.0017571958 -0.0016999996 -0.0052970834
-0.0012551396 -0.0016999996 -0.0057969056
-0.00075308303 -0.0016999996 -0.0057969051
-0.0032633618 -0.0016999996 -0.0062967334
-0.0037569311 -0.0016943658 -0.0067881094
0.0012343647 -0.0011775864 -0.0048282836
0.00023640486 -0.0012631069 -0.00481473
-0.00073755544 0.0011515465 -0.0048158122
0.0022609516 -0.0011745762 -0.0053224983
0.0027497204 -0.0012115384 -0.0058084405
0.0032527924 -0.0012421054 -0.0072963801
0.0032633608 -0.0013000007 -0.0092956768
0.003765417 -0.00125 -0.0087958537
-0.0071886471 0.0001723684 -0.010297962
-0.0066706445 0.00015833328 -0.013252627
-0.0032633618 -0.0016999996 -0.0052970825
-0.0027613065 -0.0016999993 -0.0052970839
