# .PCD v0.7 - Point Cloud Data file format
VERSION 0.7
FIELDS x y z
SIZE 4 4 4
TYPE F F F
COUNT 1 1 1
WIDTH 1186
HEIGHT 1
VIEWPOINT 0 0 0 1 0 0 0
POINTS 1186
DATA ascii
-0.001771091 0.0042399038 -0.00027872156
-0.012748288 0.0045474921 -0.0061948057
-0.013211862 0.0045474921 -0.0061948057
-0.013211862 0.0045474921 -0.0067402609
-0.010739468 0.0045474921 -0.0086103901
-0.01120304 0.0032930118 -0.0086883111
-0.011203042 0.0045474921 -0.0086103901
-0.01475711 0.0045474921 -0.0082207788
-0.014757111 0.0045474921 -0.0086103901
-0.015220685 0.0045474921 -0.0082207788
-0.015220686 0.0045474921 -0.0086103892
-0.0137527 0.0045474921 -0.0077532465
-0.013211863 0.0045474921 -0.0077532465
-0.013211862 0.0045474921 -0.0072857141
-0.011203042 0.0045474921 -0.0057272725
-0.011743878 0.0045474921 -0.0052597411
-0.010739468 0.0045474921 -0.0047922088
-0.0097350562 0.0045474921 -0.0057272734
-0.01174388 0.0045474921 -0.0072857141
-0.011203042 0.0045474921 -0.0082207788
-0.012748288 0.0045474921 -0.0077532465
-0.015220685 0.0045474921 -0.0077532465
-0.016302358 0.0045474926 -0.0085324673
-0.015761523 0.0045474921 -0.0077532465
-0.01630236 0.0045474921 -0.0082207797
-0.010739468 0.0045474921 -0.0057272725
-0.010275894 0.0045474921 -0.0052597411
-0.01475711 0.0045474921 -0.0032337664
-0.01475711 0.0045474921 -0.0037012992
-0.014757111 0.0045474921 -0.0042467532
-0.015220686 0.0045474921 -0.0067402609
-0.015761523 0.0045474921 -0.0072857141
-0.0197019 0.0042338721 -0.0057272734
-0.01475711 0.0045474921 -0.0061948057
-0.014293537 0.0045474921 -0.0052597406
-0.01475711 0.0045474921 -0.0057272734
-0.014293537 0.0045474921 -0.0057272734
-0.014757111 0.0045474921 -0.0067402609
-0.015761523 0.0045474921 -0.0057272729
-0.014293537 0.0045474921 -0.0037012985
-0.015761523 0.0045474921 -0.0037012994
-0.016920457 0.0045474926 -0.003701299
-0.016788006 0.0045474921 -0.0048367353
-0.0027041824 -0.0045474921 -0.0082207797
-0.0032536034 -0.0042164489 -0.0086363629
-0.0027041824 -0.0042181909 -0.0086337663
0.0067218249 -0.0003136202 -0.0086883111
0.0057946751 -0.0012544803 -0.0086883111
0.005794676 -0.00078405038 -0.0086883111
0.0052538407 0.0045474921 -0.0017532469
0.0067218253 0.0045474921 -0.0012077924
0.0052538402 0.0045474921 -0.00074025989
0.0052538402 0.0045474921 -0.0012077924
0.0037858556 0.0045474921 -0.0012077924
0.0042494298 0.0045474921 -0.0022987016
0.0032450189 0.0045474921 -0.0017532469
0.0032450191 0.0045474921 -0.00074025989
0.004713004 0.0045474921 -0.00074025989
0.004713004 0.0045474921 -0.0012077924
0.0042494293 0.0045474921 -0.0012077924
0.0042494298 0.0045474921 -0.00035064947
0.0062582507 0.0042338725 -0.00035064947
-0.00069536123 0.0045474921 -0.0042467532
-0.00023178699 0.0045474921 -0.0042467532
0.00023178704 0.0045474921 -0.0042467532
-0.00069536135 0.0045474921 -0.0027662339
-0.00069536135 0.0045474921 -0.0037012992
0.0017770344 0.0045474921 -0.0012077924
0.00023178715 0.0045474921 -0.0022987013
0.00069536123 0.0045474921 -0.0022987013
0.008267073 0.0045474921 -0.0067402609
0.0087306472 0.0045474921 -0.0067402609
0.008267073 0.0045474921 -0.0072857141
0.015761523 0.0045474921 -0.0072857141
0.01676593 0.0042338725 -0.0067402599
0.015220685 0.0045474921 -0.0072857141
0.01475711 0.0045474921 -0.0072857141
0.016302355 0.0042338725 -0.0082207797
0.018767728 0.0042124889 -0.008652892
0.017693076 0.0042338721 -0.0042467536
0.017693074 0.0042338725 -0.0037012994
0.019547375 0.0042338725 -0.0072857141
0.018774755 0.0027441762 -0.008688313
0.019682584 0.0032799449 -0.0086948043
0.020088213 0.002195341 -0.0082207778
-0.017229507 0.0045474921 -0.0022987016
-0.019238329 0.0042338716 -0.0042467536
-0.020121325 0.0037634422 -0.0027662339
-0.020151429 0.0032787567 -0.0042538377
-0.020146159 0.0032734107 -0.0032337666
-0.020165477 0.0027441762 -0.0037012987
-0.020165477 0.0021953413 -0.0037012994
-0.020146159 0.003273411 -0.0037012994
-0.020165477 0.0017249108 -0.0037012994
-0.020165479 0.0021953408 -0.0042467536
-0.020165475 0.0017249109 -0.0027662341
-0.020165477 0.0027441762 -0.001207792
-0.020165477 0.0021953413 -0.00074025989
-0.020165475 0.0027441762 -0.0022987009
-0.020151431 0.003278757 -0.0017603312
-0.020146159 0.0032734107 -0.0022987018
-0.020165477 0.0027441762 -0.0061948057
-0.020165475 0.00078405044 -0.0057272734
-0.020165477 0.0027441762 -0.0052597406
-0.020049581 -0.00031362014 -0.0082597388
-0.02007276 -0.001756273 -0.0072857141
-0.02013457 -0.001262321 -0.0086493511
-0.019695956 -0.0012605115 -0.0086823171
-0.020157343 -0.0021870881 -0.0086226929
-0.020083668 -0.001734135 -0.0082299458
-0.016765932 0.003293012 -0.00035064947
-0.016302358 0.0037634419 -0.00035064947
0.017229507 0.0042338725 -0.006740259
0.017229505 0.0042338721 -0.0061948067
0.011743878 0.0045474921 -0.0082207778
0.012284715 0.0045474921 -0.0082207788
0.012262641 0.0045474921 -0.0086437855
0.010739468 0.0045474921 -0.0067402609
0.010275894 0.0045474921 -0.0072857141
0.010739468 0.0045474921 -0.0072857141
0.011203042 0.0045474921 -0.0072857141
0.01174388 0.0045474921 -0.0057272725
0.0097350562 0.0045474921 -0.0077532465
0.010275894 0.0045474921 -0.0082207788
0.0097350562 0.0045474921 -0.0072857141
0.0091942204 0.0045474921 -0.0057272725
0.0097350581 0.0045474921 -0.0067402609
0.0091942204 0.0045474921 -0.0067402609
0.0074049877 0.0012544806 0.002212577
0.0074049868 0.0012544806 0.0017532464
0.0074429405 0.0016203708 0.0017532464
0.002601166 0.0012893274 0.0026017311
0.0026269201 0.0012544806 0.0022207792
0.019238329 0.0042338725 -0.0042467546
0.01877475 0.0042338721 -0.0057272725
0.017693076 0.0042338721 -0.00035064947
0.017693076 0.003755189 -0.00033834623
0.017229507 0.0037634422 -0.00035064947
0.016302358 0.0042338725 -0.00035064947
0.016765932 0.0042338725 -0.00035064947
0.017229505 0.0042338721 -0.00074025989
0.01243924 0.0015681009 0.0022207792
0.012717382 0.0016308249 0.0022207792
-0.0012361978 0.0045474921 -0.00027272757
0.0012361977 0.0045474921 -0.00030389614
0.00021247141 0.0045474921 -0.00029220805
0.0137527 0.0045474921 -0.00035064947
0.013752703 0.0042338721 -0.00035064947
0.012748287 0.0042338725 -0.00035064947
0.012748289 0.0045474921 -0.00035064947
0.012284715 0.0045474921 -0.00035064947
0.019238325 0.0042338725 -0.00074025989
0.018774752 0.0042338725 -0.00035064947
0.019238327 0.0042338725 -0.00035064947
0.019238325 0.0037634422 -0.00035064947
0.018774752 0.0037634419 -0.00035064947
0.018233912 0.0042338721 -0.00035064947
0.0078034988 0.0045474921 -0.0086103901
0.0078034988 0.0042114714 -0.0086437846
0.01522068 0.0037634419 -0.0086883111
0.0097350562 0.0045474921 -0.0082207778
0.0091942204 0.0045474921 -0.0077532465
0.0097350571 0.0045474921 -0.0086103901
0.008267073 0.0045474921 -0.0082207788
0.0087306462 0.0045474921 -0.0086103901
0.0091942213 0.0045474921 -0.0086103901
0.0091942223 0.004214271 -0.0086688315
0.009742084 0.0042196163 -0.0086741447
0.010275897 0.0042338721 -0.0086883102
0.011203042 0.0045474921 -0.008688312
0.008267072 0.0045474921 -0.0086103901
-0.0037549506 0.0045474926 -0.0085948054
-0.0032450191 0.0045474921 -0.0086103901
0.0097350609 0.0027441762 -0.0086883111
0.0097489282 0.0017289319 -0.008712288
0.0091942232 0.0027441762 -0.0086883092
0.0091942223 0.0021953413 -0.0086883111
0.0072626621 0.002195341 -0.0086883102
0.0082670739 0.0037634426 -0.0086883102
0.008730649 0.0037634419 -0.008688312
0.0091942223 0.0037634422 -0.0086883111
0.0097350599 0.0037634422 -0.008688312
0.0091942232 0.003293012 -0.0086883111
-0.0097350571 0.0045474921 -0.0017532469
-0.011743878 0.0045474921 -0.0017532469
-0.013211862 0.0045474921 -0.0022987016
-0.01243924 -0.001568101 0.0012857141
-0.012671025 -0.0015681011 0.00074025942
-0.01243924 -0.0012544807 0.0012857141
-0.010198631 -0.0015681009 0.0025324672
-0.01243924 -0.0015681009 0.0021428573
-0.002317871 -0.0012544807 0.0017532464
-0.0023333235 -0.001568101 0.0021896102
-0.0026269206 -0.0012544806 0.0022207792
0.0001158935 0.0012544804 0.00074025942
7.7262404e-05 0.00094086048 0.00074025942
0.00013907229 0.0009408606 0.0012857141
0.00013244983 0.0012320791 0.0012857141
-0.0023333232 0.0012231186 0.0017532464
-0.0023951333 0.00094086048 0.0012857141
-0.0023951333 0.0015681009 0.0012857141
-0.0026269201 0.00094086054 0.0012857141
-0.00015452477 0.0012544806 0.0022207792
-0.00013669494 0.0012665429 0.0026523471
0.0023436248 0.0016203708 0.0022207792
0.0025496578 0.0016465059 0.0022207792
0.001771091 0.0042278408 -0.00027872156
0.0023475871 -0.0012303561 0.0017292704
0.0023333232 -0.0012231186 0.0012857141
0.00015452466 -0.001568101 0.0022207792
0.0026269201 -0.001568101 0.0022207792
0.0017770345 -0.0045474921 -0.00027272757
0.0022406084 -0.0045474921 -0.00074025989
0.0037858556 -0.0042260317 -0.00032727281
0.0048675281 -0.0012544807 0.0022207792
0.0050220536 -0.0009408606 0.0025324672
0.0048675286 -0.00094086048 0.0022207792
0.0026269201 -0.001568101 0.0012857141
0.0026848672 -0.0012348791 0.0012857141
0.0026848672 -0.0012348791 0.0017532464
0.0026269201 -0.00094086054 0.0017532464
0.0026269201 -0.0009408606 0.0012857141
0.017229505 0.0037634426 -0.0086883111
0.017229507 0.0027441764 -0.0086883111
0.01676593 0.0027441762 -0.0086883111
0.017229505 0.0021953413 -0.0086883111
0.01676593 0.003293012 -0.0086883111
0.016302355 0.0027441764 -0.0086883111
0.019238327 -0.0021953413 -0.0086103892
0.019232143 -0.0027535849 -0.0086197397
0.020110937 -0.00074715406 -0.0086791441
0.020088213 -0.0012544807 -0.0085324673
0.020088213 -0.001724911 -0.0085324673
0.018774752 -0.003293012 -0.0086103901
0.019238325 -0.003293012 -0.0086103901
0.018233914 -0.002744176 -0.0086103892
0.017693074 0.0012544804 -0.0086883111
0.0067218249 -0.0017249108 -0.0086883111
0.0062582497 -0.0017249109 -0.0086883111
0.0032450187 -0.0032930123 -0.0086883111
0.0032450187 -0.0037634419 -0.0086883111
0.0037858558 -0.0032930118 -0.0086883102
0.005794676 -0.003293012 -0.0086883111
0.0057946774 -0.0045474921 -0.0086103901
0.0062582497 -0.0032930118 -0.0086883111
0.020088213 0.0042338725 -0.0012077922
0.019701906 0.0042338721 -0.0017532473
0.0197019 -0.0041890698 -0.0023209653
0.020165475 0.0012544804 -0.00074025989
0.020165475 0.00023521515 -0.00035064947
0.0197019 0.00023521503 -0.00035064947
0.020165475 -0.0008624554 -0.0037012992
0.020165475 0.0017249109 -0.0037012994
0.020165479 0.0027441764 -0.0042467541
0.020165477 0.0012544804 -0.0037012994
-0.0197019 0.0042338725 -0.00035064947
-0.020165475 0.0027441767 -0.00035064947
-0.017693076 0.0042338725 -0.00035064947
-0.017693076 0.0037634422 -0.00035064947
-0.017229507 0.003293012 -0.00035064947
-0.017229505 0.0027441767 -0.00035064947
-0.020165475 -0.00031362011 -0.00074025989
-0.020165475 -0.00031362014 -0.00035064947
-0.012748288 0.0012544807 0.0025324672
0.010275894 -0.00094086054 0.00074025942
0.013057337 0.0012544807 0.00074025942
0.012748287 0.00094086054 0.00074025942
0.012748288 0.00094086054 0.0012857141
0.010198631 0.0009408606 0.0021428573
0.010275894 0.0045474921 -0.00035064947
0.0097350571 0.0045474921 -0.00035064947
0.0078034988 0.0045474921 -0.00074025989
0.011203042 0.0045474921 -0.0032337664
0.010275894 0.0045474921 -0.0027662341
0.010739468 0.0045474921 -0.0037012985
0.011203042 0.0045474921 -0.0022987018
0.010739468 0.0045474921 -0.0012077922
0.012284715 0.0045474921 -0.0012077924
0.012284716 0.0045474921 -0.0017532469
0.012748288 0.0045474921 -0.0012077924
0.0087306462 0.0045474921 -0.0012077924
0.0087306472 0.0045474921 -0.0017532469
0.0091942213 0.0045474921 -0.0012077924
0.0087306481 0.0037634422 -0.00035064947
0.0082608927 0.0032804671 -0.00028519519
0.0087229218 0.0032851715 -0.00032727281
0.020165477 -0.003293012 -0.0077532465
0.020165477 -0.002195341 -0.0072857151
0.020165477 -0.0021953408 -0.0082207797
0.020121325 -0.001724911 -0.008243043
0.020088213 -0.0017249108 -0.0077532465
0.0197019 -0.0012544806 -0.0086103883
0.019222872 -0.0012544806 -0.0086337673
0.020165477 -0.00031362017 -0.0057272734
0.020165477 -0.00078405056 -0.0057272734
0.020165477 -0.00031362008 -0.0061948067
0.020165481 0.00023521515 -0.0061948057
0.020165475 -0.00082885346 -0.0052820025
0.020165477 -0.0021953413 -0.0037012994
0.020165477 -0.0021953413 -0.0032337669
0.020165475 -0.002195341 -0.0027662341
0.020165475 -0.002744176 -0.0027662348
0.020165477 -0.003293012 -0.0027662341
0.020165475 -0.00078405038 -0.0022987018
0.020165475 -0.00080365181 -0.0027467534
0.020165475 -0.0012544804 -0.0032337669
0.020165475 -0.00086245552 -0.0032337666
-0.01475711 -0.0045474921 -0.0072857141
-0.014757111 -0.0045474921 -0.0067402609
-0.014293537 -0.0045474921 -0.0072857141
-0.014139012 -0.0045474926 -0.0075974027
-0.014216274 -0.0045474926 -0.0083766235
0.01800213 -0.0045474926 -0.00074025989
-0.0027234983 -0.0045474921 -0.00029220805
-0.0027041819 -0.0042338721 -0.00027272757
-0.004713004 -0.0045474921 -0.00035064947
-0.0042273561 -0.0042338721 -0.00031725457
0.0037858556 -0.0045474921 -0.00074025989
-0.0042494303 -0.0045474921 -0.0022987016
-0.0037858556 -0.0045474921 -0.0022987016
-0.0037858556 -0.0045474921 -0.0027662336
-0.0037858556 -0.0045474921 -0.00074025989
-0.0037858558 -0.0045474921 -0.00035064947
-0.0037858558 -0.0045474921 -0.0017532469
-0.0027041826 -0.0045474921 -0.0022987013
-0.0048675286 -0.0015681009 0.0022207792
-0.0048675286 -0.0015681009 0.0017532464
-0.004805719 -0.0012231185 0.0017532464
-0.0072626621 -0.0045474921 -0.00074025989
-0.0078034983 -0.0045474921 -0.00035064947
-0.0067218249 -0.0045474921 -0.00035064947
-0.0078034988 -0.0045474921 -0.00074025989
-0.0091942204 -0.0045474921 -0.00035064947
-0.008267072 -0.0045474921 -0.00035064947
-0.0042494303 -0.0042181914 -0.0086337654
-0.004700128 -0.0037569085 -0.0086688315
-0.0047130045 -0.0042338725 -0.0086103892
-0.004713004 -0.0045474921 -0.0086103901
-0.01174388 -0.0045474921 -0.0086571444
-0.012284715 -0.0045474926 -0.0075974036
-0.012284715 -0.0045474921 -0.0086103901
-0.013520913 -0.0045474926 -0.0086103901
-0.012284715 -0.0045474921 -0.0082987016
-0.012748289 -0.0045474921 -0.0086103901
0.0027041819 -0.0037634422 -0.0086883111
0.0027041826 -0.0045474921 -0.0086103892
-0.0052538402 -0.0045474921 -0.0032337662
-0.0057946774 -0.0045474921 -0.0027662339
-0.0032450187 -0.0045474921 -0.0027662343
-0.0037858556 -0.0045474921 -0.0037012987
-0.0032450191 -0.0045474921 -0.0032337664
-0.0027041826 -0.0045474921 -0.0027662341
-0.0052538402 -0.0045474921 -0.0086103901
-0.0042494307 -0.0037634419 -0.008682318
-0.00579909 -0.0027374558 -0.0086838575
-0.0052472167 -0.0032974924 -0.0086838566
-0.005794676 -0.0032930118 -0.0086883102
-0.0052481852 -0.0027499129 -0.0086617032
-0.0052445685 -0.0042338725 -0.0086197415
-0.0052657272 -0.0037513797 -0.0086283721
-0.0047130045 -0.0045474921 -0.0082207788
-0.0052538402 -0.0045474921 -0.0082207778
0.015761523 -0.0045474921 -0.00074025989
0.015220685 -0.0045474921 -0.00074025989
0.01630236 -0.0045474921 -0.0012077924
0.017229507 -0.0045474921 -0.0022987016
0.016765932 -0.0045474921 -0.0027662339
0.0197019 -0.0042142714 -0.0032142859
0.01800213 -0.0045474926 -0.003701299
0.016765932 -0.0045474921 -0.0037012987
0.016765933 -0.0045474921 -0.0042467532
0.017693078 -0.0045474921 -0.0017532469
0.017229507 -0.00031362008 -0.00035064947
0.017693076 -0.00031362017 -0.00035064947
0.017693074 0.00023521506 -0.00035064947
0.01877475 -0.0042338721 -0.0012077922
0.018774755 -0.0042338725 -0.0017532471
0.0197019 -0.0032930118 -0.00035064947
0.019238325 -0.0027441764 -0.00035064947
0.01769308 -0.0045474921 -0.00035064947
0.01522068 -0.0012544804 0.0017532469
0.018774752 -0.0032930118 -0.00035064947
0.0197019 0.0027441764 -0.00035064947
0.013057338 0.0012544806 0.0012857141
0.012748288 0.0009408606 0.0017532469
0.01243924 0.0012544807 0.0017532464
0.014911636 0.0013328856 0.0017532464
0.018233914 0.0042338725 -0.0027662348
0.020088213 0.0042338725 -0.0022987016
0.015761523 0.0045474921 -0.0012077924
0.01676593 0.0042338721 -0.0012077924
0.017229505 0.0042338725 -0.0012077922
0.017693074 0.0042338725 -0.0012077922
0.019238325 0.0042338725 -0.0017532471
0.00069536123 -0.0045474921 -0.0032337664
0.00023178701 -0.0045474921 -0.0037012985
0.00069536123 -0.0045474921 -0.0037012987
0.008267072 -0.0045474921 -0.0047922083
0.0078034988 -0.0045474921 -0.0052597411
0.008267073 -0.0045474921 -0.0057272725
0.008267072 -0.0045474921 -0.0052597402
0.015220685 -0.0045474921 -0.0022987016
0.014293537 -0.0045474921 -0.0012077924
0.014293537 -0.0045474921 -0.0017532469
0.01800213 -0.0045474926 -0.0047922079
0.01877475 -0.0042338725 -0.0052597402
0.019238327 -0.0042338725 -0.0042467532
0.013211862 -0.0042338725 -0.0086103892
0.01321655 -0.0027275446 -0.0086741438
0.013752703 -0.0042338721 -0.0086103901
0.013211864 -0.0045474926 -0.0085324673
0.012902814 -0.0045474926 -0.0085324673
0.013211862 -0.0045474921 -0.0037012987
0.016765932 -0.0045474921 -0.0032337664
0.01769308 -0.0045474921 -0.0047922079
0.0072626621 -0.0045474921 -0.00035064947
0.0072626621 -0.0042338721 -0.00035064947
0.0067218249 -0.0042338725 -0.00035064947
0.0072626621 -0.0045474921 -0.00074025989
0.0062582516 -0.0045474921 -0.00035064947
0.0067218249 -0.0045474921 -0.00074025989
0.0012361978 -0.0045474921 -0.0012077922
0.0026269201 -0.0009408606 0.00074025942
-0.0012361974 -0.0042338721 -0.00027272757
-0.00069536123 -0.0045474921 -0.00027272757
-0.0012361977 -0.0045474921 -0.00027272757
-0.00069536123 -0.0045474921 -0.00074025989
0.0027041826 -0.0045474921 -0.00035064947
0.0027041826 -0.0045474921 -0.00074025989
0.018774752 0.0032930118 -0.00035064947
0.01877475 0.0027441762 -0.00035064947
0.018206498 0.003287954 -0.0002978635
0.019238325 0.002195341 -0.00035064947
0.015529734 0.0015681008 0.0022207792
0.017693076 0.00078405038 -0.00035064947
0.018233912 0.00078405038 -0.00035064947
0.015529734 0.0015681009 0.0017532464
0.017693076 0.0012544807 -0.00035064947
0.016765932 0.002195341 -0.00035064947
0.01676593 0.0027441762 -0.00035064947
0.016302358 0.002195341 -0.00035064947
0.020165477 0.002195341 -0.0012077922
0.012284714 -0.0042338725 -0.00035064947
0.012284713 -0.0037634422 -0.00035064947
0.0091864951 -0.0032773304 -0.00032727281
0.0091995504 -0.0027739161 -0.00031034509
0.009735059 -0.002195341 -0.00035064947
0.0091942213 -0.002195341 -0.00035064947
-0.0197019 -0.0032930123 -0.00035064947
-0.01877475 0.0042338725 -0.00074025989
-0.020165475 -0.0037634422 -0.0012077922
-0.0197019 -0.0042338721 -0.00074025989
-0.0197019 -0.0042338725 -0.0012077924
-0.01877475 -0.0042338721 -0.0012077922
-0.015529734 -0.0009408606 0.0012857141
-0.015529736 -0.0012544807 0.00074025942
-0.015529734 -0.00094086054 0.00074025942
-0.015529735 -0.0012544807 0.0022207792
-0.0022406084 0.0045474921 -0.0061948048
-0.0022406084 0.0045474921 -0.0057272725
-0.0022406087 0.0045474921 -0.0067402609
-0.0022406084 0.0045474921 -0.0042467532
-0.00023178711 0.0045474921 -0.0061948057
0.00023178707 0.0045474921 -0.0061948048
-0.0017770343 0.0045474921 -0.0052597402
-0.0012361978 0.0045474921 -0.0052597406
-0.00069536135 0.0045474921 -0.0052597402
-0.0012361978 0.0045474921 -0.0047922079
0.00023178713 0.0045474921 -0.0082207797
0.00023178701 0.0045474921 -0.0077532465
-0.0018126939 0.00422181 -0.0085804183
-0.0013443651 0.0041397861 -0.0085324673
-0.0019315589 0.0045474926 -0.0085324673
-0.001229174 0.0045474921 -0.0082066106
-0.0022406084 0.0042338721 -0.0086103901
-0.0027041826 0.0045474921 -0.0077532465
-0.00069536117 0.0045474921 -0.0077532465
-0.00069536123 0.0045474921 -0.0082207788
0.00069536123 0.0045474921 -0.0072857141
-0.00023178714 0.0045474921 -0.0072857141
0.011203042 0.0045474921 -0.0082207788
0.01174388 0.0045474921 -0.008688312
0.013211862 0.0045474921 -0.0086103901
0.0078034988 0.0045474921 -0.0027662341
0.0067218253 0.0045474921 -0.003701299
0.008267072 0.0045474921 -0.0037012987
0.0072626621 0.0045474921 -0.0022987016
0.0072626621 0.0045474921 -0.0017532469
0.0067218249 0.0045474921 -0.0022987013
0.008267073 0.0045474921 -0.0017532469
0.013211862 0.0045474921 -0.0057272725
0.011743877 0.0045474921 -0.0067402609
0.012748288 0.0045474921 -0.0061948048
0.0067218249 0.0045474921 -0.00035064947
0.0062582511 0.0045474921 -0.00074025989
0.00069536135 0.0045474921 -0.0082207788
0.0013714068 0.0041358657 -0.0085909097
0.00061809894 0.0036066319 -0.0085324673
0.00024723954 0.00326165 -0.0085636359
-0.00018027882 0.0032407418 -0.0085324673
0.0027247858 0.0021744333 -0.0085948054
0.0017770341 0.0021953413 -0.0085714282
0.0027331559 0.0017347115 -0.0086103901
0.0022516458 0.0017025097 -0.0085881259
0.0012284716 0.0017327515 -0.0085948054
0.0012225631 0.0027487886 -0.0085416334
0.0012104437 0.0032407418 -0.0085324673
0.0017770344 0.0027441764 -0.0085324664
-0.0050993157 0.00094086054 0.0022207792
-0.0051765782 0.0012320792 0.0025992575
-0.0048675281 0.0012544807 0.0022207792
-0.0032450191 0.0045474921 -0.0052597406
-0.0037858556 0.0045474921 -0.0047922088
-0.0037858556 0.0045474921 -0.0052597411
0.00023178713 -0.00094086042 -0.0042467536
-0.00023178711 -0.00094086048 -0.0037012985
-0.00023178711 -0.00094086054 -0.0042467536
0.00023178707 -0.00094086048 -0.0037012987
0.00023178713 -0.00094086054 -0.0047922079
0.00069536123 -0.0009408606 -0.0047922079
-0.0027041826 -0.00094086048 -0.0037012987
-0.0027041826 0.00094086054 -0.0037012987
0.00015452468 -0.0012544806 0.0012857141
0.00015452477 -0.0015681012 0.00074025942
0.00015452472 -0.0012544806 0.00074025942
-7.726239e-05 -0.0015681009 0.00074025942
-0.0012361974 -0.001724911 -0.00027272757
-0.00013907217 -0.0012231185 0.00074025942
-0.0012361975 -0.0012544804 -0.00027272757
0.00015452477 -0.00094086048 0.0022207792
0.00011589355 0.00094086048 0.0017532464
0.00015452466 -0.00094086048 0.0017532464
0.002317871 0.0012544806 0.0022207792
0.0023178712 0.0012544806 0.0017532464
0.00069536117 0.0042338721 -0.0082207788
-0.00069536123 0.0045474921 -0.0072857141
-0.00069536129 0.0045474921 -0.0067402609
0.00023178715 0.0045474921 -0.0057272725
-0.00069536117 0.0045474921 -0.0061948057
-0.0017770343 0.0045474921 -0.0067402609
-0.0027041826 0.0045474921 -0.0067402609
-0.001236198 -0.00094086048 -0.0037012994
-0.0012361979 0.00094086054 -0.003701299
-0.0022406084 0.00094086054 -0.0047922079
-0.020088213 -0.0021953415 -0.0077532465
-0.019238325 0.0012544804 -0.0086883111
-0.019238327 -0.001724911 -0.0086883111
-0.019701906 0.00023521506 -0.0086883111
-0.0197019 -0.00031362017 -0.0086883111
-0.0197019 -0.00078405038 -0.0086883111
-0.020143399 0.0012544806 -0.0086437855
-0.020088213 0.001724911 -0.0077532465
0.0022406087 -0.0003136202 -0.0086103911
0.0022487417 -0.00079230359 -0.0086226929
-0.00023178704 -0.00078405038 -0.0086103901
0.00023178704 -0.0007840505 -0.0086103892
-0.00069536123 -0.001724911 -0.0086103901
-0.00069536112 -0.0012544807 -0.0086103901
-0.0012361977 -0.00078405044 -0.0086103901
-0.00069536129 -0.0045474921 -0.0082207788
-0.0012361978 -0.0045474921 -0.0082207778
0.00023178707 -0.001724911 -0.0086103901
0.0027115408 -0.00079898461 -0.0086437846
0.0027041824 -0.00031362017 -0.0086103901
0.0027041824 0.00023521515 -0.0086103901
0.0032520425 0.00022808733 -0.0086174728
0.0038069272 0.0007911782 -0.0086528929
0.0037913746 0.00023521506 -0.0086437846
0.0032450187 0.0007840505 -0.0086103892
-0.0002317871 0.00078405038 -0.0086103911
0.00023178701 0.0012544804 -0.0086103901
-0.00023178708 0.0012544807 -0.0086103901
0.00069536117 -0.0003136202 -0.0086103892
0.0017770343 -0.0012544807 -0.0086103901
-0.0037858556 0.0045474921 -0.0057272725
-0.0042494298 0.0045474921 -0.0057272725
-0.0022406089 -0.0017249109 -0.0086883111
-0.0027041819 -0.0017249109 -0.0086883111
-0.0072626621 -0.0027441764 -0.008688312
-0.0072626621 -0.002195341 -0.0086883111
-0.0067218249 -0.002744176 -0.008688313
-0.005794676 0.0012544806 -0.0086883111
-0.0078034988 -0.002744176 -0.008688312
-0.0078034992 -0.0032930123 -0.0086883111
-0.0082670739 -0.0027441762 -0.0086883111
-0.0052437605 0.00022498844 -0.0086849239
-0.005794676 -0.00031362008 -0.0086883111
-0.004700128 -0.00079711794 -0.0086688306
-0.01877475 0.0042338725 -0.0077532474
-0.020165475 0.0037634422 -0.0072857151
-0.015761523 0.0045474921 -0.0067402609
-0.020165475 0.004077062 -0.0067402609
-0.020088213 0.0012544806 -0.0072857141
-0.020165479 0.0021953415 -0.006740259
0.0097350571 0.0045474921 -0.0017532469
0.0087306462 0.0045474921 -0.0027662341
-0.0042494298 0.0045474921 -0.0067402609
-0.0042494293 0.0045474921 -0.0072857141
-0.0037858556 0.0045474921 -0.0072857141
-0.0037858558 0.0045474921 -0.0067402609
-0.015761519 0.0037634419 -0.0086103892
-0.016302358 0.0037634419 -0.0086103892
-0.016302355 0.0027329756 -0.0086437846
-0.016770912 0.0027214135 -0.0086631747
-0.01877475 0.001724911 -0.008688312
-0.018233916 0.0021953413 -0.008688312
-0.01877475 0.0012544806 -0.008688312
-0.018246494 0.0027314124 -0.0086701903
-0.017693074 0.0021953413 -0.0086883111
-0.017693074 0.0027128144 -0.0086571425
-0.017693074 0.0017249109 -0.0086883111
-0.017229505 0.0017249109 -0.0086883102
-0.017229505 0.0012544803 -0.0086883111
-0.01522068 0.0021953413 -0.008688312
-0.01676593 0.0021953413 -0.0086883111
-0.0012361972 -0.0027441762 -0.0086883092
-0.0012361974 -0.0037634419 -0.0086883111
-0.0082670739 0.0027441762 -0.0086883102
-0.007797318 0.0032804676 -0.0086758435
-0.0082523571 0.0032780778 -0.0086437864
-0.0078034988 0.002744176 -0.008688312
-0.008730649 0.0027441762 -0.008688312
-0.0091942213 0.0045474921 -0.0086103892
-0.0087306481 0.0037634422 -0.0086103901
-0.012748291 -0.00031362017 -0.008688312
-0.012284718 -0.0017341351 -0.0087524829
-0.012748294 -0.0017341351 -0.008752482
-0.012284717 -0.0012598877 -0.0087098069
-0.011740371 -0.0017213474 -0.0087449821
-0.01630236 0.0045474921 -0.0077532465
-0.016765932 0.0045474921 -0.0082207778
-0.0099668438 0.0011760757 0.0022207792
-0.01522068 -0.0012544804 0.0012857141
-0.015220685 0.0015681009 0.00074025942
-0.014757107 0.0027441764 -0.00035064947
-0.013763007 0.0007735964 -0.00030389614
-0.013761291 0.00023695751 -0.00028311694
-0.013223313 0.00023811893 -0.00032467535
-0.014293537 0.0012544806 -0.00035064947
-0.015220685 0.0037634422 -0.00035064947
-0.01630236 0.0045474921 -0.0052597406
-0.014293537 0.0045474921 -0.00074025989
-0.012748288 0.0045474921 -0.00074025989
-0.013211862 0.0042338725 -0.00035064947
-0.0137527 0.0045474921 -0.00035064947
-0.013211862 0.0045474921 -0.00035064947
-0.013752703 0.0042338721 -0.00035064947
-0.013752703 0.0037634422 -0.00035064947
-0.011182884 -0.00030680231 -0.00029983092
-0.011203039 0.0012694148 -0.0003172541
-0.011217756 0.0007691161 -0.0003172541
-0.010275898 -0.0012544804 0.00074025942
-0.010753519 -0.0021810858 -0.0003081467
-0.011208764 -0.0027470801 -0.00032467535
-0.012748287 0.0016073035 0.0017532464
-0.012736401 0.00161635 0.0012977021
-0.012717383 0.001568101 0.00072467513
-0.012284715 0.0027441764 -0.00035064947
-0.01274829 0.0027441762 -0.00035064947
-0.013211865 0.0027441762 -0.00035064947
-0.010237263 0.0016073035 0.0012857141
-0.0097350599 0.0027441762 -0.00035064947
-0.0091942223 0.0027441762 -0.00035064947
-0.0091942213 0.0021953413 -0.00035064947
-0.0087146638 0.002730658 -0.00031034509
-0.0097350599 0.003293012 -0.00035064947
-0.0091942213 0.0032930118 -0.00035064947
-0.010739472 0.0027441764 -0.00035064947
-0.011209221 0.0027535849 -0.00034129899
-0.010275897 0.0027441762 -0.00035064947
-0.010739471 0.0032930118 -0.00035064947
-0.010275897 0.0012544806 0.0017532469
-0.009735059 0.0037634422 -0.00035064947
-0.010275896 0.0037634422 -0.00035064947
-0.0087453648 0.0032855449 -0.00031725457
-0.008262529 0.002739564 -0.00028189458
-0.0082603553 0.0032725588 -0.00029983092
-0.020165477 -0.002195341 -0.0052597397
-0.020165475 -0.0032930123 -0.0022987018
-0.020165479 -0.002744176 -0.0022987011
-0.020165479 -0.00031362023 -0.0017532473
-0.020165477 -0.00031362014 -0.0022987018
-0.020165477 -0.0021953413 -0.0022987016
-0.020165479 0.0012544804 -0.0017532471
-0.020165479 0.00023521515 -0.001207792
-0.020165475 -0.00031362017 -0.0026883117
0.016302358 -0.0042338725 -0.00035064947
0.015761519 -0.0037634422 -0.00035064947
0.016302358 -0.0037634422 -0.00035064947
0.013752703 -0.0042338721 -0.00035064947
0.012284716 -0.0027441764 -0.00035064947
0.01274829 -0.0027441764 -0.00035064947
0.012671025 -0.0015681011 0.00074025942
0.0097350562 -0.0045474921 -0.00035064947
0.0097350562 -0.0045474921 -0.00074025989
0.0091942213 -0.0045474921 -0.00035064947
0.0091942204 -0.0045474921 -0.00074025989
0.0087306462 -0.0045474921 -0.00074025989
0.0091942204 -0.0045474921 -0.0012077924
0.016765932 -0.0045474921 -0.0047922079
0.016765932 -0.0045474921 -0.0057272729
0.017229507 -0.0045474921 -0.0047922083
0.01630236 -0.0045474921 -0.0042467536
0.015761523 -0.0045474921 -0.0052597406
0.017229507 -0.0045474921 -0.0052597406
0.016765932 -0.0045474921 -0.0052597406
0.0137527 -0.0045474921 -0.0027662341
0.014293537 -0.0045474921 -0.0047922079
0.014293537 -0.0045474921 -0.0052597406
0.013211862 -0.0045474921 -0.0057272725
0.012748288 -0.0045474921 -0.0061948048
0.013211863 -0.0045474921 -0.0061948057
-0.018233912 -0.0037634422 -0.00035064947
-0.017693076 -0.0037634422 -0.00035064947
-0.017699793 -0.0032998298 -0.00029983092
-0.016765932 -0.0045474921 -0.0022987016
-0.017229507 -0.0045474921 -0.0022987016
-0.016765933 -0.0045474921 -0.0017532469
-0.01769308 -0.0045474921 -0.0022987016
-0.01630236 -0.0045474921 -0.0022987016
-0.020088213 -0.0042338725 -0.0032337664
-0.020165477 -0.0021953413 -0.0017532471
-0.020165479 -0.0027441762 -0.0017532464
-0.011755765 -0.002183279 -0.00033266749
-0.010275894 -0.0015681011 0.0012857141
-0.0099668447 -0.0015681009 0.0012857141
-0.01174388 -0.0027441764 -0.00035064947
-0.01475711 -0.0037634422 -0.00035064947
0.020088213 0.0037634422 -0.00074025989
0.020146159 0.0032734107 -0.0027662341
0.020146159 0.0032734107 -0.0022987016
0.020161062 0.0027374558 -0.0061903526
0.020146159 0.0032734107 -0.0061948057
0.020165481 0.002744176 -0.0052597402
0.020165475 0.0021953413 -0.0047922069
0.020165475 0.0021953413 -0.0037012994
0.020146159 0.0032734107 -0.0052597392
0.020165477 0.0021953413 -0.0057272734
0.020165479 0.002744176 -0.0057272725
0.020105008 0.0017521823 -0.0067097694
0.020165475 0.0021953413 -0.0061948067
0.01769308 -0.0045474921 -0.0061948057
0.017229507 -0.0045474921 -0.0082207778
0.017229507 -0.0045474921 -0.0057272725
0.0017770343 -0.0045474921 -0.0077532465
0.0017770343 -0.0045474921 -0.0052597406
0.0017770343 -0.0045474921 -0.0057272725
0.0027041826 -0.0045474921 -0.0072857141
0.0042494298 -0.0045474921 -0.0067402609
0.004713004 -0.0045474921 -0.0072857141
0.0037858556 -0.0045474921 -0.0057272725
0.0042494293 -0.0045474921 -0.0057272725
0.0047130045 -0.0045474921 -0.0082207778
0.0062582511 -0.0045474921 -0.0072857141
0.0052538388 -0.0021953408 -0.008688312
0.0057946756 -0.0027441762 -0.008688312
0.005794676 -0.0021953413 -0.0086883111
0.0052589895 -0.0027459185 -0.0086779213
0.0052561811 -0.0032930123 -0.0086741438
-0.00023178701 -0.0032930118 -0.0086883111
0.00023178701 -0.0027441762 -0.0086883111
0.00023178701 -0.003293012 -0.0086883111
0.018233914 -0.0042025107 -0.0085948054
0.017682774 -0.0042129648 -0.0085948054
0.017693076 -0.0037634419 -0.0086103892
0.018233912 -0.0037634419 -0.0086103901
0.017693076 -0.0032930118 -0.0086103901
0.017693074 -0.0027441764 -0.0086103901
0.020165477 -0.0012544804 -0.0061948057
0.020165477 -0.0012544806 -0.0057272734
0.0197019 -0.0041554677 -0.0052597392
0.019663269 -0.0041162646 -0.0067402609
0.020165475 -0.0037634422 -0.0057272734
0.020165475 -0.0037634419 -0.0052597397
-0.01923833 -0.0027441762 -0.0086883102
-0.019238325 -0.0032930118 -0.0086883111
-0.018774755 -0.0027441762 -0.0086883139
-0.01877475 -0.003293012 -0.0086883111
-0.019238327 -0.0037634419 -0.008688312
-0.01877475 -0.0037634417 -0.0086883102
-0.018233918 -0.0012544803 -0.008688312
-0.017693074 -0.0012544804 -0.0086883111
-0.018233916 -0.0017249113 -0.008688312
-0.02001095 -0.00031362017 -0.0077532465
-0.019238325 -0.0041890698 -0.008688313
-0.019238325 -0.0041554677 -0.0082207788
-0.020165475 0.0021953413 -0.0086103911
-0.0197019 0.0021953413 -0.0086103892
0.013211869 0.0027441762 -0.0086883111
0.012284718 0.0017350278 -0.0087285293
0.013211866 0.002195341 -0.0086883111
0.013752706 0.0021953413 -0.008688312
-0.020088213 -0.004181603 -0.0067142863
-0.020088213 -0.0041554677 -0.0072857141
0.01475711 -0.0045474921 -0.0057272729
0.015220685 -0.0045474921 -0.0052597411
0.015220685 -0.0045474921 -0.0057272725
0.015761523 -0.0045474921 -0.0061948057
0.015220685 -0.0045474921 -0.0061948057
0.015220686 -0.0045474921 -0.0067402609
0.01630236 -0.0045474921 -0.0067402609
0.015761523 -0.0045474921 -0.0067402609
0.016827742 -0.0045474926 -0.0082831178
-0.015761517 -0.0042338725 -0.0082207797
-0.016302355 -0.0042338721 -0.0082207788
-0.015754038 -0.0042136391 -0.0086631738
-0.016302356 -0.004211471 -0.0086437846
-0.018156655 -0.0045474921 -0.0052597406
-0.018156655 -0.0045474921 -0.0047922079
-0.019238327 -0.0042338721 -0.0052597397
-0.01769308 -0.0045474921 -0.0057272725
-0.01769308 -0.0045474921 -0.0052597406
-0.019238325 -0.0042338725 -0.0047922069
0.0012361978 -0.0045474921 -0.0082207778
-0.00069536117 -0.0045474921 -0.0057272725
-0.00069536129 -0.0045474921 -0.0052597402
-0.00023178713 -0.0045474921 -0.0057272725
-0.0012361978 -0.0045474921 -0.0042467532
-0.0012361978 -0.0045474921 -0.0047922079
-0.00069536123 -0.0045474921 -0.0077532465
-0.0017770343 -0.0045474921 -0.0027662341
-0.0017770343 -0.0045474921 -0.0032337664
-0.0022406084 -0.0045474921 -0.0027662341
0.0027041826 -0.0045474921 -0.0022987016
0.0022406084 -0.0045474921 -0.0027662339
0.0027041826 -0.0045474921 -0.0027662341
-0.0002317871 -0.0045474921 -0.0022987016
-0.00023178715 -0.0045474921 -0.0027662341
-0.0002317871 -0.0045474921 -0.00074025989
-0.00023178704 -0.0045474921 -0.00027272757
0.0022406084 -0.0045474921 -0.0012077924
0.0022406087 -0.0045474921 -0.0017532466
0.0032450191 -0.0045474921 -0.0022987016
0.0027041824 -0.0045474921 -0.0037012987
0.0047130045 -0.0042338725 -0.00035064947
0.0052681472 -0.0037518265 -0.00032467535
0.0047130045 -0.0037634419 -0.00035064947
0.0052538407 -0.0042338721 -0.00035064947
0.00069536123 -0.0045474921 -0.0027662341
0.0012361978 -0.0045474921 -0.0032337664
0.00069536123 -0.0045474921 -0.0042467532
0.0012361978 -0.0045474921 -0.003701299
0.0012361975 -0.0045474921 -0.0042467536
-0.0062582497 -0.0037634422 -0.0086883111
-0.0072626621 -0.0037634422 -0.008688312
-0.0067218249 -0.0032930123 -0.0086883111
-0.0022406089 -0.003293012 -0.0086883111
-0.0022406089 -0.0042114705 -0.0086437846
0.0197019 -0.0003136202 -0.0086883111
0.019238327 -0.0003136202 -0.0086883111
0.018774753 0.00023521512 -0.008688312
0.018233916 -0.0012544803 -0.008688312
0.01877475 -0.0012544806 -0.0086883111
0.01877475 -0.00078405038 -0.0086883111
0.01877475 0.0017249112 -0.008688312
0.019238325 0.001724911 -0.0086883111
-0.0197019 -0.0042338721 -0.0032337666
-0.0197019 -0.0042338721 -0.0037012994
-0.019238327 -0.0042338721 -0.0032337666
-0.01877475 -0.0042338721 -0.0032337671
-0.0197019 -0.0042338725 -0.0022987016
-0.019238325 -0.0042338725 -0.0012077922
0.0027273607 0.0033165333 -0.0086415578
0.0022265608 0.0021810858 -0.0085608028
0.0002317871 0.001724911 -0.0086103901
-0.00023178701 0.001724911 -0.0086103892
0.0022470474 -0.0012675481 -0.0086688315
0.0027041829 0.00078405038 -0.0086103911
0.0002317871 -0.0021953413 -0.0086883102
0.0002317871 -0.00031362011 -0.0086103901
-0.015297948 0.001568101 0.0022207792
-0.0017770343 0.0045474921 -0.0017532469
-0.0091942213 0.0045474921 -0.0032337666
-0.0078034988 0.0045474921 -0.0027662341
-0.0091942204 0.0045474921 -0.0027662339
0.00069536112 0.0032930123 -0.00027272757
0.0012361974 0.0032930123 -0.00027272757
-0.00069536112 0.0037634422 -0.00027272757
-0.00069536112 0.003293012 -0.00027272757
-0.0012361972 0.003293012 -0.00027272757
-0.0012361974 0.001724911 -0.00027272757
-0.0012361973 0.002195341 -0.00027272757
-0.00015452471 0.0016465057 0.00074025942
-0.00069536106 0.002195341 -0.00027272757
7.7262303e-05 0.0016465058 0.0012857141
-0.00015452468 0.001646506 0.0012857141
0.00023178713 0.0027441764 -0.00027272757
-0.0012361973 0.0027441762 -0.00027272757
-0.0017770341 0.0027441762 -0.00027272757
-0.0017770343 0.0021953413 -0.00027272757
-0.00015452477 0.0012544804 0.00074025942
-0.00015452471 0.00094086066 0.00074025942
-0.0022335849 0.0042410004 -0.0003081467
-0.0022465521 0.0037574111 -0.00027872156
-0.0027103634 0.0042213281 -0.00028519519
-0.0017770343 0.003293012 -0.00027272757
-0.0022346654 0.003299043 -0.00027872156
-0.0027041822 0.0037634422 -0.00027272757
-0.0137527 0.0045474921 -0.0086103901
-0.013211862 0.0045474921 -0.0086103901
-0.013211862 0.0045474921 -0.0082207788
-0.010739468 0.0045474921 -0.0082207797
-0.010275894 0.0045474921 -0.0086103901
-0.01475711 0.0042338725 -0.0086103892
-0.015220685 0.0042338721 -0.0086103892
-0.012284715 0.0045474921 -0.0061948048
-0.012284716 0.0045474921 -0.0057272725
-0.011743878 0.0045474921 -0.0061948057
-0.011743878 0.0045474921 -0.0067402609
-0.011743878 0.0045474921 -0.0057272734
-0.012284715 0.0045474921 -0.0052597411
-0.011743877 0.0045474921 -0.0042467527
-0.014293537 0.0045474921 -0.0077532465
-0.010275894 0.0045474921 -0.0057272725
-0.0067288489 0.0037420588 -0.0086528929
-0.006250117 0.003755189 -0.0086226938
-0.0062784054 0.0032861938 -0.0086612077
-0.0057946756 0.003755189 -0.0086226938
-0.017229509 0.0045474921 -0.0017532471
-0.01475711 0.0045474921 -0.0027662341
-0.01475711 0.0045474921 -0.0022987016
-0.013211863 0.0045474921 -0.0027662339
-0.012748288 0.0045474921 -0.0032337664
-0.015220685 0.0045474921 -0.0072857141
-0.019238327 0.0042338725 -0.0061948057
-0.017229507 0.0045474921 -0.0052597402
-0.013211863 0.0045474921 -0.0047922079
-0.012748288 0.0045474921 -0.0047922083
-0.013211862 0.0045474921 -0.0052597402
-0.010739468 0.0045474921 -0.0061948048
-0.010275894 0.0045474921 -0.0077532465
-0.011203042 0.0045474921 -0.0052597402
-0.01475711 0.0045474921 -0.0047922083
-0.014293537 0.0045474921 -0.0047922079
-0.014293537 0.0045474921 -0.0042467532
-0.0137527 0.0045474921 -0.003701299
-0.0137527 0.0045474921 -0.0042467527
-0.01174388 0.0045474921 -0.0027662339
-0.011203042 0.0045474921 -0.0032337664
-0.015220685 0.0045474921 -0.0052597406
-0.015220685 0.0045474921 -0.0057272725
-0.017538555 0.0045474926 -0.0061948057
-0.01630236 0.0045474921 -0.0067402609
0.0027041824 -0.0045474921 -0.0061948057
0.0032450187 -0.0045474921 -0.0047922083
0.0037858556 -0.0045474921 -0.0047922079
0.0037858558 -0.0045474921 -0.0042467532
0.0022406084 -0.0045474921 -0.0047922083
0.0027041826 -0.0045474921 -0.0047922083
0.0012361978 -0.0045474921 -0.0047922074
0.0042494298 -0.0045474921 -0.0032337664
0.004713004 -0.0045474921 -0.0032337664
0.0042494298 -0.0045474921 -0.0022987016
-0.0017770343 -0.0045474921 -0.0082207788
-0.0017770343 -0.0045474921 -0.0077532465
-0.0012361978 -0.0045474921 -0.0052597411
-0.0022406084 -0.0045474921 -0.0061948057
0.0012361978 -0.0045474921 -0.0057272725
0.0032450187 0.00094086048 -0.0042467536
0.0037858558 0.00094086054 -0.0042467527
0.0037858556 0.0009408606 -0.0047922079
0.0032450189 -0.00094086037 -0.0042467532
0.0067218249 0.00094086054 -0.0047922079
0.0062582511 0.00094086042 -0.0042467532
0.0062582511 -0.00094086048 -0.0047922079
0.0067218249 -0.00094086048 -0.0042467536
0.0067218249 0.00094086048 -0.0042467536
0.0047130049 -0.0012544806 -0.0086883111
0.005260461 -0.00077957025 -0.0086838584
0.0062582511 0.0045474921 -0.0027662341
0.0062582511 0.0045474921 -0.0022987016
0.0062582511 0.0045474921 -0.0017532466
0.0067218249 0.0045474921 -0.0017532469
0.0032450191 0.0045474921 -0.00035064947
0.0027041826 0.0045474921 -0.00035064947
0.0032450187 0.0042338721 -0.00035064947
0.0037858554 0.0045474921 -0.00035064947
0.0037858556 0.0042338725 -0.00035064947
0.0037858558 0.0045474921 -0.0017532469
0.0032450191 0.0045474921 -0.0022987016
0.0042494293 0.0045474921 -0.00074025989
0.010275894 0.0045474921 -0.0042467532
0.010275894 0.0045474921 -0.0047922083
0.0097350581 0.0045474921 -0.0042467527
0.0087306472 0.0045474921 -0.0042467532
0.0097350562 0.0045474921 -0.0052597406
0.0077262362 -0.00094086048 0.0025324672
0.0077262367 -0.001274082 0.0025714282
0.0074944487 -0.00094086054 0.0025324672
0.0078034988 -0.0037634419 -0.00035064947
0.0072452156 -0.0032828953 -0.0002978635
0.0072626621 -0.0037634419 -0.00035064947
0.0078175468 -0.0032787563 -0.0003081467
0.0087262345 -0.0027419361 -0.00027718022
0.01243924 -0.0010976705 0.0012857141
0.012671026 -0.001568101 0.0012857141
-0.00023178711 0.0045474921 -0.0027662341
-0.00023178707 0.0045474921 -0.0037012985
0.00023178713 0.0045474921 -0.0037012987
0.0012361975 0.0045474921 -0.0042467536
0.0012361978 0.0045474921 -0.003701299
0.0027041826 0.0045474921 -0.0022987013
-0.0022406084 0.0045474921 -0.0032337664
0.0012361978 0.0045474921 -0.0022987016
0.0012361978 0.0045474921 -0.0027662341
0.0017770343 0.0045474921 -0.0027662341
0.0017770343 0.0045474921 -0.0017532469
0.00023178715 0.0045474921 -0.0017532469
0.0091942204 0.0045474921 -0.0061948057
0.0087306462 0.0045474921 -0.0061948057
0.0082670739 0.0045474921 -0.0042467532
0.0067218249 0.0045474921 -0.0042467532
0.0078034988 0.0045474921 -0.0052597402
0.008267073 0.0045474921 -0.0047922083
0.0072626621 0.0045474921 -0.0042467536
0.0072626621 0.0045474921 -0.0047922083
0.0067218249 0.0045474921 -0.0047922079
0.0072626621 0.0045474921 -0.0077532465
0.0072626621 0.0045474921 -0.0072857141
0.0087306462 0.0045474921 -0.0072857141
0.013211863 0.0045474921 -0.0072857141
0.014293537 0.0045474921 -0.0061948048
0.017229505 0.0042338725 -0.0057272729
0.015761523 0.0045474921 -0.0052597406
0.015761523 0.0045474921 -0.0057272734
0.01676593 0.0042338725 -0.0052597397
0.018233914 0.0042338725 -0.0082207788
0.018233916 0.0042338725 -0.0077532474
0.017693074 0.0042338721 -0.0077532465
0.01877475 0.0042338721 -0.0077532474
0.019238327 0.0042338721 -0.0077532465
0.019238329 0.0042338725 -0.006740259
0.018233918 0.0042338725 -0.007285716
0.01877475 0.0042338721 -0.0072857151
0.019547375 0.0042338725 -0.0082207788
0.017229505 0.0042338725 -0.0042467541
0.01676593 0.0042338721 -0.0047922069
0.01676593 0.0042338721 -0.0042467532
0.015761523 0.0045474921 -0.0042467536
0.017229505 0.0042338721 -0.0037012994
0.019547375 0.0042338725 -0.0077532465
0.01877475 0.0021953413 -0.0086883111
0.019238329 0.0027441762 -0.0086883111
0.02007276 0.001756273 -0.0082207778
0.02001095 0.0012544807 -0.0077532465
-0.017229507 0.0045474921 -0.0027662339
-0.020088213 0.0037634422 -0.0037012992
-0.020165477 0.0027441762 -0.0032337673
-0.018233918 0.0042338721 -0.0042467541
-0.020165475 0.0012544804 -0.0027662341
-0.020165475 0.0012544806 -0.0032337673
-0.01877475 0.0042338721 -0.0032337669
-0.018233916 0.0042338716 -0.0032337676
-0.019701906 0.0042338721 -0.0017532473
-0.0197019 0.0042338725 -0.0022987016
-0.018233918 0.0042338721 -0.0027662348
-0.020165475 0.002195341 -0.0061948067
-0.020165475 0.0007840505 -0.0061948057
-0.020146159 -0.0021953413 -0.0082402602
-0.020148305 -0.0027528878 -0.0086363638
-0.016302358 0.003293012 -0.00035064947
-0.01676593 0.0027441764 -0.00035064947
-0.015529734 0.0012544807 0.0012857141
-0.017693076 -0.00031362008 -0.00035064947
-0.017229507 -0.0007840505 -0.00035064947
-0.017229507 -0.00031362023 -0.00035064947
-0.017693076 -0.0007840505 -0.00035064947
-0.017693074 0.00023521509 -0.00035064947
-0.019238325 0.0012544806 -0.00035064947
-0.019238325 0.0017249108 -0.00035064947
-0.018774752 0.00078405032 -0.00035064947
-0.019238325 0.00023521509 -0.00035064947
-0.01877475 0.00023521503 -0.00035064947
-0.018233912 0.0012544804 -0.00035064947
-0.018774752 0.0012544804 -0.00035064947
-0.0197019 0.00023521509 -0.00035064947
-0.020165475 0.00023521503 -0.00035064947
0.015220686 0.0045474921 -0.0067402609
0.015220685 0.0045474921 -0.0061948057
0.011203042 0.0045474921 -0.0067402609
0.011203042 0.0045474921 -0.0061948048
0.011743878 0.0045474921 -0.0061948057
0.0087306462 0.0045474921 -0.0077532465
0.0087306462 0.0045474921 -0.0082207788
0.0074429405 0.0016203709 0.0022207787
0.0077004824 0.0016203709 0.0022207792
0.0077107837 0.0016308248 0.0017532464
0.0074944487 0.00094086048 0.0021428573
0.0074944482 -0.00094086054 0.0022207792
0.0074429405 0.0012544808 0.0025844155
0.0051765782 0.0012544806 0.0022207792
0.0051572626 0.00094086054 0.0022012987
0.0051765777 -0.0009408606 0.0022207792
0.0051765782 0.00094086048 0.0017532469
0.0026269201 -0.00094086054 0.0022207792
0.0042494307 0.0042338725 -0.00035064947
0.011203039 0.0042338725 -0.00035064947
0.011743878 0.0037634422 -0.00035064947
0.011203039 0.0037634419 -0.00035064947
0.012717382 0.0016308251 0.0017532464
0.012717382 0.0016308246 0.0012857141
0.010275897 0.0012544804 0.0012857141
0.01243924 0.00094086054 0.0012857141
0.013211862 0.0042338725 -0.00035064947
0.013752703 0.0037634422 -0.00035064947
0.013211864 0.0045474921 -0.00035064947
0.01243924 0.0012544807 0.0022207792
-0.014293537 0.0045474921 -0.00035064947
-0.012748289 0.0045474921 -0.00035064947
-0.012748287 0.0042338725 -0.00035064947
-0.013211862 0.0045474921 -0.00074025989
-0.011203042 0.0045474921 -0.00035064947
-0.011203039 0.0042338721 -0.00035064947
-0.0091942204 0.0045474921 -0.00035064947
-0.0097350562 0.0045474921 -0.00074025989
-0.0032450191 0.0045474921 -0.0012077924
-0.0032450191 0.0045474921 -0.00035064947
-0.0037858554 0.0045474921 -0.00035064947
-0.0027041826 0.0045474921 -0.00035064947
0.011203042 0.0045474921 -0.0012077924
0.011203042 0.0045474921 -0.00074025989
0.012284715 0.0045474921 -0.0032337664
0.01174388 0.0045474921 -0.003701299
0.012748288 0.0045474921 -0.0047922079
0.0197019 0.0042338721 -0.00074025989
0.018233912 0.0037634422 -0.00035064947
0.01877475 0.0042338721 -0.00074025989
0.0137527 0.0045474921 -0.0077532465
0.013211863 0.0045474921 -0.0077532465
0.012748289 0.0045474921 -0.0086103901
0.0072626621 0.0045474921 -0.0082207778
0.008730649 0.003293012 -0.0086883111
0.0087306481 0.004211471 -0.0086437836
-0.0032450191 0.0045474921 -0.0082207778
-0.0037858556 0.0045474921 -0.0082207778
0.0027041826 0.0045474921 -0.0086103901
0.0032520425 0.0042196168 -0.008674142
0.0032450191 0.0045474921 -0.0086103901
0.0027041824 0.0042142714 -0.0086688315
0.0019315589 0.0045474926 -0.0086103901
0.0012361978 0.0045474921 -0.0061948057
0.0078034988 0.002744176 -0.0086883092
-0.011203042 0.0045474921 -0.0017532469
-0.010739468 0.0045474921 -0.0017532466
-0.010739468 0.0045474921 -0.0012077924
-0.011203042 0.0045474921 -0.0012077924
-0.0087306462 0.0045474921 -0.0022987016
-0.01174388 0.0045474921 -0.0022987016
-0.0137527 0.0045474921 -0.0022987016
-0.01243924 -0.0012544807 0.0017532469
-0.01243924 -0.0015681008 0.0017532464
-0.0074944487 0.0009408606 0.0021428573
-0.0077004819 -0.00094086054 0.0025844155
-0.0074944487 -0.00094086054 0.0025324672
-0.0074944482 0.0012544807 0.0025324672
-0.00776916 0.001271904 0.0025670994
-0.0077519901 0.0015681009 0.0025844155
-0.0074944487 0.0015681009 0.0025324672
-0.0074429405 -0.0012544807 0.0025844155
-0.0077262367 -0.0012544807 0.0026103891
-0.0074944487 -0.001568101 0.0025324672
-0.00069536112 -0.0037634426 -0.00027272757
-7.7262397e-05 -0.001568101 0.0017532464
-0.00013907228 -0.0012231186 0.0012857141
-7.7262426e-05 -0.0015681008 0.0012857141
-0.0025496578 -0.00094086054 0.0025324672
-0.0025496578 -0.0015681009 0.0022207792
-0.0023475869 0.0012303561 0.0012857141
-0.0023436253 0.0012283456 0.00074891746
-0.00015452479 0.0012544804 0.0012857146
-0.0023951333 0.0012544808 0.0022207792
-0.0026526742 0.0015681009 0.0025844155
7.7262404e-05 0.0015681009 0.0026103896
9.2714792e-05 0.0012544806 0.0022363639
7.7262288e-05 0.0012544807 0.0026103896
7.7262361e-05 0.0009408606 0.0022207792
0.00012480846 0.0012424184 0.0017532464
0.0017770343 0.0037634419 -0.00027272757
0.0026269201 -0.001568101 0.0017532469
0.0017770343 -0.0042338725 -0.00027272757
0.013752706 0.003293012 -0.008688312
0.014293532 0.0032930123 -0.0086883111
0.0137527 0.0045474921 -0.0072857141
0.0137527 0.0045474921 -0.0067402609
0.013219589 0.0042181914 -0.0086337673
0.012748287 0.0042338725 -0.0086103901
