# .PCD v0.7 - Point Cloud Data file format
VERSION 0.7
FIELDS x y z
SIZE 4 4 4
TYPE F F F
COUNT 1 1 1
WIDTH 1170
HEIGHT 1
VIEWPOINT 0 0 0 1 0 0 0
POINTS 1170
DATA ascii
-0.0077481642 0.0015158311 0.001776699
-0.0092628477 0.003789579 -0.00032038847
-0.0048547401 -0.00093281904 0.0012524272
-0.0097288964 -0.0012243249 -0.00032038847
-0.0097288983 -0.0017490361 -0.00032038847
-0.0073509593 -0.0012402254 0.00072815502
-0.0067634541 -0.0017445085 -0.00031190505
-0.0062334849 -0.00029150597 -0.00032038847
-0.0087385308 0.00075791514 -0.00032038847
-0.0087385317 0.00023320474 -0.00032038847
-0.0072821095 0.00023320472 -0.00032038847
-0.0076899081 -0.00090538326 0.0022118785
-0.0092628449 -0.000291506 -0.00032038847
-0.0087385327 -0.00029150594 -0.00032038847
-0.0092628468 0.00023320477 -0.00032038847
-0.010253211 0.0012243248 -0.00032038847
-0.010253216 0.0017490367 -0.00032038847
-0.010777518 0.0012243249 -0.00032038847
-0.0092628431 -0.0022737461 -0.00032038847
-0.0092628431 -0.0017490359 -0.00032038847
-0.0097288974 -0.0022737461 -0.00032038847
-0.0087385308 -0.00075791526 -0.00032038847
-0.0057674316 -0.00029150592 -0.00032038847
-0.012641741 -0.0027401557 -0.0017184468
-0.012641742 -0.0022737461 -0.0012524277
-0.012641746 -0.0032648668 -0.0027669915
-0.010777521 0.00075791526 -0.00032038847
-0.011243581 0.0012243249 -0.00032038847
-0.00022243535 0.0012402253 0.00072815549
-0.00075733953 0.00023320474 -0.00032038847
-0.0012233943 0.00023320474 -0.00032038847
-0.00022243534 0.0012402253 0.0012524272
-0.0023885323 0.00093281909 0.0012524272
-0.0023885311 0.0012243249 0.0012524272
-0.0023885323 0.00093281909 0.00072815502
-0.0052019968 0.0012277542 0.00072815549
-0.0052019963 0.0012277541 0.0012524272
-0.0067578005 0.0022737461 -0.00032038847
-0.0067578005 0.0017490364 -0.00032038847
5.2960804e-05 0.0016218331 0.001776699
9.3211027e-05 0.0012243249 0.001776699
0.0017533624 0.0032614707 -0.00031190505
0.0017519695 0.0027444202 -0.00031328434
0.0017477067 0.0037895776 -0.00032038847
-0.01170963 0.0042559863 -0.0032330095
-0.011243583 0.0042559868 -0.0032330095
-0.011243579 0.0042559854 -0.0037572812
-0.010194953 0.0045474921 -0.0022427184
-0.010777519 0.0042559868 -0.0032330099
-0.01223395 0.0042309999 -0.0017350896
-0.012627179 0.0032648668 -0.0072669908
-0.012602904 0.0012826259 -0.0078543676
-0.010777523 0.0042559868 -0.0077767
-0.010777521 0.0027401557 -0.0086504826
-0.0082142213 0.0042559868 -0.00032038847
-0.0067577986 0.0042559849 -0.00032038847
-0.0072821104 0.0042559868 -0.00032038847
-0.0074180425 0.0015158309 0.0021456308
-0.0067577972 0.0045474921 -0.00032038847
-0.0062334873 0.0042559868 -0.00032038847
-0.0062334859 0.0045474921 -0.00032038847
-0.0067577972 0.0045474921 -0.0012524277
-0.0057674316 0.0045474921 -0.0012524275
-0.0067577972 0.0045474921 -0.0017184468
-0.0077481647 0.0045474921 -0.00032038847
-0.0087385327 0.0045474921 -0.00078640808
-0.0077481656 0.0042559863 -0.00032038847
-0.0067577972 0.0045474921 -0.0022427184
-0.0067577981 0.0045474921 -0.0027669901
-0.0082142195 0.0045474921 -0.0027669901
0.0017477063 0.0045474921 -0.00078640785
0.00075733941 0.0045474921 -0.0012524275
0.0017477067 0.0042559854 -0.00032038847
0.0012233944 0.0042559868 -0.00032038847
0.00075733941 0.0045474921 -0.00032038847
0.003262385 0.0045474921 -0.00078640808
-0.0022720182 0.0045474921 -0.00078640785
-0.0022720182 0.0045474921 -0.00037864083
-0.0027380735 0.0045474921 -0.00037864083
-0.00075733953 0.0045474921 -0.00032038847
-0.0027380735 0.0045474921 -0.0037572826
-0.003262385 0.0045474921 -0.0037572826
-0.0027380737 0.0045474921 -0.0032330095
-0.0017477064 0.0045474921 -0.0037572826
-0.0017477063 0.0045474921 -0.0032330095
-0.0012233944 0.0045474921 -0.0037572826
-0.0057674306 0.0045474921 -0.0067281546
-0.0057674311 0.0045474921 -0.0057378639
-0.0052431198 0.0045474921 -0.0062621357
-0.0052431198 0.0045474921 -0.0085922331
-0.0037617297 0.0045474921 -0.0085839117
-0.003262385 0.0045474921 -0.008242717
-0.0027380732 0.0045474921 -0.0085922331
-0.0057674311 0.0045474921 -0.00078640785
-0.0062334854 0.0045474921 -0.0017184468
-0.0057674311 0.0045474921 -0.0017184466
-0.0057674316 0.0045474921 -0.0022427184
-0.0052431198 0.0045474921 -0.0017184468
-0.003262385 0.0045474921 -0.0032330095
-0.0037866973 0.0045474921 -0.0027669901
-0.0062334854 0.0045474921 -0.0062621352
-0.0062334859 0.0045474921 -0.0067281546
-0.0012233944 0.0045474921 -0.0057378639
-0.0012233944 0.0045474921 -0.0062621352
-0.0017477063 0.0045474921 -0.0052135922
-0.0012233944 0.0045474921 -0.0052135922
-0.0017477066 0.0045474921 -0.0047475728
-0.0032623853 0.0045474921 -0.007776699
-0.0027380732 0.0045474921 -0.0077766981
-0.0082142204 0.0045474921 -0.0082427179
-0.0077481642 0.0045474921 -0.0072524268
-0.0087385327 0.0045474921 -0.0072524277
-0.0092628431 0.0045474921 -0.0072524268
-0.0087385327 0.0045474921 -0.0067281546
-0.009262844 0.0045474921 -0.0077766981
-0.0097289002 0.0045474921 -0.0067281546
-0.0082142204 0.0045474921 -0.0062621352
-0.0077481642 0.0045474921 -0.0062621352
-0.0082142185 0.0045474921 -0.0057378639
-0.0087385327 0.0045474921 -0.0062621357
-0.0082142204 0.0045474921 -0.0042815539
-0.0077481647 0.0045474921 -0.0042815539
-0.0092628431 0.0045474921 -0.0057378639
-0.0087385327 0.0045474921 -0.0057378644
-0.00029128441 0.0045474921 -0.0067281546
0.00023302753 0.0045474921 -0.0082427189
-0.0012233944 0.0045474921 -0.0077766981
-0.0017477066 0.0045474921 -0.007776699
-0.0017477066 0.0045474921 -0.0082427179
-0.00075733941 0.0045474921 -0.0072524268
-0.00029128441 0.0045474921 -0.0072524268
-0.00075733941 0.0045474921 -0.0077766981
-0.012233948 0.0042559854 -0.0052135913
0.0097288974 -0.0007579152 -0.00032038847
0.0097288964 -0.00029150597 -0.00032038847
0.010253213 -0.00029150589 -0.00032038847
0.01077752 0.0017490361 -0.00032038847
0.010777521 0.0022737461 -0.00032038847
0.010777522 0.0012243248 -0.00032038847
0.01124358 0.0022737458 -0.00032038847
0.0072821099 0.0045474921 -0.0017184468
0.011243579 0.0042559868 -0.0027669906
0.0092628449 0.0042559863 -0.0017184464
0.0072821099 0.0045474921 -0.00078640808
0.0062334859 0.0045474921 -0.0062621352
0.0062334849 0.0045474921 -0.0057378639
0.0086802756 0.0045474921 -0.0067281546
0.0082142195 0.0045474921 -0.0067281546
0.0072821104 0.0045474921 -0.0062621352
0.0067577977 0.0045474921 -0.0057378644
0.011709631 0.0042559868 -0.00032038847
0.01124358 0.0042559872 -0.00032038847
0.010777521 0.0037895788 -0.00032038847
0.0086802756 0.0045474921 -0.0012524275
0.0092628421 0.0042559868 -0.001252427
0.012233945 0.0032648658 -0.0086504845
0.012641742 0.0032648668 -0.0086504864
-0.0087385308 -0.00075791508 -0.0087087359
-0.0067577981 -0.0045474921 -0.0012524275
-0.0062334859 -0.0045474921 -0.0022427184
-0.0062334859 -0.0045474921 -0.0067281546
-0.0042527523 -0.0045474921 -0.00078640785
-0.0092628431 -0.0045474921 -0.0042815539
-0.0087385327 -0.0045474921 -0.0042815539
-0.0087385317 -0.0045474921 -0.0047475728
-0.0067577981 -0.0045474921 -0.0077766981
-0.0067577977 -0.0045474921 -0.0072524277
-0.0072821104 -0.0045474921 -0.0037572826
-0.011068807 -0.0045474926 -0.0037572812
-0.012214529 -0.004236551 -0.0037572803
-0.01170963 -0.0042559854 -0.0037572812
-0.0092628431 -0.0045474921 -0.0012524275
-0.010777523 -0.0045474921 -0.0017184468
-0.0077481647 -0.0045474921 -0.0012524275
-0.0082142195 -0.0045474921 -0.0012524275
-0.0092628431 -0.0045474921 -0.0022427184
-0.0092628431 -0.0045474921 -0.0027669901
-0.0097288992 -0.0045474921 -0.0022427184
-0.0072821099 -0.0045474921 -0.0027669901
-0.0087385336 -0.0032648658 -0.00032038847
-0.0082142204 -0.0037895788 -0.00032038847
-0.0051820888 -0.0012215486 0.0022417936
-0.0048935781 -0.0015158309 0.0025339806
-0.0048806323 -0.001217847 0.0025857603
-0.0048353202 -0.0012243248 0.0022427179
0.0087385299 -0.0032648665 -0.00032038847
0.0072821085 -0.0027401547 -0.00032038847
0.0072821109 -0.0022737461 -0.00032038847
0.0067577986 -0.0022737461 -0.00032038847
0.0075966967 -0.0015158309 0.00076310663
0.0067578019 -0.0017490364 -0.00032038847
0.0074335793 -0.0011893442 0.00072815502
0.0082142204 -0.0017490361 -0.00032038847
0.0097288918 -0.0027401547 -0.00032038847
0.0082142204 -0.0037895786 -0.00032038847
0.0082142213 -0.0032648663 -0.00032038847
0.0077481619 -0.0032648654 -0.00032038847
0.0074500283 -0.0012140365 0.002232438
0.0074568805 -0.00093281898 0.0021262136
0.0087385308 -0.0012243247 -0.00032038847
0.0087385308 -0.00075791526 -0.00032038847
0.011231927 -0.0042443271 -0.0012524272
0.012233945 -0.0041393852 -0.0012524277
0.012583485 -0.0041393843 -0.0037572817
0.012641746 -0.0032648668 -0.0032330104
0.012641746 -0.0032648661 -0.0037572812
0.012641744 -0.0022737461 -0.0032330104
0.012633421 -0.0037645905 -0.0027669906
0.012583483 -0.0037895774 -0.0082427179
0.011693745 -0.0041870866 -0.0082427189
0.012233946 -0.0041393852 -0.0077767
0.0097288992 -0.0045474921 -0.0037572826
0.0092628431 -0.0045474921 -0.0037572826
0.0097288992 -0.0045474921 -0.0032330095
0.012627177 -0.0037677137 -0.0057269428
0.012583483 -0.0037895774 -0.0067281546
0.012583482 -0.0037895772 -0.0072524268
-0.0082142204 -0.0045474926 -0.0085339807
-0.0077481642 -0.0037895783 -0.0086504854
-0.003262385 0.0045474921 -0.0072524277
-0.0032623853 0.0045474921 -0.0067281546
-0.0047148163 0.001755425 -0.008693574
-0.0042787828 0.001823463 -0.0086529646
-0.0042236238 0.0011757406 -0.008592234
-0.0042680837 0.00077325781 -0.0086198272
-0.0062334859 -0.00075791526 -0.0087087387
-0.0067578005 -0.0012243248 -0.0087087359
-0.0062362603 -0.0012215485 -0.0087059634
-0.0067577995 0.00075791514 -0.0087087359
-0.0047141449 0.00073925895 -0.0086714551
0.0027380732 0.0002332048 -0.0086504836
0.0032519517 0.00021754179 -0.0086383112
0.0017477063 0.00023320483 -0.0086504845
0.0017477067 -0.00029150597 -0.0086504854
0.0032796462 0.0022845424 -0.0086375391
0.0027380737 0.0022737461 -0.0085922321
0.0022746657 0.0017516859 -0.0086081196
0.0027285898 0.0017354775 -0.008604425
0.0017477063 0.0022737461 -0.0085922321
0.001231162 0.0022620859 -0.0085883485
0.0037928291 -0.0017582413 -0.0086995363
0.0022720178 -0.00075791538 -0.0086504845
0.0032767705 -0.0017533549 -0.0086677438
0.0037936873 -0.00075325131 -0.0086598061
0.0037866966 0.00022813506 -0.0086175604
0.0072821081 -0.0042559872 -0.0086504845
0.0067577981 -0.0045474926 -0.0085339807
0.0072821099 -0.0045474926 -0.0085339807
0.0067578005 -0.0042559868 -0.0086504845
-0.0072821104 -0.00075791532 -0.008708735
-0.0072821053 0.00023320477 -0.0087087322
-0.0082142195 -0.0012243248 -0.0087087369
-0.0072821118 -0.0017490357 -0.0087087322
-0.0087385289 -0.0017490366 -0.0087087331
0.0052491478 -0.004253977 -0.0086464668
0.0057637114 -0.0042522661 -0.0086480053
0.0052431189 -0.0045474921 -0.0085922331
0.0052386378 -0.0027371645 -0.0087042535
-0.011243579 -0.00029150594 -0.0087087378
-0.010253213 -0.00029150597 -0.0087087369
-0.012583485 -0.0017490357 -0.0083592236
-0.012233944 -0.0017490365 -0.0077766944
-0.012192827 -0.0012346131 -0.0072524287
-0.012612614 -0.0017490356 -0.0086796125
-0.012612614 -0.0023320473 -0.0083009722
-0.012630092 -0.0012593057 -0.0087320386
-0.012641741 -0.0037895765 -0.0062621362
-0.012641741 -0.0027401559 -0.0062621366
-0.012641746 -0.0022737461 -0.0052135931
0.0092628449 -0.0045474921 -0.0082427179
0.0097288983 -0.0045474921 -0.0085922331
0.009262844 -0.0045474921 -0.0085922331
0.0082142204 -0.0045474926 -0.0085339807
0.0092628449 -0.0045474921 -0.0077766981
0.0097288992 -0.0045474921 -0.0077766981
0.0097288992 -0.0045474921 -0.0072524277
0.010194953 -0.0045474921 -0.0077766981
0.010194953 -0.0045474921 -0.0072524268
0.0092628421 -0.0045474921 -0.0067281546
0.0097289002 -0.0045474921 -0.0062621352
0.0092628449 -0.0045474921 -0.0062621352
0.010194954 -0.0045474921 -0.0067281546
0.009262844 -0.0045474921 -0.0052135922
0.0087385327 -0.0045474921 -0.0057378649
0.0087385317 -0.0045474921 -0.0052135922
0.010194953 -0.0045474921 -0.0062621352
0.0097288992 -0.0045474921 -0.0057378639
0.0097289002 -0.0045474921 -0.0052135922
0.0097288992 -0.0045474921 -0.0047475728
0.0062334868 -0.00075791526 -0.0087087387
0.0047188075 -0.0022737458 -0.0087087387
0.0082114441 -0.0012271011 -0.0087059624
0.0087385308 -0.0037895788 -0.0086504854
0.011243579 0.0017490359 -0.0087087359
0.0092628421 0.003789579 -0.00032038847
0.010253214 0.0042559858 -0.0047475724
0.010253213 0.0042559854 -0.0042815511
0.010777519 0.0042559863 -0.0052135903
0.01077752 0.0042559872 -0.0047475714
-0.0077365134 0.0012359851 0.00072815549
-0.0087385299 0.0012243246 -0.00032038847
-0.0092628431 0.0012243247 -0.00032038847
-0.0076899081 0.0015158309 0.00072815502
-0.010777522 0.0017490361 -0.00032038847
-0.010777523 0.0022737458 -0.00032038847
-0.010253212 0.0022737461 -0.00032038847
0.012635271 0.003290778 -0.0072524268
0.012641742 0.0022737461 -0.0062621371
0.012641744 0.0036146736 -0.0077767
0.01077752 0.0027401547 -0.0087087378
0.01170963 0.0037895779 -0.0086504854
0.011695568 0.0022697253 -0.008690658
0.01264174 0.0027401561 -0.0052135922
0.012641741 0.0027401557 -0.0057378653
0.012641743 0.0027401557 -0.0062621357
0.01169798 0.0012243248 -0.0086970879
0.010777518 0.0032648654 -0.0087087369
0.010773206 0.0042408723 -0.0086763743
0.0087385289 -0.00075791514 -0.0087087369
0.0057674302 -0.00029150592 -0.0087087387
0.0067577981 -0.0007579152 -0.0087087359
0.0077481628 0.0017490361 -0.008708735
0.007282109 0.0017490361 -0.0087087359
0.0077481628 -0.0037895776 -0.0086504845
0.0082142195 -0.0037895779 -0.0086504854
0.0072821099 -0.0022690818 -0.0086598042
0.0077481661 -0.00226675 -0.0086598061
0.0077276956 -0.0042512603 -0.0086158486
-0.012633421 0.0037895769 -0.0062538139
-0.012233947 0.0017490356 -0.0086504845
-0.012641743 0.00093281909 -0.0047475728
-0.012641743 0.00093281909 -0.0042815539
-0.012641748 0.0032648665 -0.0057378653
-0.012633422 0.0032648668 -0.0062538148
-0.012641746 0.0017490357 -0.0057378663
-0.012638678 0.0017398301 -0.0062590702
-0.01264174 0.0022737458 -0.0057378658
-0.012633418 0.0022737461 -0.0062538148
-0.012641745 0.0032648663 -0.0047475724
-0.012227816 0.0027329952 -0.0086443536
-0.011243578 0.0027401561 -0.0086504845
-0.012641746 -0.001224325 -0.0017184468
-0.012641743 -0.001224325 -0.0022427195
-0.012641741 -0.0012243249 -0.0032330104
-0.012641743 -0.00082787685 -0.0027320385
-0.012641745 0.0032648663 -0.0017184466
-0.012641745 0.0032648658 -0.00224272
-0.012641742 0.0027401559 -0.0017184468
-0.012641745 0.0027401561 -0.0012524277
-0.012641744 0.0022737461 -0.0017184468
-0.012641743 0.0027234985 -0.00034535397
-0.012233948 0.0022737458 -0.00032038847
-0.01170963 0.0022737461 -0.00032038847
-0.012641742 0.0022737461 -0.0032330104
-0.012641743 0.00093281909 -0.0037572817
-0.012641743 0.0027401557 -0.0042815534
-0.012641745 0.0012243249 -0.0032330104
-0.012641747 0.0012243249 -0.0047475724
-0.012641742 -0.00087451789 -0.0052135922
0.0057674311 0.0045474921 -0.0012524275
0.0057674306 0.0045474921 -0.00078640785
0.0052431193 0.0045474921 -0.00078640808
0.0047188075 0.0045474921 -0.00078640785
0.0017477063 0.00093281904 -0.0032330095
0.0017477066 0.00093281886 -0.0037572826
-0.0062334859 0.0037895788 -0.00032038847
-0.0067577986 0.0037895781 -0.00032038847
-0.0057674302 0.0032648661 -0.00032038847
-0.0082142204 0.0022737461 -0.00032038847
-0.0087385299 0.0022737458 -0.00032038847
-0.0077481633 0.0022737461 -0.00032038847
0.012233944 -0.0041393852 -0.00078640785
0.0097288983 -0.0037895788 -0.00032038847
0.010777518 -0.003789579 -0.00032038847
0.011709633 -0.0027401545 -0.00032038847
0.01223395 -0.0017490366 -0.00032038847
0.01077752 -0.0022737461 -0.00032038847
0.011243582 0.00075791538 -0.00032038847
0.012641743 -0.00029150597 -0.00032038847
0.012641741 -0.00075791538 -0.00078640785
0.010253215 -0.00075791526 -0.00032038847
0.010777518 -0.00029150597 -0.00032038847
0.011709632 -0.0007579152 -0.00032038847
0.0012178462 -0.0017434836 -0.00030651875
0.0023885318 -0.0012243249 0.00072815502
0.0024467891 -0.0015158309 0.00072815502
0.0017477068 -0.0017490366 -0.00032038847
0.0027380732 0.0045474921 -0.00078640808
0.003262385 0.0045474921 -0.0012524275
-0.00075733935 0.00075791532 -0.00032038847
0.0026215599 0.0012680509 0.0026140772
0.0025866055 0.0015391514 0.0026038834
0.00012710594 -0.0012225584 0.0026328326
0.0026215594 0.00093281904 0.0021844655
0.0026708541 -0.0009238497 0.0017811796
0.0026215597 0.00093281909 0.001776699
0.0037866973 0.0045474921 -0.00032038847
0.0022720178 0.0037895788 -0.00032038847
-0.0012192335 0.0032690312 -0.00030651875
-0.0017431377 0.0032614369 -0.00031467713
-0.0012233946 0.0027454549 -0.00031156233
-0.00019623374 0.0012826259 0.0026198258
-0.00016829764 0.0015676542 0.0026116502
2.9128441e-05 0.0015741321 0.0026213592
-0.0037866968 0.0045474921 -0.00037864083
-0.0047188075 0.0045474921 -0.00078640785
-0.0026798162 0.0012243248 0.0012524272
-0.002664072 0.0016072221 0.0012587248
-0.0026647828 0.0016136266 0.00073003443
0.0047188075 0.0045474921 -0.0042815539
0.0057674316 0.0045474921 -0.0062621352
0.003262385 0.0045474921 -0.0067281546
-0.0012233943 0.0045474921 -0.0047475728
0.00023302753 0.0045474921 -0.0057378644
0.00075733941 0.0045474921 -0.0062621352
0.00075733941 0.0045474921 -0.0057378639
0.0047188075 0.0045474921 -0.0047475728
0.0042527528 0.0045474921 -0.0047475728
0.0052431189 0.0045474921 -0.0072524268
0.0047188075 0.0045474921 -0.0067281546
0.0042527518 0.0045474921 -0.0062621352
0.0047188075 0.0045474921 -0.0072524277
0.0047188075 0.0045474921 -0.0062621352
0.0047188075 0.0045474921 -0.0077766981
0.0037866968 0.0037895788 -0.0087087359
-0.0052443459 0.0017428991 -0.0086995373
-0.0057674306 0.0012243248 -0.0087087369
-0.0052588643 0.0012353547 -0.0086992905
-0.0057658139 0.0017344602 -0.0086893179
-0.0057741166 0.00076460559 -0.0087001445
-0.0052543231 0.0007624001 -0.0086415233
0.0042527509 0.0032648654 -0.0087087369
-0.0027380737 0.0037895783 -0.0086504845
-0.0037866978 0.0037895779 -0.0086504845
-0.0037866971 0.0032648663 -0.0086504826
-0.0047210455 0.0022670189 -0.0086684087
-0.0052356031 0.0022699845 -0.0086579984
-0.005773141 0.002281748 -0.0086641898
0.0042527518 0.0045474921 -0.0082427189
0.0027368846 0.0037883881 -0.0086552398
0.0022720185 0.0045474921 -0.0082427189
0.0017477063 0.0045474921 -0.0082427179
0.0057674316 0.0045474921 -0.0082427179
0.0012233943 0.0045474921 -0.0082427179
-0.00029128446 0.0012243248 -0.004281553
-0.00075733953 0.0012243248 -0.004747571
-0.00029128441 0.0012243249 -0.0047475705
0.00023302753 0.0012243247 -0.004747571
0.012641743 0.001224325 -0.0017184468
0.012641745 0.0017490356 -0.0017184466
0.002272018 0.0045474921 -0.0022427186
0.0017477064 0.0045474921 -0.0022427184
0.0012233944 0.0045474921 -0.0022427184
0.0012233944 0.0045474921 -0.0027669906
-0.00075733941 0.0045474921 -0.0042815539
-0.00029128441 0.0045474921 -0.0047475728
-0.00029128441 0.0045474921 -0.0042815539
-0.0012233943 0.0045474921 -0.0042815539
0.00075733941 0.0042559863 -0.00032038847
0.00023302753 0.0045474921 -0.00032038847
0.00023302756 0.0042559858 -0.00032038847
0.00075733953 0.0045474921 -0.0017184468
0.0086802756 0.0045474921 -0.0047475728
0.01124358 0.0042559849 -0.0037572808
0.011243583 0.0042559868 -0.0042815516
0.0086802756 0.0045474921 -0.0042815539
0.011243581 0.0042559868 -0.0047475705
0.0092628449 0.0042559872 -0.0042815525
0.0082142185 0.0045474921 -0.0037572826
0.0077481647 0.0045474921 -0.0082427189
0.0077481642 0.0045474921 -0.0077766981
0.0072821104 0.0045474921 -0.0077766981
0.0077481652 0.0045474921 -0.0072524277
0.0072821095 0.0045474921 -0.0072524268
0.0067577981 0.0045474921 -0.007776699
0.0082142204 0.0045474921 -0.0082427189
0.009262844 0.0042559868 -0.0077766981
0.0092628449 0.0042559854 -0.0072524296
0.0097288974 0.0042559868 -0.0077767
0.0067577972 0.0045474921 -0.0072524277
0.0072821109 0.0032648663 -0.0087087397
0.0057674306 0.0032648668 -0.0087087359
0.0097288946 0.0042559858 -0.0072524296
0.0052431198 0.0045474921 -0.0022427184
0.0048353188 0.0012243249 0.0012524272
0.0048547401 0.0015546983 0.00072815502
0.0048353206 0.0012243248 0.00072815502
0.0051266053 0.00093281915 0.0012524272
0.0051685502 -0.00090949849 0.0012570876
0.0051756641 -0.00091440819 0.00073735276
0.0067578005 0.00075791526 -0.00032038847
0.0062334868 0.0012243248 -0.00032038847
0.0052431184 0.0032648668 -0.00032038847
0.0051557352 0.0015887077 0.00072815502
0.0042527518 0.0022737461 -0.00032038847
0.0037866966 0.0022737458 -0.00032038847
0.0032623857 0.0022737461 -0.00032038847
0.0026409784 0.001593566 0.00072815549
0.0032623846 0.0027401538 -0.00032038847
0.002629882 0.0015991185 0.0012482665
0.0037866966 0.0017490357 -0.00032038847
0.0047188066 0.0022737461 -0.00032038847
0.0026692247 0.0012402254 0.00072815502
0.0026215597 0.00093281909 0.00072815502
0.003262385 0.00075791526 -0.00032038847
0.0037866961 0.00075791526 -0.00032038847
0.0024001838 0.0016091128 0.00072815502
0.0027380739 0.0027401547 -0.00032038847
-0.0024467891 0.0015158309 0.002592233
-0.0024079513 0.0015417426 0.0021974109
-0.0023885323 -0.00093281898 0.0025339806
0.0051689739 -0.00090101827 0.001776699
0.0048935781 0.00093281904 0.0012524272
0.0037866964 0.0042559872 -0.00032038847
0.0037866968 0.0045474921 -0.0012524275
0.0047188075 0.0045474921 -0.0027669901
0.010777522 -0.0042400872 -0.0086398935
0.010253214 -0.0042358059 -0.0086325612
0.012641745 0.0017490356 -0.0057378663
0.012641744 -0.0027401559 -0.0047475728
0.012641743 -0.0012243249 -0.0032330104
0.012641741 -0.0017490359 -0.0047475719
0.012641741 -0.0022737461 -0.0042815539
0.01264174 -0.0022737458 -0.0047475719
0.012641739 0.001224325 -0.0052135917
0.012641743 0.0017490356 -0.0047475714
0.012641742 -0.0022737458 -0.0017184468
0.012641743 -0.0022737461 -0.0022427193
0.012641746 -0.0027401557 -0.0042815539
-0.0047188066 -0.0045474921 -0.0067281546
0.0027327775 -0.0032572935 -0.0087019289
0.0022720178 -0.0032648661 -0.0087087359
0.0032623855 -0.0042559872 -0.0086504836
0.0017493475 -0.0037789037 -0.0086865826
0.0017441029 -0.003263664 -0.0087033287
0.0022731598 -0.00377929 -0.0086641917
0.002272018 -0.0042559872 -0.0086504845
-0.0032478215 -0.00029150597 -0.0086213592
-0.0022690559 0.00022925215 -0.0086485101
-0.0032578169 0.00022863213 -0.0085956603
-0.0012233946 -0.0045474921 -0.0042815539
0.0097289002 -0.0045474921 -0.0067281546
0.011231926 -0.0042443275 -0.003233009
0.010777521 -0.0042559868 -0.0032330104
0.010194954 -0.0045474921 -0.0032330099
0.01077752 -0.0042559849 -0.0037572817
0.0097288992 -0.0045474921 -0.0022427186
0.0092628431 -0.0045474921 -0.0022427184
0.009262844 -0.0045474921 -0.0027669901
0.0097288992 -0.0045474921 -0.0027669901
0.010194952 -0.0045474921 -0.0022427184
0.011231929 -0.0042443271 -0.0042815525
0.010777518 -0.0042559863 -0.0042815525
0.01077752 -0.0042559868 -0.00474757
0.0024467891 -0.0015158309 0.0012524272
0.0024467891 -0.0015158309 0.001776699
0.0012233943 -0.0027454547 -0.00031156233
0.0017477069 -0.002740154 -0.00032038847
0.0012188127 -0.0032674868 -0.00029093493
0.002272018 -0.0037895788 -0.00032038847
0.0017477063 -0.0037895783 -0.00032038847
0.0022720178 -0.0032648661 -0.00032038847
0.001747706 -0.0032648668 -0.00032038847
0.0047188075 -0.0045474921 -0.0085922331
-0.0012233944 -0.0045474921 -0.0067281546
-0.0017477066 -0.0045474921 -0.0085922331
-0.0012233945 -0.0045474921 -0.0082427179
-0.0012233945 -0.0045474921 -0.0086504854
-0.0017477066 -0.0045474921 -0.008242717
-0.0017477066 -0.0045474921 -0.007776699
-0.0022720182 -0.0045474921 -0.0077766981
-0.0022720182 -0.0045474921 -0.0085922331
0.0027380732 -0.0045474921 -0.00032038847
0.012641741 -0.0012243249 -0.0012524277
0.012641741 -0.00075791543 -0.0012524277
0.01217569 0.0007579152 -0.0072524315
0.010777523 -0.0022737461 -0.0086504845
0.011243581 -0.0022737461 -0.0086504826
0.011243578 -0.0032648661 -0.0086504845
0.012230797 -0.0032617145 -0.0086489087
0.01077752 -0.0042559868 -0.0077767009
0.011230136 -0.0042156251 -0.007776699
0.010779981 -0.0017309705 -0.0086865816
0.011243579 -0.0012243249 -0.008708735
0.012606787 -0.0012593056 -0.008242717
0.012604046 -0.0012757671 -0.0072798394
0.012605331 -0.0012680509 -0.0078203874
0.012641744 -0.000291506 -0.0017184468
0.00075733947 -0.00093281915 -0.0042815539
0.00075733953 -0.00093281915 -0.0047475728
0.0012233944 -0.00093281915 -0.0042815539
0.00075733929 0.0012243247 -0.0047475719
0.0017477063 -0.00087451766 -0.0042815534
0.0017477062 -0.00087451754 -0.0037572822
0.0012233944 -0.00093281915 -0.0047475728
-0.0082142204 -0.0045474921 -0.0047475728
-0.0082142204 -0.0045474921 -0.0052135922
-0.0087385327 -0.0045474921 -0.0052135922
-0.01025321 -0.0045474921 -0.0047475728
-0.012214528 -0.0042365524 -0.0047475719
-0.011068807 -0.0045474926 -0.0067281555
-0.010777524 -0.0045474921 -0.0037572826
-0.010777522 -0.0022737458 -0.00032038847
-0.01170963 -0.0007579152 -0.00032038847
-0.01124358 -0.00029150594 -0.00032038847
-0.011243579 -0.0017490359 -0.00032038847
-0.010777524 -0.0012243248 -0.00032038847
-0.0062334877 -0.0022737461 -0.00032038847
-0.0067577986 -0.0022737458 -0.00032038847
-0.0057674311 -0.0022737461 -0.00032038847
-0.0037866971 0.0045474921 -0.0012524275
-0.0052431193 0.0045474921 -0.0012524275
-0.0017477062 -0.0042559854 -0.00032038847
-0.00075733947 -0.003789579 -0.00032038847
-0.00075733964 -0.0032648656 -0.00032038847
-0.003262385 -0.0027401545 -0.00032038847
-0.0032623857 -0.0022737458 -0.00032038847
-0.0037866961 -0.0027401545 -0.00032038847
-0.0027380739 -0.0022737461 -0.00032038847
-0.0027380732 -0.002740155 -0.00032038847
-0.0037866964 -0.0022737461 -0.00032038847
-0.0017477066 0.00093281886 -0.0037572826
-0.0012233948 0.0012243246 -0.0037572822
-0.0012233944 -0.00093281904 -0.0037572826
-0.0057674306 0.0045474921 -0.0027669906
-0.0067577977 0.0045474921 -0.0037572826
-0.0052019968 0.0012277542 0.001776699
-0.0051266053 0.00093281915 0.001776699
-0.0062334868 0.0012243247 -0.00032038847
-0.0012233945 -0.00093281915 -0.0047475728
-0.003262385 -0.0045474921 -0.0037572826
-0.0052431198 -0.0045474921 -0.0047475728
-0.0032623853 -0.0045474921 -0.0047475728
-0.0047188075 -0.0045474921 -0.0057378639
-0.0062334859 -0.0045474921 -0.0047475728
-0.0062334859 -0.0045474921 -0.0062621352
-0.0057674316 -0.0045474921 -0.0057378639
-0.0057674311 -0.0045474921 -0.0042815539
-0.0057674311 -0.0045474921 -0.0037572826
-0.011243578 -0.0022737458 -0.008708735
-0.010253213 -0.0022737461 -0.0087087369
-0.0097288964 -0.0012243248 -0.0087087387
-0.0092628431 -0.0012243248 -0.0087087369
-0.0092628421 -0.0017490359 -0.0087087397
-0.0097288927 -0.0017490361 -0.0087087341
-0.0095541282 -0.0045474926 -0.0081844665
-0.0092628431 -0.0045474921 -0.0067281546
-0.0087385327 -0.0045474921 -0.0067281546
-0.011709627 -0.0042559849 -0.0072524305
-0.011068807 -0.0045474926 -0.0072524277
-0.011068807 -0.0045474926 -0.0076019419
-0.012640248 -0.0032708461 -0.0082471995
-0.0077481652 -0.0045474921 -0.0082427179
-0.0072821099 -0.0045474921 -0.0082427179
-0.0052371128 -0.0032708761 -0.0087033315
-0.0037855969 -0.0037774781 -0.0086724665
-0.0092628449 -0.0045474921 -0.0077766981
-0.0097289002 -0.0045474921 -0.0077766981
-0.0097288992 -0.0045474921 -0.0072524268
-0.0097288992 -0.0045474921 -0.0062621352
-0.0097288992 -0.0045474921 -0.0052135922
-0.0067577981 -0.0045474921 -0.0067281546
-0.0072821095 -0.0045474921 -0.0067281546
-0.0087385317 -0.0045474921 -0.007776699
-0.010777524 -0.0045474921 -0.0057378639
-0.011702034 -0.0041951514 -0.0082452502
-0.011709631 -0.0032648665 -0.0086504836
-0.011233537 -0.002736134 -0.008690658
-0.0052431193 -0.0045474921 -0.0082427179
-0.0037866971 -0.0045474921 -0.0085922331
-0.003262385 -0.0045474921 -0.0082427179
-0.0037866968 -0.0045474921 -0.0082427179
-0.0037866973 -0.0045474921 -0.0072524268
-0.0047188075 -0.0045474921 -0.0082427179
-0.0087385317 -0.0045474921 -0.0057378644
-0.0072821099 -0.0045474921 -0.0052135922
-0.0012233945 -0.0022737461 -0.0086504826
-0.00075733941 -0.0022737461 -0.0086504845
-0.00075733959 -0.0017490356 -0.0086504845
-0.0022720182 -0.0045474921 -0.0082427189
-0.0027380737 -0.0045474921 -0.0085922331
-0.00029128438 -0.0045474921 -0.0032330095
0.00023590436 -0.0037874188 -0.00031679263
-0.00029128446 -0.0042559868 -0.00032038847
0.0047188061 -0.0042559868 -0.00032038847
0.0042527523 -0.0045474921 -0.00078640785
0.0047188071 -0.0045474921 -0.0012524275
0.005767432 -0.0037895786 -0.00032038847
0.0052431198 -0.0037895781 -0.00032038847
0.0057674302 -0.0032648663 -0.00032038847
0.0051848628 -0.0015158311 0.0022427179
0.0052172276 -0.0012210858 0.0017766985
0.0051719164 -0.001528787 0.0017831712
0.0048935781 -0.0015158309 0.00074757263
0.0051654433 -0.0015352651 0.0012621358
0.0052431198 -0.0022737461 -0.00032038847
0.0048935781 -0.0015158309 0.001291262
0.0048935781 -0.0012048912 0.0012588999
0.007456881 -0.00093281904 0.0012524272
0.0074568805 -0.00093281898 0.001776699
0.0023885323 0.00093281909 0.001776699
0.0026215599 0.00093281909 0.0012524268
0.0023885323 -0.0009094986 0.00073980587
-0.00016644827 -0.0011993386 0.0022427179
-0.00022243531 0.0012402253 0.001776699
-0.0023885313 0.0012243249 0.0022427179
-0.0023885313 0.001224325 0.001776699
-0.002407951 0.0015546983 0.001776699
0.0037866971 -0.0022737461 -0.00032038847
0.0042527528 -0.002740155 -0.00032038847
0.0037866971 -0.002740155 -0.00032038847
0.0042527528 -0.0022737458 -0.00032038847
0.0042527514 -0.0017490357 -0.00032038847
0.0027380737 -0.0045474921 -0.0012524272
0.0042527528 -0.003789579 -0.00032038847
0.0037866961 -0.0037895788 -0.00032038847
0.0042527514 -0.0032648654 -0.00032038847
0.0062334859 -0.0045474921 -0.00078640808
0.0012208619 -0.0037802847 -0.00029928237
0.00075733918 0.00023320477 -0.0022427191
0.00023302753 -0.00093281904 -0.0032330095
-0.00029128441 -0.0045474921 -0.0022427184
0.00023302753 -0.0045474921 -0.0027669901
-0.012641743 -0.0032648668 -0.0032330104
-0.0042527528 -0.003789579 -0.00032038847
-0.0052431179 -0.0042559854 -0.00032038847
-0.0062334859 -0.0045474921 -0.00032038847
-0.0057674311 -0.0042559868 -0.00032038847
-0.00075733924 -0.0027401547 -0.00032038847
-0.00028859565 -0.0027428458 -0.00031590741
0.00023171847 -0.0027512906 -0.00029093493
-0.0047188075 0.0045474921 -0.008242717
-0.0042915903 0.0045474921 -0.0085728159
-0.0042527523 0.0045474921 -0.0077766981
-0.0047188075 0.0045474921 -0.0072524268
-0.01077752 0.0042559868 -0.0052135913
-0.012208054 0.00023320474 -0.0077896472
-0.0062334873 0.0037895779 -0.0086504854
-0.0062299208 0.0027365857 -0.0086552398
-0.0097288955 0.0002332048 -0.008708735
-0.010777522 0.0007579152 -0.0087087378
-0.012233945 -0.00075791532 -0.0086504826
-0.01222655 0.00075884076 -0.0086615784
-0.0082142195 0.0012243248 -0.0087087359
0.0032548199 -0.0027348541 -0.008701927
0.0027380749 -0.0017490354 -0.0086504836
0.0027413715 -0.002285846 -0.0086724665
-0.0048935781 0.0012243248 0.0012524272
-0.0092628431 0.0032648668 -0.00032038847
-0.0087385317 0.0027401543 -0.00032038847
-0.009262844 0.0027401545 -0.00032038847
-0.0097288946 0.0017490359 -0.00032038847
-0.0097288936 0.0012243248 -0.00032038847
-0.0097288955 0.0022737458 -0.00032038847
-0.0092628468 0.00075791532 -0.00032038847
-0.0051341229 -0.00087639841 0.0012486689
-0.0048372 -0.001229967 0.00073003443
-0.0026798174 -0.0012243248 0.0012524272
-0.0026565138 -0.0015624721 0.0012524272
-0.0026798167 -0.001224325 0.001776699
-0.0026798167 -0.0012243252 0.00072815502
-0.0048547401 -0.00093281904 0.0018155337
-0.0076949741 -0.00088719197 0.00072562229
-0.0082142185 -0.00029150597 -0.00032038847
-0.0082142195 0.00023320477 -0.00032038847
-0.01025321 -0.00029150594 -0.00032038847
-0.0076316511 -0.00093281898 0.0025339806
-0.0048644496 -0.00093281898 0.0007572812
-0.0037866968 -0.00075791526 -0.00032038847
-0.0047188071 0.00023320477 -0.00032038847
-0.01263009 -0.0041743657 -0.0032330099
-0.01170963 0.0007579152 -0.00032038847
-0.0077481652 0.0045474921 -0.0037572826
-0.00029128435 0.00023320474 -0.00032038847
-0.00075733935 0.00023320474 -0.0022427188
-0.00029128455 0.00023320477 -0.0022427188
-0.00029128449 0.0012243248 -0.0032330095
-0.0032623853 0.002740154 -0.00032038847
-0.0037866968 0.0032648668 -0.00032038847
-0.0032623836 0.0032648665 -0.00032038847
-0.0037866978 0.0027401547 -0.00032038847
-0.0062334854 0.0022737461 -0.00032038847
0.00075733959 0.002740155 -0.00032038847
0.00075733953 0.0022737458 -0.00032038847
0.0012260833 0.0027428453 -0.00031590741
0.0012297117 0.0032634616 -0.0003098608
0.00075733929 0.0032648668 -0.00032038847
0.00075733941 0.003789579 -0.00032038847
-0.0097288983 0.0045474921 -0.0027087382
-0.0097289002 0.0045474921 -0.0022427184
-0.010777521 0.0042559868 -0.002766991
-0.01077752 0.0042559849 -0.0037572817
-0.012233946 0.0041976864 -0.0012524272
-0.01077752 0.0042443271 -0.0017145635
-0.010777522 0.0042559849 -0.0022427191
-0.011243578 0.0042559858 -0.0022427195
-0.010777521 0.0042559872 -0.0062621385
-0.0062334877 0.0032648661 -0.00032038847
-0.0057674316 0.0027401547 -0.00032038847
0.0082142204 0.0045474921 -0.00032038847
-0.0072821104 0.0045474921 -0.00078640808
-0.0072821099 0.0045474921 -0.0012524275
-0.0067577981 0.0045474921 -0.00078640785
-0.0062334863 0.0045474921 -0.00078640785
-0.0077481652 0.0037895793 -0.00032038847
-0.0082142185 0.0032648663 -0.00032038847
-0.0062334854 0.0045474921 -0.0022427184
-0.0072821104 0.0045474921 -0.0017184468
-0.0082142204 0.0045474921 -0.0022427184
-0.0077481652 0.0045474921 -0.0022427184
-0.0077481647 0.0045474921 -0.0027669901
0.0017477066 0.0045474921 -0.0012524275
0.0012233944 0.0045474921 -0.00078640785
-0.0022720185 0.0045474921 -0.0042815539
-0.0012233944 0.0045474921 -0.0032330095
-0.0022720187 0.0045474921 -0.0032330095
-0.0032623857 0.0045474921 -0.0057378644
-0.003262385 0.0045474921 -0.0052135922
-0.0037866973 0.0045474921 -0.0057378639
-0.002738073 0.0045474921 -0.0057378639
-0.0037866973 0.0045474921 -0.0052135922
-0.0032623853 0.0045474921 -0.0042815539
-0.0027380732 0.0045474921 -0.0052135922
-0.0022720185 0.0045474921 -0.0052135922
-0.0052431193 0.0045474921 -0.0052135922
-0.0047188071 0.0045474921 -0.0052135922
-0.0047188071 0.0045474921 -0.0047475728
-0.0057674306 0.0045474921 -0.0052135922
-0.0027380737 0.0045474921 -0.0062621352
-0.0022720182 0.0045474921 -0.0062621352
-0.0057674316 0.0045474921 -0.0077766981
-0.0062334854 0.0045474921 -0.0077766981
-0.0037866973 0.0045474921 -0.0067281546
-0.0052431198 0.0045474921 -0.0057378644
-0.0042527523 0.0045474921 -0.0067281546
-0.0047188075 0.0045474921 -0.0067281546
-0.0042527523 0.0045474921 -0.0062621352
-0.0047188071 0.0045474921 -0.0062621352
-0.0052431193 0.0045474921 -0.0082427179
-0.0042527523 0.0045474921 -0.0082427179
-0.0052431193 0.0045474921 -0.00078640808
-0.0037866973 0.0045474921 -0.003233009
-0.0057674311 0.0045474921 -0.0072524268
-0.0052431198 0.0045474921 -0.0067281546
-0.0072821099 0.0045474921 -0.0062621352
-0.00075733941 0.0045474921 -0.0057378639
-0.00029128441 0.0045474921 -0.0052135922
-0.0017477063 0.0045474921 -0.0062621357
-0.0017477062 0.0045474921 -0.0067281546
-0.0017477064 0.0045474921 -0.0057378649
-0.0027380735 0.0045474921 -0.008242717
-0.0018009697 0.0038112316 -0.0085938983
0.0002330275 0.0032085758 -0.0085580871
-0.00025095273 0.003148264 -0.0085429437
-0.00028912674 0.0027164037 -0.0085814456
-0.0077481647 0.0045474921 -0.0082427179
-0.0077481647 0.0045474921 -0.0067281546
-0.0092628431 0.0045474921 -0.0067281546
-0.00871264 0.0045474921 -0.0042944988
-0.0062334854 0.0045474921 -0.0057378639
-0.0092628431 0.0045474921 -0.0052135922
-0.00075733941 0.0045474921 -0.0067281546
0.00080265035 0.0037053642 -0.0085339807
-0.0012233944 0.0045474921 -0.0082427189
-0.00075733941 0.0045474921 -0.008242717
-0.0012233944 0.0045474921 -0.0067281546
0.00023302753 0.0045474921 -0.0072524268
0.00075733941 0.0045474921 -0.0072524268
0.0012233944 0.0045474921 -0.0077766981
0.0017477063 0.0045474921 -0.0077766981
0.00023302753 0.0045474921 -0.007776699
0.0092628449 -0.00075791538 -0.00032038847
0.011243584 0.0042559872 -0.0052135922
0.0097288964 0.0042559868 -0.0062621366
0.0097288946 0.0042559849 -0.0057378653
0.0092628431 0.0042559854 -0.0057378653
0.011243581 0.002740155 -0.00032038847
0.010253213 0.0017490364 -0.00032038847
0.0097288974 0.0017490359 -0.00032038847
0.0072821104 0.0045474921 -0.0022427184
0.0067577981 0.0045474921 -0.0017184468
0.011709635 0.0042559868 -0.0017184461
0.011709631 0.0042559868 -0.001252427
0.009262844 0.0042559854 -0.0022427193
0.0086802756 0.0045474921 -0.0062621352
0.009262844 0.0042559868 -0.0067281565
0.0077481642 0.0045474921 -0.0062621352
0.0086802756 0.0045474921 -0.003233009
0.011709633 0.0042559872 -0.00078640855
0.0077093276 0.0015546987 0.001776699
0.008738528 0.0022737461 -0.00032038847
0.0087385308 0.0027401545 -0.00032038847
0.0092628431 0.0022737461 -0.00032038847
0.010777521 0.0042559868 -0.00032038847
0.0086802756 0.0045474921 -0.00078640785
0.0097288992 0.0045474921 -0.00032038847
0.012635269 0.0032907783 -0.0082427189
-0.0087385289 -0.0012243246 -0.008708735
-0.0067608664 -0.00029457445 -0.0086995354
-0.0062334859 -0.0045474921 -0.0077766981
-0.010253209 -0.0045474921 -0.0017184468
-0.0087385317 -0.0045474921 -0.0017184468
-0.0092628431 -0.0045474921 -0.0017184468
-0.0077481652 -0.0022737461 -0.00032038847
-0.0087385308 -0.0037895783 -0.00032038847
-0.0082142195 -0.0042559868 -0.00032038847
-0.0051266062 -0.0012260916 0.0026363628
-0.0050489297 -0.0015546983 0.0025339806
-0.004851209 -0.0015476316 0.0022268309
-0.0048935781 0.0012826261 0.0025339806
-0.0032623853 0.0037895776 -0.00032038847
-0.0026642815 0.001609113 0.0017844657
0.0092628431 -0.0032648661 -0.00032038847
0.0067577986 -0.0027401543 -0.00032038847
0.0062334877 -0.0027401547 -0.00032038847
0.0077481661 -0.0022737458 -0.00032038847
0.0087385299 -0.0017490366 -0.00032038847
0.007736512 -0.0012126646 0.00072815549
0.0077481656 -0.0027401552 -0.00032038847
0.0057674302 -0.0022737461 -0.00032038847
0.012583485 -0.0041393843 -0.0022427186
0.012233946 -0.0041393857 -0.00224272
0.012641743 -0.0022737458 -0.002766991
0.012641743 -0.0027401554 -0.0037572822
0.012633421 -0.00376459 -0.0032330104
0.012233945 -0.0041393852 -0.0027669915
0.011231929 -0.0042443271 -0.0067281565
0.011693744 -0.0041870866 -0.0072524277
0.012233946 -0.0041393857 -0.0072524296
0.012583486 -0.004081083 -0.007776699
0.012583485 -0.004081083 -0.0072524277
0.012233945 -0.0041393852 -0.0067281565
0.012583482 -0.0032648668 -0.007776699
0.012583483 -0.0027401559 -0.0062621352
0.012583482 -0.0032648663 -0.0062621357
0.012583486 -0.004081083 -0.0082427189
0.011709633 -0.0041976864 -0.0062621366
0.012233946 -0.0041393857 -0.0057378653
0.012233946 -0.0041393852 -0.0062621371
-0.0086948397 -0.0045474921 -0.0086067962
-0.0077445246 -0.0032685101 -0.0086650476
-0.0072821085 -0.0032648656 -0.0086504836
-0.0062297285 -0.0022681039 -0.0087031024
-0.0062272125 -0.0032648658 -0.0086684078
-0.0082187029 -0.001744551 -0.0087042544
-0.0082241138 -0.0037928782 -0.0086724665
-0.0082142195 -0.0032648661 -0.0086504836
-0.002738073 0.0045474921 -0.0072524268
-0.0052481303 0.00023571236 -0.0086968346
-0.0047488171 0.0012402255 -0.0086151827
0.0022803401 -0.002748484 -0.0086837728
0.0022720178 -0.0022737461 -0.0086504836
-0.0067638042 -0.0017430262 -0.0087033315
-0.0062334873 -0.0017490353 -0.0086716656
-0.0057628332 -0.0017597753 -0.0086995391
-0.0057692528 0.00020223229 -0.0086777899
-0.003262385 0.00075791549 -0.0085922331
-0.0032623857 0.0012243249 -0.0085922321
-0.0037866973 0.00075791543 -0.008592234
-0.0037828137 0.0012048911 -0.0085961185
0.0012233946 -0.00029150597 -0.0086504836
0.0022720178 -0.000291506 -0.0086504845
0.0027380737 -0.00029150597 -0.0086504826
0.0017477064 -0.00075791526 -0.0086504854
0.0027380739 0.00074625522 -0.0086271847
0.002272018 0.001224325 -0.0086198263
0.0027396474 0.0012290521 -0.0086158486
0.0022720175 0.00023320477 -0.0086504836
0.0032920428 0.0012359851 -0.0086504845
0.0027399529 0.0026969004 -0.0086129038
0.00023968547 0.0027451527 -0.0085839117
0.00023609371 0.0022676091 -0.0085891671
0.0017705521 0.0038112979 -0.0086344946
0.0017399391 0.002728495 -0.0085728168
0.0012233943 0.0027295556 -0.0085657556
0.00074901705 0.0027484845 -0.0085617211
0.0022949676 0.0033284677 -0.0085939998
0.00075733947 0.0017490359 -0.0085922331
-0.00029128444 0.0022737458 -0.0085922331
-0.00073493295 0.0022513226 -0.0085787913
-0.00075733947 0.0017490357 -0.0085922321
-0.00029128438 0.0017490357 -0.0085922331
0.0032623853 -0.000291506 -0.0086504845
0.0032623855 -0.0012243247 -0.0086504836
0.0027380728 -0.001224325 -0.0086504864
0.0037899937 -0.0012320251 -0.0086724665
-0.0072821085 -0.0012243248 -0.0087087387
0.005251247 -0.0032635105 -0.008680285
0.0062334873 -0.0037895783 -0.0086504836
0.0027380737 -0.0042559872 -0.0086504854
0.0012233945 -0.0045474921 -0.0086504864
-0.011703993 -0.00028774462 -0.0087031005
-0.01077752 -0.00075791538 -0.0087087369
-0.012233946 -0.0022737458 -0.0086504854
-0.012583485 -0.0023903486 -0.0072524277
-0.012625432 -0.0027471518 -0.0082776677
-0.012606787 -0.0027401557 -0.006693203
-0.012583482 -0.0027401557 -0.0072524277
-0.012641743 -0.0022737461 -0.0062621357
0.0082142204 -0.0045474921 -0.0072524268
0.0077481652 -0.0045474921 -0.0072524268
0.0082142204 -0.0045474921 -0.0077766981
0.0082142195 -0.0045474921 -0.0052135922
0.0082142204 -0.0045474921 -0.0047475728
0.010194953 -0.0045474921 -0.0057378639
0.0092628431 -0.0045474921 -0.0047475728
0.010194953 -0.0045474921 -0.0017184468
0.01170963 -0.0041976864 -0.0022427198
0.0097289002 -0.0045474921 -0.0017184468
0.0087385327 -0.0045474921 -0.0017184468
0.0087385327 -0.0045474921 -0.0037572826
0.0087385317 -0.0045474921 -0.0042815539
0.0087385317 -0.0045474921 -0.0022427184
0.0087385327 -0.0045474921 -0.0062621357
0.0082142204 -0.0045474921 -0.0062621352
0.0087385317 -0.0045474921 -0.0067281546
0.0077481642 -0.0045474921 -0.0062621352
0.0077481652 -0.0045474921 -0.0057378639
0.0047296663 -0.0027391671 -0.0086939288
0.008218701 -0.0017475409 -0.0087042563
0.0082142195 -0.0032648663 -0.0086504836
0.0082192123 -0.0042409957 -0.0086072134
0.0092628449 0.0032648663 -0.00032038847
-0.010777521 0.0027401545 -0.00032038847
-0.0092628431 0.0017490359 -0.00032038847
-0.01124358 0.0017490357 -0.00032038847
0.010777518 0.0042559868 -0.0067281555
0.010253213 0.0042559854 -0.0077766981
0.011709634 0.0032648656 -0.0086504854
0.012641743 0.00093281909 -0.0047475728
0.012221683 0.0012273934 -0.0086566154
0.0082151452 -0.00075513916 -0.0087059634
0.0052481843 -0.00122179 -0.0086808754
0.0072821085 -0.0027401557 -0.0086504854
0.0087385289 -0.0032648656 -0.0086504854
-0.012641743 0.0027401554 -0.0057378663
-0.01263342 0.0027401561 -0.0067364769
-0.012641743 -0.00087451789 -0.0032330095
-0.012641743 -0.00029150594 -0.002592233
-0.012641741 0.0037895762 -0.0017184468
-0.012641743 0.0032648668 -0.0027669915
-0.012641742 0.0027401559 -0.002766991
-0.01264174 0.0017490361 -0.0032330104
-0.012641745 0.001749036 -0.0037572812
-0.012641747 0.0012243249 -0.0042815534
-0.012641744 0.0027401557 -0.0032330104
-0.01264174 0.0022737461 -0.0037572826
-0.012641741 0.0017490353 -0.0042815534
-0.012641746 0.0022737461 -0.0052135922
-0.01264174 0.0017490356 -0.0052135908
-0.012641743 0.001224325 -0.0037572822
-0.012641743 0.00093281909 -0.0032330099
-0.012641744 0.001224325 -0.0052135922
-0.012233945 0.0042559849 -0.0032330099
0.0052431198 0.0045474921 -0.0012524277
0.0042527523 0.0045474921 -0.00078640785
0.0077481642 -0.00091986329 0.00073462771
0.0073636705 0.0012476452 0.00072815502
-0.0042527518 0.0002332048 -0.00032038847
-0.0057674325 0.00023320472 -0.00032038847
-0.0052431189 0.0027401543 -0.00032038847
-0.0067577963 0.0032648668 -0.00032038847
-0.0072821095 0.0022737458 -0.00032038847
-0.007748167 0.0027401545 -0.00032038847
-0.0077287462 0.0015158312 0.0012653721
0.0097288946 -0.0042559872 -0.00032038847
0.011243582 -0.002740155 -0.00032038847
0.011709637 -0.0032648661 -0.00032038847
0.010777519 -0.0017490357 -0.00032038847
0.010253211 -0.0022737458 -0.00032038847
0.01170963 0.00075791514 -0.00032038847
0.0037866961 -0.0012243249 -0.00032038847
0.0037866971 -0.00075791526 -0.00032038847
0.0047188061 -0.0022737458 -0.00032038847
0.0027380746 -0.0027419215 -0.00031156233
0.0027380737 -0.0032648661 -0.00032038847
0.0027380735 0.0045474921 -0.0012524272
-0.0012205527 0.0017490358 -0.00031328434
-0.0023968548 0.0015658034 0.00072815502
-0.001747707 0.0017490364 -0.00032038847
-0.0017477063 0.0022737458 -0.00032038847
-0.00017477067 0.0016324334 0.00072815549
0.00022489877 0.0037814428 -0.00030006794
-0.00029443341 0.0037785487 -0.00028102845
-0.00029128452 0.0042559868 -0.00032038847
0.0026215594 -0.00093281898 0.0025339806
0.0024467891 -0.00093281898 0.0025339806
0.0023993205 -0.0012092098 0.0022276156
-0.00017477066 0.0016324333 0.001776699
-0.00017477067 0.0016324332 0.0012524272
0.0024134994 0.0015658034 0.0026005548
-0.0037866954 0.003789579 -0.00032038847
-0.0042527528 0.0037895788 -0.00032038847
-0.0047304584 0.0045474921 -0.00033203885
-0.0032623853 0.0045474921 -0.00037864083
-0.0032671739 0.004242409 -0.00033714576
-0.0032623836 -0.0032648661 -0.00032038847
-0.0027380742 -0.0032648661 -0.00032038847
-0.0026474511 -0.0015611765 0.0017572814
0.00075733924 -0.003274584 -0.00027184468
0.0037866968 0.0045474921 -0.0052135922
0.0032623853 0.0045474921 -0.0052135922
0.003262385 0.0045474921 -0.0042815539
0.0042527523 0.0045474921 -0.0052135922
0.0027380735 0.0045474921 -0.0047475728
0.0027380737 0.0045474921 -0.0042815539
0.0022720182 0.0045474921 -0.0047475728
0.0022720182 0.0045474921 -0.0052135922
0.0017477063 0.0045474921 -0.0047475728
0.0022720182 0.0045474921 -0.0042815539
0.0017477066 0.0045474921 -0.0042815539
0.0017477064 0.0045474921 -0.0037572826
0.0012233944 0.0045474921 -0.0032330095
0.0052431198 0.0045474921 -0.0042815539
0.0047188071 0.0045474921 -0.0057378639
0.0047188075 0.0045474921 -0.0012524275
0.0052431193 0.0045474921 -0.0027669901
0.0062334849 0.0045474921 -0.0037572826
0.0067577981 0.0045474921 -0.0047475728
0.0062334859 0.0045474921 -0.0042815539
0.0057674306 0.0045474921 -0.0057378639
0.0057674311 0.0045474921 -0.0052135922
0.0037866971 0.0045474921 -0.0067281546
0.0032623853 0.0045474921 -0.0062621357
0.0022720182 0.0045474921 -0.0067281546
0.0017477066 0.0045474921 -0.0062621357
0.002272018 0.0045474921 -0.0062621352
0.0027380735 0.0045474921 -0.0072524268
0.0017477066 0.0045474921 -0.0072524277
0.0022720182 0.0045474921 -0.0072524277
0.0012233944 0.0045474921 -0.0057378639
0.00075733941 0.0045474921 -0.0052135922
0.0012233944 0.0045474921 -0.0052135922
0.0012233945 0.0045474921 -0.0067281546
0.00075733953 0.0045474921 -0.0067281546
0.00023302753 0.0045474921 -0.0062621357
0.0042487355 0.0037755058 -0.0086906608
0.0042563202 0.0042524175 -0.0086552408
-0.0042527528 0.0042400872 -0.0086398935
-0.0042527528 0.0037895779 -0.0086504845
-0.0042516105 0.0027321531 -0.0086641908
-0.0037913574 0.0027448195 -0.0086644664
-0.0057638627 0.0027365864 -0.0086552389
0.0042760554 0.0045474921 -0.0086271856
0.0012428134 0.0038201157 -0.008561722
0.002738073 0.0045474921 -0.0077766981
0.0022720182 0.0045474921 -0.0077766981
0.00075733935 0.0042559872 -0.0082427207
-0.0052431189 0.0045474921 -0.0042815539
-0.00075733947 0.0045474921 -0.0032330095
-0.00075733941 0.0045474921 -0.0027669901
0.00023302753 0.0045474921 -0.0027669901
0.0017477066 0.0045474921 -0.0027669901
0.0022720182 0.0045474921 -0.0027669901
0.0017477066 0.0045474921 -0.0032330095
0.0022720182 0.0045474921 -0.0032330095
0.00075733941 0.0045474921 -0.0047475728
0.00023302753 0.0045474921 -0.0052135922
0.00023302753 0.0045474921 -0.0012524275
-0.00029128441 0.0045474921 -0.00032038847
-0.0017477066 0.0045474921 -0.0042815539
-0.00029128444 0.0045474921 -0.0027669901
0.0092628459 0.0042559854 -0.0037572808
0.0097288927 0.0042559858 -0.0037572808
0.010777522 0.0042559868 -0.004281552
0.011709632 0.0042559863 -0.004281552
0.0077481647 0.0045474921 -0.0047475728
0.0077481652 0.0045474921 -0.0042815539
0.0067577981 0.0045474921 -0.0082427189
0.0082142204 0.0045474921 -0.0072524268
