# .PCD v0.7 - Point Cloud Data file format
VERSION 0.7
FIELDS x y z
SIZE 4 4 4
TYPE F F F
COUNT 1 1 1
WIDTH 1191
HEIGHT 1
VIEWPOINT 0 0 0 1 0 0 0
POINTS 1191
DATA ascii
-0.01594997 0.00077954144 -0.013090329
-0.015950004 -0.0002226886 -0.013090378
-0.014189991 0.00022276276 -0.015735053
-0.014278037 0.00026721376 -0.015184037
-0.016720017 0.00022270216 -0.013200531
-0.015950041 0.001225047 -0.013090393
-0.016316731 0.0012250333 -0.013163787
-0.014629967 0.0012250637 -0.013751585
-0.013860009 0.00022279253 -0.016285989
-0.013860048 -0.00033409125 -0.016286019
-0.014299959 0.0012250626 -0.014743317
-0.014299939 0.0012250128 -0.014302519
-0.012649973 0.0017818178 -0.013090365
-0.013860031 0.0012250324 -0.013751525
-0.013859984 0.0016704085 -0.013751503
-0.014299967 0.0016704646 -0.014302539
-0.0072599729 0.0067932461 -0.00030799629
-0.0077000163 0.007238579 -0.00030804938
-0.0077000204 0.0062363935 -0.00030809082
-0.0087999366 0.0062363115 -0.00030804751
-0.0087999618 0.0067932336 -0.00030804565
-0.0082499404 0.0072386763 -0.00030806288
-0.0037400145 0.0027841432 -0.00030805077
-0.0047299615 0.0072386311 -0.010225358
-0.0056100325 0.0072385841 -0.011768002
-0.0052799894 0.0072385804 -0.011217076
-0.0056099496 0.0072386488 -0.012318969
-0.010780019 0.0072385794 -0.0017405176
-0.013749968 0.0072386023 -0.0052666869
-0.01122003 0.0072387015 -0.0032832706
-0.011769956 0.0072386861 -0.0027323016
-0.011770005 0.0072386214 -0.0032831957
-0.0077000107 0.007238619 -0.0087928846
-0.0077000544 0.0072385948 -0.0082418397
-0.00681999 0.0072386274 -0.009674429
-0.0087999804 0.0072386544 -0.0076908958
-0.0082500633 0.0072386102 -0.0076909452
-0.006819956 0.0072386134 -0.0072501684
-0.0072600101 0.0072386563 -0.0076909112
-0.0082499385 0.0072386139 -0.0062584146
-0.0082500549 0.0072386782 -0.0072501153
-0.010779986 0.0072386973 -0.0087928465
-0.010779962 0.0072386842 -0.008241972
-0.011219937 0.0072386139 -0.0087928381
-0.010229951 0.007238585 -0.0082418704
-0.011769994 0.0072385962 -0.0092336349
-0.011219947 0.0072386633 -0.010776282
-0.011219955 0.0072386269 -0.010225349
-0.011770045 0.0072386465 -0.010225378
-0.009679934 0.0072386479 -0.004274948
-0.0077000018 0.0072386311 -0.0048259804
-0.014739957 0.0042318068 -0.014302448
-0.010743365 0.0036750145 -0.013163861
-0.013914941 0.0041760742 -0.015184088
-0.013970048 0.0047886069 -0.015184075
-0.013969963 0.0047885748 -0.014743204
-0.013915021 0.0041760798 -0.014743313
-0.013969976 0.0052341111 -0.015183983
-0.013969961 0.0047885934 -0.01672674
-0.014740036 0.0052341111 -0.015184045
-0.016720017 0.0052340291 -0.013090346
-0.014739972 0.0052341004 -0.014302472
-0.01870003 0.0016704316 -0.01320056
-0.018259982 0.0022273185 -0.013200632
-0.018260051 0.001670454 -0.013200548
-0.018699991 0.0022273271 -0.013200598
-0.019250026 0.0016704061 -0.013200533
-0.019250054 0.0012250539 -0.013200581
-0.018699989 0.0012250239 -0.013200518
-0.012319959 0.0047886013 -0.013090351
-0.011769954 0.0047886968 -0.013090362
-0.0068199695 0.0072386782 -0.012759809
-0.0052579553 0.0072163446 -0.015735006
-0.0087999906 0.0072386577 -0.0096744057
-0.011219968 0.0052341209 -0.01309034
-0.0092399418 0.0072385813 -0.011768077
-0.0052800509 0.0016704915 -0.014743291
-0.0052799648 0.0012249768 -0.015183991
-0.0052800043 0.0042318427 -0.013751469
-0.0052800467 0.0047886716 -0.014302487
-0.0052799652 0.0036749633 -0.01474331
-0.0052799908 0.0032295887 -0.014743207
-0.0064899623 0.0032295776 -0.013200551
-0.0062700505 -0.0016704225 -0.00030799676
-0.0072600232 -0.0007794798 -0.00030798791
-0.0062699663 -0.00077951408 -0.00030810107
-0.0082499469 -0.001225014 -0.00030806893
-0.0077000661 -0.0022273082 -0.00030803913
-0.00022000045 -0.0022272505 -0.0001978334
-0.00074795057 -0.0022495578 -0.00028607063
-0.00010996631 -0.0028954647 0.0027773185
-0.00055002334 -0.0032295131 0.0027773948
-0.00077000173 -0.00077948353 -0.00030806707
-0.0001100162 -0.0028954362 0.0012347084
0.0013199489 -0.00033412853 -0.00030810898
0.0007700008 -0.0003341065 -0.00030804751
0.0017600205 -0.0016704389 -0.00030801166
0.0027500268 -0.0012249572 -0.00030803215
0.0033000065 -0.0012250307 -0.00030800793
0.0027499872 -0.0027840324 -0.00030800607
-0.0056832777 -0.0022273199 -0.00023458805
-0.0013199496 -0.0032294972 -0.00030808011
-0.0013200556 -0.0022272861 -0.00030808989
-0.0052800607 0.00022274177 -0.014302431
-0.0052800071 0.0012250026 -0.015735049
-0.00076994108 0.0012250046 -0.01320052
-0.00021999303 0.0012249886 -0.013200575
-0.0017599746 0.0022272095 -0.013200565
-0.0042899465 0.0007794858 -0.016726745
-0.0042899414 0.00022271913 -0.016726689
-0.004290048 -0.00033404704 -0.01430247
-0.0042899759 0.00022266066 -0.014302432
-0.0042900373 -0.00033404303 -0.01375148
-0.0042900271 0.00022278371 -0.013751525
-0.0042900206 0.00077949953 -0.013751518
-0.0042899861 0.00077949755 -0.014302494
-0.0027060471 -0.00033404891 -0.013178567
-0.0027059722 0.00022267239 -0.013178525
-0.011219996 -0.00077949127 -0.013200602
-0.014189969 -0.0007795433 -0.015184048
-0.014189938 -0.00077957968 -0.015734961
-0.010780054 -0.0012250224 -0.013200565
-0.01122002 -0.0012249636 -0.01320051
-0.014300052 -0.0012250375 -0.01474329
-0.013859986 -0.0016704832 -0.015735045
-0.013860063 -0.0016703914 -0.016285937
-0.01377003 -0.0016603656 -0.015173974
-0.013860043 -0.0012249962 -0.015735032
-0.013859945 -0.0012249732 -0.016285896
-0.01177002 -0.0012249739 -0.01320058
-0.013859995 -0.0022272663 -0.015734956
-0.01374994 -0.0022273241 -0.014743242
-0.0096800067 0.0027841411 -0.013200546
-0.0096800374 0.00022277216 -0.013200528
-0.0056100502 0.00066812657 -0.016286014
-0.0092399474 -0.00033412353 -0.01320054
-0.0092400461 -0.0007794862 -0.013200525
-0.0088000577 -0.00077958847 -0.013200535
-0.008249959 -0.0007796053 -0.013200617
-0.0056100334 -0.0012250207 -0.016286004
-0.0052799541 -0.0016704377 -0.01430246
-0.0052799825 -0.0022273012 -0.014302472
-0.0052799797 -0.0003341132 -0.014302466
-0.0052799797 -0.00033415426 -0.014743299
-0.0052799992 0.00022278036 -0.014743328
-0.0042349682 -0.0022829883 -0.017277688
-0.0017379532 -0.0022050028 -0.013178492
-0.0041800044 0.0036749914 -0.017277751
-0.0013199911 0.003674994 -0.013200594
-0.01386001 -0.00033403048 -0.016726725
-0.0056099864 -0.00033407571 -0.017277624
-0.0022156988 -0.0042000306 -0.013121861
-0.0041800193 -0.0042318162 -0.015184098
-0.0041799759 -0.0036750024 -0.01518401
-0.0041799494 -0.004231757 -0.014743207
-0.0041800607 -0.0036750184 -0.014743278
0.0041799513 0.0047885752 -0.014302513
0.0041800593 0.0042318171 -0.014302542
0.0013200585 0.0047886302 -0.013090323
0.0042900229 0.00022269617 -0.014302466
0.0042899391 -0.00033409553 -0.01430246
0.0042900359 0.00022270996 -0.014743319
0.0042899866 -0.00033404151 -0.014743324
0.0022000056 0.0016704423 -0.013200518
0.0017600186 0.0016705132 -0.01320062
0.0017599504 0.0022273217 -0.013200549
0.004290048 0.0016704709 -0.016285896
0.0042899763 0.0016704471 -0.016726786
0.0042899889 0.0012249431 -0.015735004
0.0042350343 0.0022829762 -0.016726732
0.004290041 0.00077959098 -0.015734965
0.0042899684 0.0016704345 -0.017277673
-0.00021995018 0.00077961176 -0.01320051
0.00428994 0.0012250096 -0.016726686
0.0042900653 0.0012249842 -0.016285975
0.00076999195 0.0007796071 -0.013200547
0.0072600259 0.0022272852 -0.013200536
0.0013199953 0.002784136 -0.013200623
0.004202005 0.0027840773 -0.015779041
0.0042166244 0.0042318404 -0.015220703
-0.0042900573 -0.00077960495 -0.016285999
-0.0042900569 -0.0012249898 -0.01628598
-0.0042900662 -0.00033410438 -0.016726773
-0.00021999769 -0.0012249839 -0.013200512
-0.0042899693 0.0016704691 -0.015735013
-0.0017599518 -0.0016705004 -0.013200531
-0.0013200135 -0.0016705074 -0.013200531
-0.0013200138 -0.0012250354 -0.013200616
0.0017600185 -0.0012249924 -0.013200583
-0.0042900196 0.0012249931 -0.017277636
-0.0042900294 0.0012249943 -0.016726777
-0.00077004696 0.0027840608 -0.01320057
0.0042349631 0.0022829173 -0.014302512
0.0027499683 0.0022272388 -0.013090402
0.0017600575 0.0056795683 -0.013090359
0.0027500468 0.002784143 -0.013090365
0.0027499492 0.0032295072 -0.013090339
0.0042019486 0.0036526818 -0.018203296
0.017269991 -0.0047886623 -0.013090324
0.01473996 -0.005234065 -0.014302518
0.017819954 -0.0052340771 -0.013090333
0.018699991 -0.0062363041 -0.013090348
0.017309971 -0.0042116167 -0.013130463
0.0042899433 0.00022275062 -0.016285937
0.00077000441 -0.00033404722 -0.01320054
-0.023430007 -0.00033407263 -0.016285975
-0.023430029 0.00022274273 -0.016285952
-0.024144968 0.00027835596 -0.013751582
-0.023430046 0.0002672472 -0.014280503
-0.024530016 0.0028955191 -0.012759806
-0.024530044 0.0032295461 -0.012759802
-0.024529958 0.0032294986 -0.013200508
-0.024200011 0.0016704981 -0.013200562
-0.024530051 0.0047885813 -0.014302528
-0.014300057 0.0012249965 -0.016285999
-0.012283287 -0.00033407062 -0.013163773
-0.011219992 0.0032295086 -0.013090402
-0.011219955 0.0036749728 -0.013090408
-0.01265001 0.0027841059 -0.013090391
-0.014299977 -0.0012250325 -0.014302524
-0.014300066 -0.0016704246 -0.014302546
-0.014299965 -0.0016705145 -0.014743252
-0.01430001 -0.0022273099 -0.015183978
-0.014190067 -0.0003341386 -0.015735043
-0.014189997 -0.0012250344 -0.01573498
-0.013859946 -0.00077961106 -0.016285893
-0.016720003 -0.00077949825 -0.013200551
-0.0096799796 0.0052341036 -0.013090363
-0.010229962 0.0047886712 -0.013090394
-0.013859959 -0.0022273134 -0.017277699
-0.0052800351 -0.0056794975 -0.013751585
-0.0052800602 -0.0032294986 -0.014743322
-0.0068199453 -0.00077952311 -0.013200552
-0.0068199383 -0.001670426 -0.013200564
-0.0056099654 -0.0042318059 -0.015845168
-0.0072599365 -0.0032294833 -0.013200575
-0.0072599608 -0.0027841162 -0.013200546
-0.0067979367 -0.002806399 -0.013134502
-0.0031900133 -0.0056795268 -0.013090324
-0.0027500049 -0.0067932392 -0.013090359
-0.0022000256 -0.0072386838 -0.013090388
-0.0041799638 -0.0056795613 -0.014743242
-0.004179961 -0.0052341032 -0.015734997
-0.0041800574 -0.0047886837 -0.015735
-0.0076999394 -0.0062363679 -0.013090395
-0.0072600632 -0.0072385706 -0.0096744373
-0.0072600623 -0.0072386577 -0.0092336005
-0.0068199812 -0.0056795808 -0.0130904
-0.0042900555 -0.0072015664 -0.014779961
-0.0022000205 -0.0067931917 -0.013090402
-0.0032999348 -0.0072386828 -0.0096744578
-0.0033000526 -0.0072386041 -0.0068094009
-0.0021999388 -0.0072385902 -0.0068093473
-0.003740066 -0.0072386102 -0.0082419496
-0.02024002 -0.007238633 -0.013090327
-0.018699946 -0.0072386567 -0.013090358
-0.019249972 -0.0072386144 -0.012759753
0.01022999 -0.007238646 -0.010776275
0.010779963 -0.0072386418 -0.010776378
0.01023006 -0.0072386004 -0.0087928586
0.010229954 -0.0072386838 -0.0092336563
0.011220052 -0.0072386074 -0.010776354
0.010779954 -0.0072386046 -0.011217095
0.0064900443 -0.0067931209 -0.01309035
0.0072600511 -0.0072386959 -0.011217128
0.0076999459 -0.0072386651 -0.011217086
0.0076999422 -0.0072386586 -0.010776348
0.0087999683 -0.007238667 -0.0092336517
0.0072600269 -0.0072386274 -0.0087929256
-0.020240042 0.0047886386 -0.01309034
-0.013969949 0.0012249748 -0.016726702
0.0052799685 -0.0022272363 -0.016726773
0.0092399884 -0.0027840699 -0.013200579
0.010230029 -0.00077957578 -0.013200596
0.0092400331 0.00022266866 -0.01320052
-0.0041800467 -0.0062364098 -0.016726695
-0.00077002071 -0.0067932354 -0.013090335
-0.0042900532 0.00022278939 -0.017277677
-0.0042899866 -0.0016704825 -0.016285934
-0.0042900527 -0.0016704758 -0.015735053
-0.00077002554 -0.0016704885 -0.013200613
0.010779959 0.0012250654 -0.013200564
0.011219991 0.00077952608 -0.01320052
0.010230025 0.0002227776 -0.013200518
0.021230055 0.0072386074 -0.0027322718
0.020679971 0.0072385897 -0.0021812748
0.019800007 0.0072386945 -0.0087928521
0.019800052 0.0072386782 -0.0092336563
0.019249976 0.0072386842 -0.0092336768
0.019249996 0.0072386554 -0.0048259795
0.020239985 0.0072386977 -0.004825965
0.020680008 0.0072385916 -0.0042749145
0.018699994 0.0072386996 -0.0032832483
0.018699985 0.0072385836 -0.0027322285
0.020239983 0.007238701 -0.010776387
0.020239959 0.0072386698 -0.0092335772
0.020679986 0.0072386353 -0.0092336107
0.022220045 0.0072386679 -0.0096743973
0.021779958 0.0072385995 -0.0096743582
0.022769978 0.0072386079 -0.0092336414
0.021230053 0.0072385939 -0.010776388
0.01980002 0.0072386577 -0.011768086
0.019800032 0.0072386563 -0.011217129
0.020240003 0.0072386093 -0.01176811
0.019249968 0.0072386456 -0.011768105
0.01925006 0.0072385748 -0.012319015
0.020679949 0.0072385934 -0.012319021
0.02123007 0.0072385916 -0.011768002
0.024200028 0.0071272426 -0.0068093655
0.024530025 0.0067932056 -0.015184019
0.024530061 0.0052340934 -0.013751525
0.024530061 0.0047886921 -0.013200603
0.024529936 0.0052341195 -0.013200528
0.023429945 0.007127265 -0.012759778
0.024199978 0.0071272328 -0.012759854
0.024573982 0.0067709517 -0.0087708402
0.024200007 0.0071273041 -0.008241863
0.023759952 0.0071272771 -0.0072501116
0.023759991 0.0071272268 -0.0076908804
0.0242 0.0071272664 -0.011217115
0.024199935 0.0036750657 -0.010776397
0.02419994 0.0027841327 -0.011217112
-0.024529988 -0.0052341032 -0.016285989
-0.024529951 -0.0056795287 -0.015734997
-0.024529947 -0.0047885799 -0.014743326
-0.02452994 -0.0047886777 -0.015184022
-0.02452996 -0.0056795031 -0.011768073
-0.024529977 -0.004231758 -0.011217045
-0.024529971 -0.004788585 -0.012318999
-0.024199961 -0.0032295615 -0.012759832
-0.024529997 -0.0042318506 -0.012759756
-0.024200007 -0.0036750494 -0.012319028
-0.024530033 -0.0056795669 -0.013200501
-0.024529953 -0.0052340799 -0.012759808
-0.02452994 -0.0047886819 -0.012759753
-0.02166996 0.0036750028 -0.013090324
-0.023389993 0.0022070233 -0.013711482
-0.023374993 0.0016704856 -0.01369643
-0.02342999 0.0022273036 -0.014302534
-0.021779951 0.0027840682 -0.013090422
-0.022220027 0.0032295159 -0.013090355
-0.023430048 0.0016704346 -0.014743254
-0.023429958 0.0022272794 -0.014743209
-0.02343001 0.0012249579 -0.015073832
-0.023319967 0.0056795049 -0.014302463
-0.022219965 0.0056794975 -0.01309044
-0.024618033 0.0052340529 -0.01370744
-0.02452998 0.0036749379 -0.013641298
-0.024529947 0.0042317947 -0.014302459
-0.023375034 0.0042874357 -0.01518403
-0.02342994 0.0036750215 -0.014743261
-0.023374975 0.004287452 -0.016286001
-0.024529984 0.0036749947 -0.016726684
-0.024199994 0.0022272277 -0.014743204
-0.024199966 0.0027840943 -0.014743201
-0.024200052 0.0022273331 -0.01518406
-0.020679958 0.0056795641 -0.013090409
-0.019763373 0.0027840643 -0.013163865
-0.020239946 0.0027840571 -0.013200536
-0.019250017 0.0036749935 -0.013178541
-0.018699981 0.0036749789 -0.013200626
-0.023319941 0.0056795245 -0.016726745
-0.024529954 0.0047886963 -0.016726758
-0.024530061 0.0047886325 -0.016285922
-0.024200002 0.0022273047 -0.017277665
-0.024529969 -0.0047886162 -0.010225387
-0.024530051 -0.0042318604 -0.0096744513
-0.024530008 -0.0047886893 -0.0096743619
-0.024530001 0.0032295897 -0.010225389
-0.024529971 0.0028954239 -0.010225362
-0.024529956 0.0028954798 -0.010776335
-0.024530008 0.002895473 -0.0087928763
-0.024530042 0.0032294872 -0.008792825
-0.024530038 0.0028954719 -0.0082418723
-0.024530038 0.0032295634 -0.0092336461
-0.024529938 0.0028954379 -0.0092336917
-0.024530036 0.0028954679 -0.0096744522
-0.020680059 0.0072386609 -0.0076909601
-0.022769937 0.0072386558 -0.0072502042
-0.023319947 0.0072385888 -0.0092336629
-0.022219982 0.007238599 -0.0092336982
-0.023760054 0.0071272193 -0.0082418779
-0.024530035 0.0067932331 -0.0087929098
-0.023760047 0.0071273283 -0.0096743777
-0.024639998 0.0056795673 -0.0096744206
-0.024529984 0.0067931474 -0.0048259646
-0.018259963 0.0072386693 -0.0027322648
-0.023333741 0.0062085725 -0.013765255
-0.022220068 0.0042317775 -0.013090436
-0.023870066 0.007127305 -0.011768103
0.01517996 0.0062364214 -0.01309044
0.011769961 0.006793241 -0.013090439
0.019799955 0.0062363269 -0.013090344
0.017270027 0.0072386186 -0.009674469
0.01671995 0.0072385757 -0.0096743647
0.0088000298 0.0072386721 -0.0057075145
0.024530053 0.0052340943 -0.010225314
0.024199987 0.0027840463 -0.0037240505
0.024200024 0.0027841036 -0.0032833079
0.024199944 0.0032295773 -0.0052667307
0.020679982 0.0072385771 -0.0037240619
0.024529982 -0.0041761221 -0.00179569
0.024529934 -0.0036750466 -0.0021813824
0.024529964 -0.0047886702 -0.0042749345
0.020680018 0.0032295054 -0.00030801166
0.020239938 0.0036750475 -0.00030805496
0.0076999655 0.0062363804 -0.00030805171
0.0092399819 0.0062363027 -0.00030804053
0.009240062 0.0072386162 -0.0076909917
0.0047299936 0.0052341479 -0.00019785808
0.0052799336 0.0052341209 -0.00030802796
0.0047299643 0.0042317612 -0.00019790046
0.0041799336 0.0047886693 -0.00019782688
-0.00021993788 0.0072386535 -0.0027322564
0.0052800523 -0.00033410711 -0.00019786181
0.0052799606 -0.00077951816 -0.00019786088
0.024530061 -0.0032295522 -0.00074880105
0.024200024 -0.00077958102 -0.0021812618
0.02420003 -0.0016704806 -0.0017405679
0.024529966 -0.0028954397 -0.0032832525
0.024200043 -0.001224972 -0.0027322737
0.024199933 -0.001670476 -0.0027323458
0.02419994 -0.00077952974 -0.0027322923
0.024199961 0.0036527605 -0.00070479605
0.023319963 0.0022273108 -0.00019785808
0.024163337 0.0016705211 -0.00023462065
-0.0042899698 -0.0016704515 -0.014302543
-0.0042899535 -0.001670431 -0.014743269
-0.0042900075 -0.001670463 -0.013751525
-0.0027186337 -0.00324541 -0.013121852
-0.0031900229 -0.0027840757 -0.013090417
-0.0041800067 -0.0027840917 -0.014743254
0.010779967 -0.007238633 -0.010225313
0.010229941 -0.0072386325 -0.010225397
0.010230065 -0.0072385748 -0.0096744122
0.010780027 -0.0072386009 -0.0092336014
0.0072599561 -0.0072386572 -0.0096744085
0.0076999487 -0.00723864 -0.0096743992
0.0072600064 -0.0072386628 -0.0092336945
0.0076999427 -0.0072386633 -0.0092335744
0.007700027 -0.0072386297 -0.010225412
0.0072599482 -0.0072386106 -0.010225335
0.015950004 -0.0012250119 -0.013090378
0.016279945 -0.00033410903 -0.013200529
0.013896676 -0.0017076184 -0.015735045
0.013860065 -0.0032295079 -0.014302478
0.024163377 0.001707528 -0.015735038
0.024200046 0.0027841488 -0.015184076
0.021229954 -0.0062364121 -0.013090316
0.020680025 -0.0072386176 -0.011217122
0.0052800295 -0.0016704343 -0.014302529
0.0052800286 -0.0022272302 -0.01474328
0.0068199639 -0.0021715325 -0.013145538
0.0052800644 -0.0027841467 -0.014302502
0.0052799778 -0.002784115 -0.016285963
0.00318997 -0.0027841388 -0.013090326
0.0042899437 -0.0022272866 -0.013751531
-0.024530027 -0.0052340673 -0.018159214
-0.014740026 -0.0062363883 -0.016286001
-0.014739985 -0.0062362971 -0.016726758
-0.014740055 -0.0036750147 -0.018159181
-0.013896611 -0.0017075512 -0.017828595
-0.0056099817 -0.0016704978 -0.01782861
-0.0056100353 -0.0027840843 -0.017828718
-0.005279948 -0.00077954988 -0.018159248
-0.0092400284 -0.0032295363 -0.013200501
-0.0092400005 -0.002784139 -0.013200596
-0.0047299392 -0.003229524 -0.018159235
0.0052800402 -0.0042318427 -0.014743307
0.0052799894 -0.0042317617 -0.015184084
0.00528005 -0.0047886791 -0.015184022
0.0052800556 -0.0036750543 -0.015183974
0.0052800076 -0.0036750177 -0.014743222
0.005279955 -0.0032295759 -0.014743256
0.0092399772 -0.0032295971 -0.013200528
0.0092400024 -0.003674984 -0.013200507
0.0042899796 -0.0047886935 -0.015184075
0.0052800649 -0.005234052 -0.015735025
0.005280002 -0.0056795464 -0.015735004
0.0082500409 -0.005234126 -0.013090383
0.0042900061 -0.0067931996 -0.015184093
0.0052799978 -0.0067932294 -0.01518403
0.0052799797 -0.0062363115 -0.015184085
0.0042899698 -0.0062363776 -0.01727768
0.0052799843 -0.0056795971 -0.014302494
0.005279935 -0.0056795287 -0.014743291
0.0052800258 -0.005234052 -0.014743234
0.0052799601 -0.0062363348 -0.01573503
0.0077000116 -0.0067931549 -0.013090318
0.0072600432 -0.006236379 -0.013090359
0.0072600599 -0.005679511 -0.0130904
0.0072600162 -0.0072386321 -0.012759775
0.0052800314 -0.0056795687 -0.015184005
0.0052799485 -0.0052341525 -0.015183972
0.0082500186 -0.0072386293 -0.011768056
0.0082500642 -0.0072386637 -0.012319033
0.0052799797 -0.0047886367 -0.016726714
0.0052799359 -0.0047886376 -0.016285937
0.0096799973 -0.0052341376 -0.013090339
0.010229986 -0.005234146 -0.013090344
0.010779968 -0.0056795161 -0.013090421
0.010779966 -0.0067932056 -0.013090325
0.0092399949 -0.0062363879 -0.013090372
0.010229972 -0.0067931213 -0.013090339
0.011220041 -0.0042318157 -0.013090388
0.0087999944 -0.0072386428 -0.013090314
0.011220013 -0.0072386349 -0.012759847
0.010780008 -0.0072386763 -0.01231906
0.010779961 -0.0072386214 -0.012759743
0.0096800206 -0.0072386661 -0.012318987
0.0072599938 -0.00077957043 -0.013200554
0.0064900285 -0.0012249849 -0.013090378
0.0072820052 -0.0032072279 -0.013134493
0.0072599472 -0.0036749376 -0.013090379
0.0052799792 -0.0036750108 -0.014302451
0.005279941 -0.0042318199 -0.014302518
0.0042900126 -0.0042317742 -0.015735028
0.0042899884 -0.0047886344 -0.017277744
0.00077002443 -0.0047515291 -0.013163868
-0.004180037 -0.0042318087 -0.016286012
0.0027256031 -0.0032419639 -0.013163874
0.0042899991 -0.0027841369 -0.014743211
0.0017233054 -0.0027841446 -0.013163811
0.0042900159 -0.002227261 -0.015184029
-0.004180002 -0.0032295878 -0.016285922
-0.0041799787 -0.0032295894 -0.017277651
-0.0041800193 -0.0036750406 -0.0178286
-0.00077005592 -0.0062363739 -0.013090419
-0.001320036 -0.0067932187 -0.013090417
-0.0017600061 -0.006236413 -0.013090435
-0.0017600467 -0.0067932331 -0.013090383
-0.0021999672 -0.0062364149 -0.013090346
-0.0042900313 -0.0067932098 -0.015735026
0.0042900261 -0.0052340669 -0.014743306
0.0042900597 -0.0052340846 -0.01518405
0.0042899973 -0.0062363474 -0.014302483
-0.0013199596 -0.0072386987 -0.0057074511
-0.0013200059 -0.0072385757 -0.0052667214
-0.00076994463 -0.0072386693 -0.0037240435
-0.00022004092 -0.0072386409 -0.004825931
-0.0013199606 -0.0072386162 -0.0048259757
-0.0041799964 -0.0072385999 -0.0052667204
-0.0037400031 -0.0072386996 -0.00427503
-0.0033000316 -0.0072385957 -0.0037240256
-0.0033000552 -0.0072386204 -0.0042749401
-0.0041799499 -0.0072386796 -0.005707534
-0.004179968 -0.0072385711 -0.0062584635
-0.01176999 -0.0062364051 -0.013090407
-0.010229982 -0.0072386246 -0.011217089
-0.024089972 -0.0003340996 -0.015734991
-0.024090057 -0.0007795603 -0.016285922
-0.024089942 -0.0012249792 -0.01573495
-0.024130024 0.00026322872 -0.015734974
-0.024089983 0.00077960739 -0.015184031
-0.024089942 0.00022270609 -0.015183981
-0.024199937 -0.0027841053 -0.014743298
-0.019250024 -0.00077948219 -0.013200575
-0.019799955 -0.000779561 -0.01320059
-0.019800045 -0.0003341485 -0.01320063
-0.019250065 -0.00033404201 -0.013200531
-0.017270027 0.0016704674 -0.013200564
-0.017269954 0.0012249418 -0.013200599
-0.017820042 0.0012250536 -0.01320062
-0.014300015 0.001670392 -0.015734937
-0.014630066 0.0028212173 -0.015147365
-0.014630063 0.0022273182 -0.014302437
-0.01671998 0.0036749484 -0.013090392
-0.016720057 0.0032295291 -0.013090393
-0.017270004 0.0032295128 -0.013090399
-0.017820058 -0.00033403604 -0.013200585
-0.018699979 0.00077958422 -0.01320054
-0.01925002 0.00077958353 -0.013200544
-0.014630017 0.0032295652 -0.015734997
-0.014630057 0.0032295822 -0.016285915
-0.013896684 -0.0017076131 -0.018159188
-0.01385995 -0.0016704509 -0.017277643
-0.013850034 -0.0022070794 -0.017818609
-0.024089977 -0.0012250554 -0.012319034
-0.02419994 -0.002784075 -0.013751587
-0.024200058 -0.0022273357 -0.013751535
-0.024199968 -0.0027840827 -0.0087928586
-0.024199935 -0.0032294882 -0.012319022
-0.024200015 -0.0032295831 -0.011768112
-0.024089998 -0.00033412719 -0.012319015
-0.024090031 -0.00033408109 -0.011768086
-0.024144987 0.00027844714 -0.011768089
-0.024144948 0.00027838492 -0.011217127
-0.02068004 -0.00033408581 -0.013200518
-0.02122999 -0.0007795532 -0.013200589
-0.021229954 -0.00033407152 -0.01320054
-0.020680049 -0.00077959319 -0.013200538
-0.023429986 -0.00077956717 -0.015735054
-0.023320029 -0.001670499 -0.015734937
-0.023430007 -0.0012250114 -0.015184024
-0.023429995 -0.00077958417 -0.015184013
-0.02023996 -0.00077951176 -0.013200583
-0.020240063 -0.00033414588 -0.013200519
-0.023430049 -0.00033411093 -0.014743304
-0.023430057 -0.00077948009 -0.014743265
-0.023430062 -0.00033408502 -0.014302438
-0.024199972 -0.0032295671 -0.013200529
-0.014739972 -0.00523414 -0.018159224
-0.012649959 -0.0032295524 -0.013090394
-0.01374996 -0.0032295936 -0.014280394
-0.015949968 -0.0022272954 -0.013090322
-0.01466139 -0.0027999808 -0.01372008
-0.014670049 -0.0022070177 -0.013711443
-0.014630002 -0.0047886949 -0.017277695
-0.013676709 -0.0036749966 -0.014780055
-0.014629935 -0.0042318287 -0.014743205
-0.023319956 -0.0032295606 -0.01430254
-0.023335675 -0.0027999724 -0.014286689
-0.020239988 -0.0027840943 -0.013200602
-0.022989962 -0.0043432079 -0.015735056
-0.022990037 -0.0043431688 -0.014633127
-0.019250063 -0.0072386814 -0.010225374
-0.018259935 -0.0072386768 -0.0096743628
-0.018700039 -0.0072386218 -0.0092336573
-0.023356725 -0.0022273203 -0.015220776
-0.023430016 -0.0012250601 -0.014743211
-0.024090054 -0.00077952241 -0.015184016
-0.024089999 -0.0012250433 -0.015184051
-0.022990059 -0.0052340813 -0.017167468
-0.014740024 -0.0056795874 -0.014302512
-0.014739995 -0.00567949 -0.014743224
-0.014739955 -0.0052341297 -0.014743241
-0.014739938 -0.0052340669 -0.014302535
-0.014729991 -0.0052240118 -0.013771626
-0.014739957 -0.0062363991 -0.014743217
-0.023649959 -0.0052341404 -0.018159274
-0.014409984 -0.0066818455 -0.018159244
-0.019799992 -0.0036749442 -0.013200524
-0.018281968 -0.0062140487 -0.013178528
-0.019250046 -0.0056795557 -0.01320062
-0.019799935 -0.0062363665 -0.013090421
-0.014740056 -0.0062363772 -0.017277636
-0.021752445 -0.0021994098 -0.013145535
-0.0092125228 -0.0062085185 -0.01314551
-0.014739952 -0.0056795315 -0.015184085
-0.014724277 -0.0067772451 -0.014758957
-0.014629984 -0.0072015496 -0.014779927
-0.0056099459 -0.0047514937 -0.015881911
-0.0088000353 -0.0052341069 -0.013200512
-0.0056099608 -0.0042318013 -0.017277751
-0.005280057 -0.0042318455 -0.014302511
-0.0052799662 -0.0032295876 -0.014302451
-0.0052800565 -0.0012249656 -0.01474326
-0.020680038 -0.0072385827 -0.011217143
-0.018678039 -0.0057017864 -0.013134461
-0.024617955 -0.0067932382 -0.0043190653
-0.024199972 -0.0071272952 -0.011768034
0.022219999 -0.0072386772 -0.0087928409
0.019249965 -0.0072386549 -0.0087928139
0.020239944 -0.0072386563 -0.0082418602
-0.02419995 -0.0032295049 -0.00074882107
-0.024199931 -0.0036750471 -0.00074876985
-0.023759987 -0.0036749819 -0.0017405679
-0.023738055 -0.0041872691 -0.0017405907
-0.021229973 -0.0072385701 -0.0042749923
-0.01920598 -0.0052340529 -0.00021983217
-0.017820016 -0.0062363129 -0.00030804984
-0.023283282 -0.0072015659 -0.0021813032
-0.024200005 -0.0071272384 -0.0027322453
-0.023760017 -0.0071272515 -0.003724053
-0.017270017 -0.0072386004 -0.00074882433
-0.021779938 -0.0072386339 -0.00030804146
-0.020679947 -0.0062363138 -0.00030806521
-0.020239968 -0.006236427 -0.00030802889
-0.020680042 -0.0067931558 -0.00030810572
-0.02023996 -0.0067931302 -0.0003080694
-0.02023994 -0.0056795883 -0.00030804053
-0.019195013 -0.0062363772 -0.00025288528
-0.02067994 -0.0072386554 -0.0017405897
-0.021230038 -0.0072386116 -0.0017405567
-0.019250024 -0.0012249745 -0.00030799629
-0.018699966 -0.003229487 0.00068366714
-0.021779951 -0.0042318315 -0.00030802237
-0.021779956 -0.0047886088 -0.00030806474
-0.019250033 -0.0032295049 0.0017855912
-0.019689977 -0.0033408469 0.0012345873
-0.021230008 -0.0047887024 -0.00030811038
-0.020680044 -0.0047886749 -0.00030799303
-0.02178002 -0.00077954441 -0.00030798651
-0.020239985 -0.00033407626 -0.00030807965
-0.023320019 -0.0016704414 -0.00019789161
-0.023760017 -0.0016704213 -0.00019791722
-0.024199955 -0.0022272766 -0.0012997165
-0.022813939 -0.0016704414 -0.00021983031
-0.022220019 -0.0016703999 -0.00030807033
-0.021230027 -0.0022273324 -0.000308068
-0.021230023 -0.0027840603 -0.00030810665
-0.019272046 -0.0036527808 0.00066159293
-0.018699979 -0.0036750638 0.0012345873
-0.018699998 -0.0035636744 0.00068365876
-0.018699946 -0.0016705188 -0.0003079921
-0.015143392 -0.002784156 -0.00023457687
-0.018260004 0.0067932247 -0.00030802051
-0.018259943 0.0072386917 -0.0057074251
-0.018699955 0.0072386474 -0.0037240277
-0.018260026 0.0072386032 -0.0037240188
-0.019250007 0.0072385971 -0.0087928437
-0.018259969 0.0072385916 -0.0076909256
-0.018700009 0.007238572 -0.0072501744
-0.016279979 0.007238701 -0.009233634
-0.013200065 0.0056796079 -0.00030798092
-0.013781479 0.0052500279 -0.00027652364
-0.024163317 -0.0017075225 -0.006809359
-0.024144994 0.00027841498 -0.0068094623
-0.024145031 0.00027836688 -0.0062585007
-0.024200005 0.00077957654 -0.0068094055
-0.024200056 -0.0036749358 -0.007250167
-0.024530064 0.003229579 -0.011768026
-0.024529984 0.0032295885 -0.011217047
-0.024529951 0.003675061 -0.012318967
-0.024529971 0.0042317617 -0.012319034
-0.018260054 0.0072386269 -0.010776345
-0.017819975 0.0072386889 -0.010776394
-0.017269941 0.0072386377 -0.010776316
-0.015729958 0.0072385729 -0.010776328
-0.014299978 0.0072386963 -0.012759791
-0.01275996 0.0072385967 -0.0092336629
-0.013199958 0.0072385781 -0.0092335874
-0.014299992 0.0072386265 -0.0096743526
-0.014299962 0.0072386782 -0.0092336964
-0.013750032 0.0072385776 -0.0087928893
-0.011770044 0.0072386651 -0.010776306
-0.012760057 0.0072386363 -0.01176805
-0.015179949 0.0072386791 -0.0087928791
-0.015180023 0.007238572 -0.0082419477
-0.01671998 0.0072386335 -0.0068094162
-0.016279958 0.0072386716 -0.0076909252
-0.01572994 0.0072386363 -0.0076909321
-0.016280018 0.0072386144 -0.0072501344
-0.017269935 0.0067932047 -0.00030808244
-0.017270003 0.0062363334 -0.00030806661
-0.016720053 0.0072386959 -0.00030800467
-0.012319997 0.005234126 -0.00030809687
-0.0057200338 0.0071272822 -0.0011895471
-0.0082500139 0.0072385957 -0.0027323151
-0.0092399959 0.0072386926 -0.0027322508
-0.0088000605 0.0072386968 -0.0017405078
-0.0082499366 0.0072386698 -0.0057075187
-0.0041800556 0.0072386987 -0.0082418546
-0.0017599738 0.0072385734 -0.010776277
-0.0017599954 0.0072386051 -0.0096744299
-0.0022000179 0.0072386013 -0.0092335967
0.0068199858 0.0052340259 -0.00030808197
0.0068199728 0.0047886935 -0.00030806195
0.0013199864 0.0072386106 -0.0037240523
0.0037399891 0.0072386051 -0.00030810665
0.0037400553 0.007238613 -0.0011896468
-0.00076993962 0.0072386861 -0.0052667502
-0.00021996109 0.0072386698 -0.0042749243
0.00021993778 0.0072386181 -0.0037239599
-0.00022002574 0.0072385855 -0.0037240675
-0.00076997327 0.0072386437 -0.0042749504
0.001319972 0.0072386302 -0.007690887
0.0017599926 0.0072386051 -0.0082419431
-0.00077005185 0.0072385916 -0.0076909359
-0.0089099873 -0.0032667017 0.0021896381
-0.012319969 -0.0022272698 -0.00030798744
-0.011770039 -0.0027841465 -0.00030801678
-0.011769942 -0.0022272328 -0.0003080843
-0.010229961 -0.0016704054 -0.00030801073
-0.01231996 -0.00077948079 -0.00030799257
-0.011770027 -0.0007794812 -0.00030798605
-0.011220059 -0.00077950989 -0.00030803354
-0.012760052 0.00022268522 -0.000308068
-0.011770034 -0.00033407498 -0.00030802144
-0.0072600488 0.0052340338 -0.00030808942
-0.0072599901 0.0042318176 -0.0003079935
-0.0037400182 0.0042318739 -0.00030806521
-0.0037400536 0.0036749416 -0.0003080056
-0.0032999732 0.0036749984 -0.00030801166
-0.0033000314 0.0042318576 -0.00030811084
-0.0092400648 0.00478866 -0.00030798372
-0.008799945 0.0052341488 -0.0003080857
-0.010229968 0.0052341316 -0.00030808477
-0.010780048 0.0052341321 -0.00030805403
-0.011220001 0.0052340385 -0.00030804006
-0.011220026 0.0047886786 -0.00030807499
-0.011769978 0.0047886427 -0.00030798558
-0.011770035 0.0042317528 -0.00030806568
-0.012319969 0.0042318078 -0.00030806288
0.0087999711 0.0022272079 -0.00030810246
0.0096800504 0.0022272826 -0.00030800607
0.010230026 0.0027840869 -0.00030801632
0.016279997 -0.0047886744 -0.00030807406
0.0057200063 0.006236339 -0.00030805776
0.0077000102 0.0042318795 -0.00030807545
0.0062700245 -0.0012249839 -0.00030805822
0.0052799811 -0.0036750347 -0.00019789813
0.0052799983 -0.0032295079 -0.00019791443
0.0052800532 -0.0027841309 -0.00019789906
0.0052799345 -0.002227291 -0.00019783946
0.0047299531 -0.0022273229 -0.00019783108
0.0047299629 -0.00077957037 -0.00019782269
0.0042166552 -0.00077955367 -0.00023464207
0.0052800286 -0.0012249773 -0.00019780872
0.00011005649 -0.0028954162 0.0040995963
0.0032999942 0.00077959435 -0.00030800793
0.0037399617 0.00077949942 -0.00030800141
0.0089099631 -0.0032295207 0.0017856788
0.0041799583 -0.0056796046 -0.00030809641
0.00022004679 -0.0062363227 -0.00019788602
0.00021995143 -0.0036750054 0.0037690615
0.00062339072 -0.003266728 0.0027774097
0.0037400352 -0.0022272083 -0.00030798372
0.0042167162 -0.0022272116 -0.00023457594
0.0042167022 -0.00167046 -0.0002346118
0.0037399619 -0.0016703933 -0.00030798698
0.0037400017 -0.0012249512 -0.00030801445
0.0047300216 -0.0062161693 -0.00026802486
0.0037399423 0.00022276916 -0.00030807965
0.0041799564 0.00077960244 -0.00019780779
0.0037399936 -0.00077958911 -0.00030810665
0.004216677 -0.0032295648 -0.00023456616
0.0033000289 -0.0022272936 -0.00030810945
0.0072600427 -0.0047886609 -0.0003080857
0.010229974 0.0042318068 -0.00030806661
0.010779992 0.0042317929 -0.00030804612
0.010229945 0.003674987 -0.00030809827
0.0096800318 0.00367494 -0.00030799257
0.0096800476 0.0027840468 -0.00030803867
0.0096799852 0.0032295838 -0.00030800188
0.010230014 0.0032296039 -0.00030807406
0.009239967 0.0032295138 -0.00030801678
0.0092399511 0.0042318287 -0.00030803168
0.0096799489 0.0052341311 -0.00030800281
0.0096799685 0.0047886497 -0.00030808151
0.011220067 0.0016704624 -0.00030806288
0.012319972 0.0016704754 -0.00030804472
0.011769939 0.0012249432 -0.00030807778
0.0087999823 0.0047887024 -0.00030809361
-0.0037556686 -0.0047727576 -0.00021361001
0.018699966 0.00022269523 -0.00030808663
0.018700022 -0.00033409768 -0.00030804239
0.01873662 -0.0016704982 -0.00023453217
0.019799953 -0.0007795163 -0.00030800654
0.019218504 -0.00079546549 -0.00027657906
0.018260034 0.0012249519 -0.00030809827
0.024163332 0.00077957002 -0.00023462856
0.023760054 0.00077957951 -0.0001978809
0.024163364 0.0012249969 -0.00023451634
0.024090022 0.00077959476 -0.0012997277
0.023759956 0.00022272885 -0.00019778591
0.024184313 -0.00035000767 -0.00021356391
0.023759961 -0.00033410231 -0.00019787205
0.023319989 -0.00077959127 -0.00019779895
0.023759961 -0.00077951927 -0.00019778823
0.020679971 -0.0027841069 -0.00030807359
0.020240063 -0.0027840829 -0.00030802796
0.021780053 -0.0027841518 -0.00030807778
0.018700007 -0.0047886209 -0.00019791769
0.018736662 -0.0052340706 -0.0002345792
0.01826001 -0.0047886875 -0.00030804425
0.02419997 -0.00077949144 -0.00074887555
0.022219971 0.0016704467 -0.00030799164
0.022769939 0.0012250579 -0.00019790139
0.022219947 0.0012250266 -0.00030807732
0.024090005 0.0012249489 -0.006258403
-0.0032999455 -0.0067931446 -0.00030800095
-0.0021999537 -0.0056795687 -0.00030804193
-0.0027500447 -0.0056795538 -0.00030800514
0.019205939 -0.0036526711 0.00068366807
0.019689973 -0.003563632 0.00068372488
0.020240011 -0.0047886684 -0.00030801538
0.020679992 -0.00478868 -0.00030809734
0.019763354 -0.0042318571 -0.00023461552
0.01925002 -0.0052340254 -0.00019786926
0.022813978 -0.001225017 -0.00021982798
0.02122996 0.00077955995 -0.00030805077
0.021780033 0.00077954837 -0.00030805776
0.022220004 -0.0052340631 -0.00030804332
-0.00055006274 -0.0036750399 0.0027773296
-0.00077002979 0.0022272395 -0.00030810758
-0.001319957 0.0047886502 -0.00030807871
-0.001319984 0.0052340277 -0.00030805403
-0.00076995703 0.0056795422 -0.00030802563
-0.0013199761 0.0012250006 -0.00030811084
-0.00054998201 -0.0036749707 0.003769055
-0.00071499922 -0.0042317975 -0.00025290344
-0.00076998246 -0.005679558 -0.00030800002
-0.002200007 -0.0047886833 -0.0003080084
-0.00022004569 -0.0036750047 0.002226389
-0.0037400567 -0.0032295447 -0.0001978362
-0.0037399433 -0.0036750119 -0.00019781291
-0.00021994623 -0.0072386274 -0.0027323049
-0.010779968 -0.0072385836 -0.0017405767
-0.010230022 -0.0072386214 -0.0027323077
0.019249985 -0.0072385916 -0.007250119
0.0013200518 -0.0072385776 -0.00030810293
0.0013199865 -0.0072386027 -0.0037239902
0.0092400452 -0.0072385725 -0.0012997538
0.0062700482 -0.007238599 -0.0062584202
0.0068200356 -0.0072386181 -0.0057075219
0.0068199821 -0.0072386796 -0.0048259739
0.0068200142 -0.0072386423 -0.0042749629
0.019250013 -0.0072386544 -0.002732344
0.017819988 -0.0042318227 -0.00030799164
0.01727004 -0.0036749821 -0.00030805916
0.017269986 -0.0072385855 -0.0037240214
0.016280014 -0.0062364251 -0.000308007
-0.0092400135 0.0002226739 -0.00030802144
-0.0037399852 -0.0072386386 -0.002181313
-0.008800054 -0.0072014746 -0.001777336
-0.0027500479 -0.0036749409 -0.00030802935
-0.0027500081 -0.0032294795 -0.00030806847
-0.0033000221 -0.0042317789 -0.00030806847
-0.0032999536 -0.003674947 -0.00030809082
-0.0027499937 -0.004231879 -0.0003080857
-0.0027499641 -0.0027841374 -0.00030797906
-0.001319967 -0.0072386097 -0.003283184
-0.0013200454 -0.0072386484 -0.0027322602
-0.0032999981 -0.0072386861 -0.0052667563
-0.0022000642 -0.0072385943 -0.0037240493
-0.0021999574 -0.0072386316 -0.0042750202
-0.003739991 -0.0072386493 -0.0037239492
0.0092399968 -0.0047886777 -0.00019787811
0.011219989 -0.0056795599 -0.00030806381
-0.018260034 -0.0072385827 -0.0072502103
-0.017819956 -0.00723862 -0.0062583825
-0.019249957 -0.0072385743 -0.0062584896
-0.018700033 -0.0072387033 -0.0057074279
-0.014739967 -0.0072386139 -0.0076909014
-0.014740005 -0.0072385771 -0.0082418518
-0.013749966 -0.0072386232 -0.0072502
-0.008799945 -0.0072385836 -0.0037240274
-0.0092400536 -0.0072386041 -0.0042749415
-0.00770002 -0.0072386847 -0.0076909
-0.0076999487 -0.0072386088 -0.0092336852
-0.0082499627 -0.0072386148 -0.0087929079
-0.022220032 -0.0072386391 -0.010225384
-0.018700041 -0.0072386363 -0.0087928064
-0.01925003 -0.0072386493 -0.0076909428
-0.019799961 -0.0072386665 -0.0092335884
-0.013749959 -0.0072385995 -0.011217088
-0.013199938 -0.0072386647 -0.011217151
-0.0068200096 -0.0072385822 -0.012759767
-0.0088000512 -0.0072386302 -0.010776331
-0.0082499469 -0.0072386279 -0.010776337
-0.0082499683 -0.007238673 -0.011217071
-0.008249972 -0.0072386283 -0.010225361
-0.0076999702 -0.006793248 -0.013090339
-0.003299966 -0.0072385808 -0.011768091
-0.0031900438 -0.0067931907 -0.013090413
-0.0042899395 -0.0072385957 -0.015184093
-0.0031900585 -0.0072386083 -0.012759732
-0.00076994463 -0.0072386088 -0.013090335
-0.0013200184 -0.0072386265 -0.013090317
-0.0088000558 -0.0072386167 -0.011217052
-0.0082500195 -0.0072386875 -0.011768041
-0.0076999585 -0.0072386372 -0.011768113
-0.0041799536 -0.0072386251 -0.006809426
-0.0068200664 -0.0072386051 -0.0092335921
-0.014740067 -0.0072386214 -0.01176807
-0.014740012 -0.0072386805 -0.011217097
-0.015179989 -0.0072386181 -0.010776332
-0.017820014 -0.0041873259 -0.013178525
-0.01727006 -0.0041872161 -0.013178527
-0.014300055 -0.0072386963 -0.010225372
-0.01518004 -0.00723866 -0.0092335902
-0.014739982 -0.0072386153 -0.0087928362
-0.0056833094 0.00077948102 -0.00023453264
-0.0062700189 0.00077952945 -0.00030800654
-0.0068199839 0.00077950291 -0.00030803867
-0.00627001 0.00022277367 -0.0003080829
-0.0052800379 -0.0012249461 -0.00019791815
-0.0092400052 -0.0012249345 -0.00030799769
-0.011219975 -0.0022272752 -0.00030810153
-0.009239967 -0.0032295869 0.00068367366
-0.0041799722 0.0052341409 -0.00030807639
-0.016719949 -0.00077955751 -0.00030804845
-0.011220054 -0.007238646 -0.0032832585
-0.014300028 -0.0042318064 -0.0001977901
-0.014739979 -0.0042318706 -0.00019785063
-0.016280042 -0.0027841548 -0.00030799815
-0.016280025 -0.0036749891 -0.00030804845
-0.016279986 -0.0042317603 -0.00030810526
-0.019249957 -0.0072386321 -0.0012998013
-0.016720014 -0.0072385892 -0.0042750221
-0.024530033 -0.0056795101 -0.0076909428
-0.024529971 -0.0047885762 -0.0087928157
-0.024529975 -0.0047886027 -0.0076909759
-0.024199942 -0.0036750406 -0.0082419468
-0.023760002 -0.0071272417 -0.0072502075
-0.024163321 -0.0017075731 -0.015734974
-0.024163291 -0.0017075315 -0.015184069
-0.023319975 -0.0036749374 -0.014743255
-0.024199968 -0.0036750054 -0.014743323
-0.024199964 0.0016704943 -0.011768002
-0.024199996 0.00077961176 -0.011217139
0.024639973 -0.005234038 -0.016285971
0.024639947 -0.0056795706 -0.016285907
-0.016719976 -0.0072385943 -0.0021812953
-0.021229973 0.0012249412 -0.00030801585
-0.015730027 0.0012250614 -0.00030802377
-0.023650041 -0.0071273255 -0.00063863676
-0.021780064 -0.005234051 -0.00030806195
-0.022219956 -0.0072386367 -0.0017405646
-0.024190055 -0.0022475678 -0.0002078996
-0.024529953 -0.0042318488 -0.00030804379
-0.022220064 -0.0036749907 -0.00030799769
-0.015730029 -0.0016704195 -0.00030802004
-0.010779938 0.0016703955 -0.00030805916
-0.010780039 0.0022272319 -0.00030808756
-0.013200025 0.002227217 -0.000308068
-0.011769968 0.00222724 -0.00030802749
-0.011219984 0.0056795222 -0.00030808477
-0.013805053 0.0036750606 -0.00025297515
-0.013199959 0.0042317654 -0.00030805077
-0.013771976 0.0042095426 -0.00028593931
-0.014299982 0.0036750012 -0.0001978958
-0.01320002 0.0047885822 -0.00030810712
-0.010780051 0.0036750622 -0.00030808803
-0.011220024 0.0036749404 -0.00030799769
-0.010780001 0.0047886637 -0.00030803867
-0.012759934 0.0042317822 -0.00030807219
-0.012320026 0.0027840794 -0.00030806847
-0.016279979 -0.00077952328 -0.00030805683
-0.014739943 0.00022271235 -0.00019785902
-0.015730061 0.00022275155 -0.00030802842
-0.011219947 -0.0042317794 -0.00030807778
-0.021670029 -0.0051227305 -0.013090358
-0.022183312 -0.0048257699 -0.01309034
-0.024199963 -0.0027841059 -0.0076909033
-0.024200007 -0.0022273296 -0.0082418825
-0.024529982 -0.0052340599 -0.0057075033
-0.024200065 -0.0033409749 -0.0044953763
-0.024200063 -0.0036749775 -0.004274914
-0.024199996 0.0016704528 -0.0052667642
-0.018699935 -0.0072386069 -0.00074884389
-0.02453002 0.0028954621 -0.0062584979
-0.024200007 0.0016704869 -0.0062583745
-0.024163349 -0.0017076178 -0.007690954
-0.024145026 0.00027835785 -0.0072501926
-0.024529988 0.0036750506 -0.0092335735
-0.024530051 0.0042317752 -0.0087928008
-0.024529936 0.0036750054 -0.0076910034
-0.024530016 0.0032294856 -0.007690887
-0.024529941 0.0028954658 -0.0076909196
-0.024530036 0.0028954069 -0.0072501935
-0.024530021 0.003674987 -0.0082419524
-0.02419995 0.0022272931 -0.0048259916
-0.024199996 0.0012250353 -0.0027323458
-0.024529997 0.002895517 -0.003283178
-0.024200045 0.00077954662 -0.0021813451
-0.024199946 0.0016704208 -0.0017404896
-0.024200048 0.001225006 -0.0017405297
-0.024145026 0.00027845596 -0.0021813596
-0.024163274 -0.0017076201 -0.003283198
-0.024163369 -0.0017075907 -0.0017404873
-0.024090052 -0.0012249964 -0.00074877962
-0.024145015 -0.00075172784 -0.00072124135
-0.024144946 0.00027836347 -0.0037240193
-0.02419995 -0.0022272225 -0.004274956
-0.024163337 -0.0017075835 -0.0042750235
-0.024199948 0.00077950256 -0.0062584281
-0.024163332 -0.0017075555 -0.0048260037
-0.024090063 -0.0012250133 -0.0048259948
-0.024089968 -0.0012250261 -0.0052666645
-0.024144948 0.00027840203 -0.0057074521
-0.020239977 0.0047886712 -0.00030808989
-0.019250032 0.0047886851 -0.00030807965
-0.018700061 0.0072386404 -0.0017405692
-0.019250007 0.0072387024 -0.0021812646
-0.023320016 0.0056796051 -0.00030800793
-0.023759982 0.00523414 -0.0003079907
-0.022770051 0.0052340804 -0.00030801585
-0.022219954 0.0052340957 -0.00030804751
-0.022219986 0.0042317687 -0.00030800048
-0.022791989 0.0042095049 -0.00028601428
-0.024530062 0.0042318506 -0.0042749681
-0.024529949 0.003229511 -0.0027322299
-0.024530036 0.0032295659 -0.0048259692
-0.02453002 0.0047886726 -0.0057074442
-0.020679992 0.0032294907 -0.00030809874
-0.017820051 0.0072386032 -0.0012997668
-0.018259944 0.0036749509 -0.00030806754
-0.018700035 0.004231846 -0.00030804332
-0.015729999 0.0047885887 -0.00030807825
-0.015730007 0.0056795874 -0.00030798465
-0.016719962 0.0062363301 -0.00030810805
-0.016720047 0.0056795939 -0.00030800933
-0.016720014 0.0042318548 -0.00030805264
-0.017269941 0.0052340277 -0.00030804798
-0.016719986 0.0052340953 -0.00030810898
-0.017270014 0.0022272062 -0.00030808989
-0.016719988 0.001670389 -0.00030799117
-0.015729999 0.0022272845 -0.00030804332
-0.023723392 0.0036750524 -0.00023452286
-0.023760064 0.004231791 -0.00030810107
-0.023320064 0.0047886451 -0.00030800235
-0.023759957 0.0047886963 -0.00030805869
-0.024199937 -0.0027841281 -0.0032832334
-0.022220057 0.002227278 -0.00030807033
-0.022219941 0.0016704715 -0.0003081006
-0.018700045 0.0007796117 -0.00030798186
-0.019250022 0.00022274681 -0.00030802796
-0.023429932 0.0012249659 -0.01628593
-0.024200041 0.00077951496 -0.016726688
-0.024199966 0.0012249382 -0.016726745
-0.024163395 0.0017075255 -0.014302481
-0.024089949 0.0012249745 -0.014743213
-0.024089975 0.00022267926 -0.014743246
-0.024090033 -0.00033414437 -0.014743211
-0.024090057 0.00022274151 -0.014302542
0.017819965 -0.0072385934 -0.0012997817
0.016719984 -0.0022272137 -0.00030807266
0.02024 0.0016704515 -0.00030810712
0.020240018 -0.00033406401 -0.00030803727
0.020679958 0.0027840564 -0.00030808663
0.021229994 0.0022272181 -0.00030802237
0.020679943 -0.0042318464 -0.0003081006
0.020680012 -0.0052340706 -0.00030798605
0.017819999 -0.0052340403 -0.00030808896
0.017819999 -0.0062363716 -0.00030800141
0.012319998 -0.0072385799 -0.0068094116
0.016279949 -0.0022272149 -0.00030803913
0.020240054 -0.0022272186 -0.0003079921
0.01979997 -0.0012250195 -0.00030809361
0.019799992 -0.0016704501 -0.00030806893
0.019206045 -0.0016704622 -0.00021986803
0.0082499515 0.0012250342 -0.000308068
0.0072600124 0.00022276433 -0.00030800514
0.011219949 -0.0027840934 -0.00030804425
0.010229982 0.0032295559 -0.013200568
0.010779966 0.0032295836 -0.013200503
0.014740051 0.0047886875 -0.014302541
0.014629942 0.0047886618 -0.014743272
0.014629979 0.0047886362 -0.015184065
0.014629993 0.0052340869 -0.015184068
0.014740004 0.0056794849 -0.015184022
0.023430035 0.0071273386 -0.014412729
0.023297939 0.0071718455 -0.015206011
0.024530033 0.0056795147 -0.012319049
0.024529947 0.0052341088 -0.011768069
0.024200056 0.0022272558 -0.0082418937
0.02416336 0.0017075521 -0.0076909689
0.024200052 0.0027841262 -0.0087928241
0.024089992 0.0012250302 -0.0092335781
0.021743376 0.0022272982 -0.013163861
0.024200061 0.0027841283 -0.0132006
0.024199985 0.002784061 -0.013751469
0.024199948 0.0032295326 -0.015184036
0.024090052 0.0012250334 -0.013751518
0.024089934 0.0012249701 -0.014743263
0.02420003 0.0027841248 -0.012759755
0.024199946 0.0036749714 -0.012319039
0.024089972 0.00022273243 -0.011217102
0.024163276 0.0017075272 -0.012318982
0.02416327 0.0017075788 -0.0087928372
0.023430062 0.00022273016 -0.016286004
0.024089994 0.0012250252 -0.012759745
0.024090042 0.00022279256 -0.012759819
0.024200048 -0.0007795897 -0.0096744718
0.024529945 -0.0028954702 -0.012759733
0.024199933 -0.0016703901 -0.012319047
0.024200046 -0.0022272575 -0.012318989
0.024199989 -0.0012249586 -0.0092335744
0.024199981 -0.0012250501 -0.0096744737
0.024199953 -0.0016704689 -0.0096743535
0.024163278 -0.00037127521 -0.010225435
0.024200039 -0.0016704286 -0.011768058
0.024529979 -0.0042318641 -0.0092335809
0.024200015 -0.0016704128 -0.0087929294
0.02419997 -0.0022273075 -0.0082419226
0.024090007 0.00022279043 -0.0017406084
0.024089979 0.00077954232 -0.0017406107
0.024163308 0.0017075837 -0.0017405758
0.024089968 0.00077952439 -0.0021812888
0.024090061 0.0012250263 -0.0012998125
0.024163278 0.0017075234 -0.0012998092
0.024090033 0.00022278997 -0.0012998274
0.024210021 0.0022474767 -0.0021712352
0.024163369 0.0017075394 -0.0027323184
0.024133939 0.0016927175 -0.0021592216
0.024089983 0.00022279099 -0.0048259348
0.02419994 -0.0016704226 -0.0057074153
0.024089985 0.0012249365 -0.0048259599
0.024089951 0.00022278598 -0.0037239532
0.024163276 0.0017075503 -0.0042750044
0.024163365 0.0017075309 -0.0037240156
0.024200026 0.0022273217 -0.0037240328
0.024199935 0.0022272519 -0.0032832278
0.024199955 0.0022273206 -0.0068093557
0.024529936 0.0056795795 -0.0082418714
0.024090033 0.00077955518 -0.0087928036
0.024163349 -0.00037117681 -0.0082419151
0.024090013 0.00022268703 -0.0082418686
0.024090022 0.0012250073 -0.010225408
