# .PCD v0.7 - Point Cloud Data file format
VERSION 0.7
FIELDS x y z
SIZE 4 4 4
TYPE F F F
COUNT 1 1 1
WIDTH 137
HEIGHT 1
VIEWPOINT 0 0 0 1 0 0 0
POINTS 137
DATA ascii
0.0017535726 0.00065568858 -0.00075123232
0.0017384943 0.00059111783 -0.00037372962
0.0026182132 0.00054388295 -0.00069073169
0.0012553378 0.00059758703 -0.00034524937
0.0017523144 0.00023102386 -0.00027734676
0.0012580698 0.00023002859 -0.00027221732
0.0031310492 -0.00011547481 -0.00065658573
0.0026768327 -0.00017530977 -0.0010058453
0.0026959383 0.00017079293 -0.0010080488
0.0031452349 0.00012357967 -0.00066340121
0.0012580637 0.000161238 -0.0015576917
0.001240309 -0.00013793302 -0.0015576873
0.0017248286 -9.2345377e-05 -0.0015576928
0.00073049823 -0.00018351813 -0.0015576873
0.00074193481 0.000161238 -0.0015576883
0.00023374545 -0.00022439641 -0.0015576868
-0.0012569778 -0.00024091678 -0.0015576906
-0.00075332029 0.00016692874 -0.0015576881
-0.00075806375 -0.00024185711 -0.0015576889
-0.00025806465 -0.00024185711 -0.0015576878
0.0012578644 0.00066095596 -0.00074633147
0.001256584 -0.00023982021 -0.00027387316
0.0017439397 -0.00023002981 -0.00028584432
0.0012378865 -0.00056374585 -0.00037475157
0.00170019 -0.00055579672 -0.00041771971
0.0007362825 -0.00065461005 -0.00075840909
-0.00026167551 0.00018674725 -0.0015576872
-0.0012359531 0.00013966838 -0.0015576889
-0.0032531153 6.5196175e-05 -0.00027840942
-0.0031392304 0.00010783316 -0.00066405447
-0.0031412372 -0.00015264562 -0.00066969823
-0.0032371625 -0.00011623159 -0.00028029218
-0.003272899 -7.2070128e-05 0.0012500162
-0.0032741954 -7.2339179e-05 0.00074707693
-0.0032789183 5.0337781e-05 0.000747076
-0.0032748599 5.0919785e-05 0.0012524631
-0.0012565454 0.00066016353 -0.00074615044
-0.0012462181 0.00060066371 -0.00039298285
-0.00075806928 0.00066107768 -0.00074615318
-0.0025942719 -0.00053041731 -0.00073719892
-0.0022161705 -0.00059790874 -0.00077825948
-0.0025564516 -0.00052402372 -0.0010058462
-0.00075806933 -0.00024185282 -0.00027498667
-0.0012564514 0.00022771004 -0.00027323348
-0.0012580641 -0.00024185269 -0.00027498737
-0.00025806497 -0.0002418528 -0.00027498591
-0.00025806492 0.00023002872 -0.00027221243
-0.0032763164 5.288811e-05 0.0017576521
0.0032495814 0.00010830168 -0.00027730197
0.0020460463 -0.00020598741 -0.00037167018
0.0032590821 5.9416885e-05 0.00074703339
0.0032711129 -8.1560764e-05 0.00075029337
0.0032604744 5.9714828e-05 0.00024283817
0.003263091 6.0817289e-05 0.0021505905
0.0032772215 -7.7072742e-05 0.0021413043
0.0032729055 -7.911407e-05 0.0002432738
0.0032720896 -7.9187543e-05 0.001251944
-0.0032744727 5.4696688e-05 0.00024288101
-0.0025626558 0.00052526419 -0.00072867458
0.00074193563 0.00059758872 -0.00034342744
0.00074193714 -0.00024185276 -0.00027498789
0.00072051951 -0.00056253467 -0.00038668682
0.00024193527 -0.00024185321 -0.00027498655
0.0032588018 5.9281807e-05 0.0017548661
0.0032698107 -7.9392194e-05 0.0017551497
0.0025564516 -0.00052402372 -0.0008110769
0.00024193469 0.00066107715 -0.00074614806
-0.0002580641 0.00059758802 -0.0003434286
0.00024193538 0.00016123803 -0.0015576864
0.00024193544 0.00062200607 -0.0011925075
-0.00075922639 0.00062014797 -0.0011775072
-0.00025179127 0.00062356441 -0.0011746883
-0.00025806413 0.00066107709 -0.00074615015
-0.0017396308 7.6012242e-05 -0.001557692
-0.0017443958 -0.00020933604 -0.0015576894
-0.0017223915 0.00059466664 -0.00041593076
-0.0022061914 0.00058230694 -0.00076350878
-0.0017435591 -0.00061843271 -0.0011768077
0.00073008152 -0.0006288779 -0.0011402454
0.000240607 -0.00066407368 -0.00075172423
-0.0017532904 -0.00024313532 -0.00028001107
-0.0012551696 -0.000589011 -0.0003940906
-0.0017544172 -0.00058382348 -0.00039105362
-0.0012536554 -0.00066194544 -0.00075640919
-0.0017540629 -0.0006529073 -0.00075893058
-0.00075732486 -0.00066828198 -0.00075014419
-0.00075034454 0.00059783878 -0.00035119877
-0.00075639522 -0.00064421247 -0.0011920852
-0.00025806492 -0.00066898414 -0.00074904325
-0.0032741979 -7.2339222e-05 0.0017533862
-0.0032741965 5.388472e-05 0.0021697325
-0.0032745064 -7.357468e-05 0.0021785367
0.0020176647 0.00056202983 -0.00042463007
0.0022164737 0.00059866201 -0.00077014777
0.0032681052 -8.8951732e-05 -0.00025486792
0.0032587945 5.944294e-05 0.0012513228
-0.0027135578 -0.00021090276 -0.001007754
-0.0021627615 -0.00023864312 -0.001119068
-0.0032741979 -7.2339186e-05 0.00024392328
0.00024193538 0.00059758796 -0.00034342875
0.00023041845 -0.00059213577 -0.00039803155
0.0017477883 0.00015507612 -0.0015576906
-0.0012547948 0.00061926956 -0.0011778654
-0.0017431683 0.0006306899 -0.00074850622
-0.002016129 0.00054820947 -0.00048646153
-0.0020456142 0.00019242134 -0.0003799703
-0.0017483482 0.00021822925 -0.00029420119
-0.0021380405 -0.00059591385 -0.0010709948
-0.00025806401 -0.00064495072 -0.0011934878
-0.0020414749 -0.00023171122 -0.00033508681
-0.00075670111 -0.00059953477 -0.0003995935
-0.0012516959 -0.0006306835 -0.0011910549
-0.00075806858 0.00023002893 -0.00027221325
0.0021115309 -0.00055918732 -0.0010407245
0.0021580728 -0.00022808208 -0.0011159912
0.0012552239 0.00061983126 -0.0011820692
0.0017487955 0.00061880547 -0.0011719177
0.00074193539 0.00023002873 -0.00027221465
0.0020456775 0.00021976835 -0.00037425343
0.0021864721 -0.00056647375 -0.000812179
0.0017406213 -0.00060500769 -0.00078267336
0.0012506165 -0.00063552917 -0.00077067176
0.00074193813 0.00066107709 -0.0007461487
-0.00173853 0.00060490373 -0.0011518964
0.0021324381 0.00058477215 -0.0010802571
0.00023195606 -0.00063701585 -0.0011787234
-0.0020225802 -0.00055465905 -0.00042153843
-0.00025806401 -0.00060145732 -0.00040040229
0.0021802261 0.0002302779 -0.0011148331
-0.002694715 0.00015796658 -0.0010063153
-0.0021476457 0.00021082365 -0.0011320685
0.00074053195 0.00062160409 -0.0011914992
0.00024193538 0.00023002907 -0.00027221255
0.002016129 -0.00054820947 -0.00048646156
0.001726848 -0.00058388355 -0.0010787185
-0.0020952856 0.00056954217 -0.0010595319
0.0012371363 -0.00060760346 -0.0011095564
