# .PCD v0.7 - Point Cloud Data file format
VERSION 0.7
FIELDS x y z
SIZE 4 4 4
TYPE F F F
COUNT 1 1 1
WIDTH 1202
HEIGHT 1
VIEWPOINT 0 0 0 1 0 0 0
POINTS 1202
DATA ascii
-0.0027566471 -0.019771112 -0.0037273024
0.0050028036 0.0063227415 0.0024986512
0.0050028036 -0.0013046926 0.0024986512
-0.002960843 0.020373277 -0.0037273024
-0.00071468623 -0.020373277 -0.0011164186
-0.0017356667 -0.020373277 -0.0033256279
-0.0019398626 0.020574 -0.0033256279
-0.0035734312 -0.019771112 -0.0041289767
0.0050028036 -0.0013046926 0.0020969766
-0.0037776274 0.020373277 -0.0041289767
-0.0052069998 0.0087314043 0.002297814
0.0050028036 0.019168945 0.0020969766
0.0052069998 -0.018968225 0.0020969766
0.0052069998 -0.011541512 0.0020969766
0.0052069998 -0.011340789 0.0020969766
0.0052069998 -0.0013046926 0.0020969766
0.0052069998 0.0013046926 0.0020969766
0.0052069998 0.0089321267 0.0020969766
0.0052069998 0.011340789 0.0020969766
0.0052069998 0.013950176 0.0020969766
0.0052069998 0.018968225 0.0020969766
-0.0013272745 0.020172555 -0.000513907
-0.0011230784 -0.020172555 -0.000513907
-0.0052069998 0.0037133561 0.002297814
0.0050028036 0.018968225 0.0020969766
-0.0052069998 0.018968225 0.002297814
-0.0050028036 -0.018968225 0.002297814
0.002960843 0.020574 -0.0031247907
-0.0050028036 -0.016358839 0.002297814
-0.0050028036 -0.014150897 0.002297814
0.003165039 -0.020373277 -0.0031247907
-0.0050028036 -0.0063227415 0.002297814
-0.0050028036 -0.0039140778 0.002297814
-0.0050028036 -0.0013046926 0.002297814
-0.0050028036 0.0013046926 0.002297814
-0.0011230784 0.020574 -0.0027231164
0.0021440587 0.020172555 -0.0049323258
0.0021440587 0.020373277 -0.0049323258
-0.0011230784 -0.020373277 -0.0011164186
-0.0013272745 0.020574 -0.0011164186
0.0050028036 0.0039140778 0.0020969766
0.0050028036 0.0063227415 0.0020969766
0.0050028036 0.013950176 0.0020969766
0.0050028036 0.016358839 0.0020969766
0.0050028036 0.01655956 0.0020969766
0.0050028036 0.013950176 0.0016953023
-0.0050028036 -0.016358839 0.00089195347
-0.0052069998 0.018968225 0.00089195347
-0.0052069998 0.0089321267 0.00089195347
-0.0052069998 0.0037133561 0.00089195347
-0.0052069998 -0.013950176 0.00089195347
-0.0050028036 -0.011541512 0.00089195347
0.0052069998 0.018968225 0.00069111626
0.0050028036 0.014150897 0.0016953023
0.0052069998 0.013950176 0.00069111626
0.0050028036 0.016358839 0.0016953023
0.0050028036 0.01655956 0.0016953023
0.0050028036 0.018968225 0.0016953023
0.0050028036 0.019168945 0.0016953023
0.0052069998 0.0013046926 0.00069111626
-0.0050028036 -0.0063227415 0.00089195347
-0.0050028036 -0.0039140778 0.00089195347
-0.0050028036 -0.0013046926 0.00089195347
-0.0050028036 0.0013046926 0.00089195347
-0.0050028036 0.0037133561 0.00089195347
-0.0050028036 0.0087314043 0.00089195347
-0.00091888232 0.020574 -0.0039281398
-0.0013272745 0.020574 -0.0027231164
-0.0011230784 -0.020373277 -0.0027231164
-0.0050028036 0.011541512 0.00089195347
-0.00071468623 -0.020373277 -0.0039281398
0.0019398626 0.020172555 -0.0049323258
-0.0017356667 0.020172555 -0.000513907
0.0050028036 -0.011340789 0.00069111626
0.0050028036 -0.0089321267 0.00069111626
0.0050028036 -0.0013046926 0.00069111626
0.0050028036 0.0013046926 0.00069111626
0.0050028036 0.0039140778 0.00069111626
0.0050028036 0.0063227415 0.00069111626
0.0033692352 -0.020574 -0.0031247907
0.003165039 0.020574 -0.0031247907
0.0050028036 0.011541512 0.00069111626
0.0019398626 0.020373277 -0.0049323258
-0.0017356667 0.020373277 -0.000513907
-0.00091888232 -0.020373277 -0.0011164186
-0.0011230784 0.020574 -0.0011164186
-0.0015314706 -0.020373277 -0.000513907
-0.0015314706 -0.020172555 -0.000513907
0.0050028036 0.013950176 0.00069111626
0.0050028036 0.016358839 0.00069111626
0.0050028036 0.01655956 0.00069111626
0.0050028036 0.018968225 0.00069111626
0.0050028036 0.019168945 0.00069111626
0.0052069998 -0.018968225 0.00069111626
0.0052069998 -0.011541512 0.00069111626
0.0052069998 -0.011340789 0.00069111626
0.0052069998 -0.0037133561 0.00069111626
0.0050028036 -0.0089321267 0.0020969766
0.0019398626 0.020574 -0.0049323258
0.0021440587 -0.020574 -0.0049323258
-0.0015314706 0.020172555 -0.000513907
-0.0015314706 0.020373277 -0.000513907
-0.0013272745 -0.020172555 -0.000513907
0.0050028036 0.0063227415 0.0016953023
0.0050028036 0.0039140778 0.0016953023
0.0019398626 0.020574 -0.0019197675
0.0021440587 -0.020373277 -0.0019197675
0.0050028036 -0.018968225 0.0020969766
0.0050028036 -0.011340789 0.0020969766
-0.002960843 0.019971833 -0.000513907
0.0050028036 -0.011541512 0.00049027905
-0.0027566471 -0.019971833 -0.000513907
-0.0027566471 -0.020172555 -0.000513907
-0.0027566471 -0.020373277 -0.000513907
-0.0052069998 0.018968225 0.001494465
-0.002960843 0.020373277 -0.000513907
-0.002960843 0.020172555 -0.000513907
0.0050028036 -0.018968225 0.00049027905
-0.003165039 0.020373277 -0.0037273024
-0.00091888232 -0.020373277 -0.0033256279
-0.0011230784 0.020574 -0.0033256279
0.0050028036 -0.0089321267 0.00049027905
0.0050028036 -0.0037133561 0.00049027905
0.0050028036 -0.0013046926 0.00049027905
-0.0052069998 0.0089321267 0.001494465
0.0050028036 0.0039140778 0.00049027905
0.0050028036 0.0063227415 0.00049027905
-0.0052069998 0.0037133561 0.001494465
0.0050028036 0.011541512 0.00049027905
0.0050028036 0.013950176 0.00049027905
0.0050028036 0.014150897 0.00049027905
0.0050028036 0.016358839 0.00049027905
0.0050028036 0.01655956 0.00049027905
0.0050028036 0.018968225 0.00049027905
0.0050028036 0.019168945 0.00049027905
0.0052069998 -0.018968225 0.00049027905
0.0052069998 -0.011541512 0.00049027905
-0.002960843 -0.019771112 -0.0037273024
-0.002960843 0.020373277 -0.0041289767
0.00071468623 0.020574 -0.0023214419
0.0052069998 0.011340789 0.0016953023
-0.0050028036 -0.0039140778 0.0020969766
-0.0050028036 -0.0063227415 0.0020969766
-0.0050028036 -0.014150897 0.0020969766
-0.0050028036 -0.016358839 0.0020969766
-0.0052069998 0.018968225 0.0020969766
-0.0052069998 0.0089321267 0.0020969766
-0.0052069998 0.0087314043 0.0020969766
-0.0052069998 0.0013046926 0.0020969766
-0.0050028036 -0.0013046926 0.0020969766
-0.0033692352 -0.019971833 -0.000513907
-0.0033692352 -0.020172555 -0.000513907
-0.0033692352 -0.020373277 -0.000513907
-0.0035734312 0.020172555 -0.000513907
-0.0035734312 0.019971833 -0.000513907
0.0052069998 0.018968225 0.0018961395
0.0052069998 0.013950176 0.0018961395
0.0052069998 0.013950176 0.0016953023
-0.0050028036 -0.0011039707 0.0020969766
-0.0050028036 0.0013046926 0.0020969766
-0.0050028036 0.0037133561 0.0020969766
-0.0050028036 0.0087314043 0.0020969766
-0.0050028036 0.0089321267 0.0020969766
-0.0050028036 0.011340789 0.0020969766
-0.0033692352 0.019971833 -0.000513907
-0.0033692352 0.020172555 -0.000513907
-0.003165039 -0.020373277 -0.000513907
-0.003165039 -0.020172555 -0.000513907
-0.003165039 -0.019971833 -0.000513907
-0.003165039 0.019971833 -0.000513907
-0.003165039 0.020172555 -0.000513907
-0.003165039 0.020373277 -0.000513907
-0.002960843 -0.020373277 -0.000513907
0.0050028036 0.01655956 0.0018961395
-0.0035734312 -0.019971833 -0.000513907
0.0050028036 0.0063227415 0.0018961395
-0.0045944117 -0.016961005 -0.00031306982
-0.0045944117 -0.016760282 -0.00031306982
-0.0045944117 -0.014753063 -0.00031306982
-0.0045944117 -0.014552341 -0.00031306982
-0.0045944117 -0.014351619 -0.00031306982
-0.0045944117 -0.014150897 -0.00031306982
-0.0045944117 -0.012143678 -0.00031306982
-0.0045944117 -0.011942956 -0.00031306982
-0.0045944117 -0.011742234 -0.00031306982
-0.0045944117 -0.011541512 -0.00031306982
-0.0045944117 -0.011340789 -0.00031306982
0.0050028036 0.013950176 0.0018961395
0.0050028036 0.016358839 0.0018961395
-0.002960843 -0.020172555 -0.000513907
0.0050028036 0.019168945 0.0018961395
0.0052069998 -0.018968225 0.0018961395
-0.0045944117 -0.0095342929 -0.00031306982
-0.0045944117 -0.0091328481 -0.00031306982
-0.0045944117 -0.0089321267 -0.00031306982
0.0052069998 -0.011541512 0.0018961395
-0.0045944117 -0.0071256291 -0.00031306982
-0.0045944117 -0.0069249072 -0.00031306982
-0.0045944117 -0.0067241853 -0.00031306982
0.0052069998 -0.0037133561 0.0018961395
-0.0045944117 -0.0061220191 -0.00031306982
0.0052069998 -0.0013046926 0.0018961395
0.0052069998 0.0013046926 0.0018961395
0.0052069998 0.0089321267 0.0018961395
0.0052069998 0.011340789 0.0018961395
0.0011230784 0.020574 -0.0049323258
-0.0027566471 -0.019771112 -0.0041289767
-0.002960843 -0.019971833 -0.000513907
-0.0050028036 0.011541512 0.001494465
0.0011230784 0.020574 -0.0019197675
-0.0050028036 0.0013046926 0.001494465
-0.0050028036 -0.0013046926 0.001494465
-0.0050028036 -0.0039140778 0.001494465
-0.0050028036 -0.0063227415 0.001494465
-0.0050028036 -0.011541512 0.001494465
-0.0050028036 -0.016358839 0.001494465
0.0052069998 -0.011340789 0.00049027905
-0.0021440587 0.020574 -0.0027231164
-0.0019398626 -0.020373277 -0.0027231164
-0.0050028036 -0.0063227415 0.0026994883
-0.0050028036 -0.0039140778 0.0026994883
-0.0050028036 -0.0013046926 0.0026994883
-0.0050028036 0.0013046926 0.0026994883
-0.0050028036 0.0087314043 0.0026994883
-0.0050028036 0.011541512 0.0026994883
-0.00051049015 -0.020373277 -0.0011164186
-0.0050028036 -0.014150897 0.0026994883
0.0052069998 -0.011541512 0.0016953023
0.0052069998 -0.011340789 0.0016953023
-0.0021440587 -0.020172555 -0.000513907
-0.0021440587 -0.020373277 -0.000513907
-0.0023482549 0.020373277 -0.000513907
-0.0023482549 0.020172555 -0.000513907
-0.0023482549 0.019971833 -0.000513907
0.0050028036 -0.018968225 0.0012936279
-0.0050028036 -0.016358839 0.0026994883
-0.00051049015 -0.020373277 -0.0039281398
-0.0052069998 0.018968225 0.0026994883
-0.0021440587 0.020172555 -0.000513907
-0.0021440587 0.020373277 -0.000513907
0.0015314706 0.020574 -0.0019197675
0.0017356667 -0.020373277 -0.0019197675
-0.0019398626 -0.020373277 -0.000513907
-0.0019398626 -0.020172555 -0.000513907
-0.0017356667 0.020574 -0.0027231164
-0.0015314706 -0.020373277 -0.0027231164
0.0052069998 -0.0013046926 0.0016953023
-0.0052069998 0.0089321267 0.00069111626
0.0052069998 -0.0037133561 0.0012936279
-0.0052069998 0.018968225 0.00069111626
0.0052069998 -0.011340789 0.0012936279
0.0052069998 -0.011541512 0.0012936279
-0.0050028036 -0.011541512 0.00069111626
-0.0025524509 0.019971833 -0.000513907
-0.0025524509 0.020172555 -0.000513907
-0.0025524509 0.020373277 -0.000513907
-0.0023482549 -0.020373277 -0.000513907
-0.0023482549 -0.020172555 -0.000513907
-0.0023482549 -0.019971833 -0.000513907
-0.0050028036 -0.0063227415 0.00069111626
-0.0050028036 -0.0039140778 0.00069111626
0.0052069998 -0.018968225 0.0012936279
-0.0052069998 0.0087314043 0.0026994883
-0.0050028036 -0.0013046926 0.00069111626
0.0050028036 0.019168945 0.0012936279
0.0050028036 0.01655956 0.0012936279
0.0050028036 0.016358839 0.0012936279
0.0050028036 0.014150897 0.0012936279
0.0050028036 0.013950176 0.0012936279
-0.0050028036 0.0089321267 0.00069111626
-0.0050028036 0.011541512 0.00069111626
0.0050028036 0.011541512 0.0012936279
-0.0050028036 0.016358839 0.00069111626
0.0050028036 0.0063227415 0.0012936279
0.0050028036 0.0039140778 0.0012936279
0.0050028036 0.0013046926 0.0012936279
0.0050028036 -0.0013046926 0.0012936279
0.0050028036 -0.0089321267 0.0012936279
-0.0052069998 0.0037133561 0.0026994883
-0.0052069998 0.0013046926 0.0026994883
-0.0052069998 -0.011340789 0.0026994883
-0.00071468623 0.020574 -0.0039281398
0.0052069998 0.018968225 0.0024986512
0.0052069998 0.013950176 0.0024986512
0.0015314706 0.020172555 -0.0049323258
0.0015314706 0.020373277 -0.0049323258
0.0015314706 0.020574 -0.0049323258
0.0052069998 -0.0013046926 0.0012936279
0.0013272745 0.020574 -0.0049323258
0.0052069998 0.0013046926 0.0016953023
0.0052069998 -0.0037133561 0.00049027905
-0.0052069998 -0.013950176 0.001494465
0.0052069998 -0.0013046926 0.00049027905
0.0013272745 0.020574 -0.0019197675
0.0015314706 -0.020373277 -0.0019197675
0.0052069998 0.0013046926 0.00049027905
-0.0027566471 0.019971833 -0.000513907
-0.0027566471 0.020172555 -0.000513907
-0.0027566471 0.020373277 -0.000513907
-0.0025524509 -0.020373277 -0.000513907
-0.0025524509 -0.020172555 -0.000513907
-0.0025524509 -0.019971833 -0.000513907
0.0052069998 0.018968225 0.0012936279
-0.0019398626 0.020574 -0.0027231164
-0.0017356667 -0.020373277 -0.0027231164
0.0052069998 0.011340789 0.00049027905
0.0052069998 0.013950176 0.00049027905
-0.0050028036 0.0089321267 0.0031011628
0.0052069998 0.018968225 0.00049027905
0.0052069998 0.013950176 0.0012936279
0.0052069998 0.011340789 0.0012936279
0.0052069998 0.0013046926 0.0012936279
-0.002960843 -0.019771112 -0.0041289767
-0.003165039 0.020373277 -0.0041289767
0.0021440587 0.020574 -0.0049323258
-0.0011230784 -0.020373277 -0.0033256279
-0.0013272745 0.020574 -0.0033256279
-0.00010209803 0.020373277 -0.0027231164
0.0033692352 -0.020373277 -0.0019197675
0.003165039 0.020373277 -0.0019197675
-0.0023482549 -0.020574 -0.0011164186
0.0050028036 -0.0013046926 0.002297814
0.0050028036 -0.018968225 0.0016953023
0.003165039 0.020373277 -0.0049323258
0.003165039 0.020172555 -0.0049323258
0.003165039 0.019971833 -0.0049323258
-0.002960843 0.020574 -0.0033256279
-0.0027566471 -0.020574 -0.0033256279
-0.0025524509 0.020373277 -0.0011164186
-0.002960843 -0.019971833 -0.0033256279
-0.002960843 -0.020172555 -0.0033256279
-0.002960843 -0.020373277 -0.0033256279
-0.002960843 -0.020574 -0.0033256279
-0.003165039 0.020574 -0.0033256279
0.0033692352 0.019971833 -0.0049323258
0.0033692352 0.020172555 -0.0049323258
0.0033692352 0.020373277 -0.0049323258
0.0035734312 -0.020373277 -0.0049323258
0.003165039 -0.020373277 -0.0019197675
-0.0043902155 -0.011742234 -0.0041289767
0.0050028036 -0.0089321267 0.0016953023
0.0050028036 -0.011340789 0.0016953023
0.002960843 0.019971833 -0.0049323258
0.002960843 0.020172555 -0.0049323258
0.002960843 0.020373277 -0.0049323258
-0.0003062941 0.020373277 -0.0027231164
-0.0045944117 0.0037133561 -0.0041289767
-0.0045944117 0.003512634 -0.0041289767
-0.0045944117 0.0033119121 -0.0041289767
-0.0045944117 0.0031111902 -0.0041289767
-0.0045944117 0.0029104683 -0.0041289767
0.002960843 0.020373277 -0.0019197675
-0.0045944117 0.0027097464 -0.0041289767
-0.0045944117 0.0025090242 -0.0041289767
0.0050028036 0.0063227415 0.002297814
-0.0045944117 0.0015054146 -0.0041289767
-0.0045944117 0.0013046926 -0.0041289767
-0.0045944117 0.0011039707 -0.0041289767
-0.0045944117 0.00090324873 -0.0041289767
-0.0045944117 0.00070252683 -0.0041289767
-0.0021440587 -0.020373277 -0.0011164186
-0.0023482549 0.020373277 -0.0011164186
-0.0027566471 -0.019971833 -0.0033256279
-0.0027566471 -0.020172555 -0.0033256279
-0.0011230784 -0.020373277 -0.0021206047
0.0003062941 0.020574 -0.0027231164
0.0050028036 -0.0089321267 0.00089195347
0.0050028036 -0.0013046926 0.00089195347
0.0050028036 0.0039140778 0.00089195347
0.0050028036 0.0063227415 0.00089195347
-0.0013272745 0.020574 -0.0021206047
0.0050028036 0.011541512 0.00089195347
0.0050028036 0.013950176 0.00089195347
0.0050028036 0.014150897 0.00089195347
0.0050028036 0.016358839 0.00089195347
0.0050028036 0.01655956 0.00089195347
0.0050028036 0.019168945 0.00089195347
0.0052069998 -0.018968225 0.00089195347
-0.0027566471 -0.020373277 -0.0011164186
0.0050028036 -0.0037133561 0.002297814
0.0050028036 -0.0089321267 0.002297814
0.00010209803 0.020574 -0.0027231164
0.0050028036 -0.018968225 0.002297814
-0.00051049015 0.020172555 -0.000513907
0.0050028036 -0.018968225 0.00089195347
0.0050028036 -0.011541512 0.00089195347
-0.0025524509 -0.020373277 -0.0011164186
-0.0027566471 0.020373277 -0.0011164186
-0.0043902155 -0.011541512 -0.0041289767
0.0033692352 0.020373277 -0.0019197675
0.0035734312 -0.020373277 -0.0019197675
-0.003165039 -0.020574 -0.0033256279
-0.0033692352 0.020574 -0.0033256279
0.0035734312 0.019971833 -0.0049323258
0.0035734312 0.020172555 -0.0049323258
0.0035734312 0.020373277 -0.0049323258
0.0037776274 -0.020373277 -0.0049323258
-0.0050028036 -0.0013046926 0.0024986512
-0.00071468623 0.020172555 -0.000513907
0.0052069998 0.018968225 0.002297814
-0.0052069998 -0.011340789 0.0024986512
-0.0052069998 0.0087314043 0.0024986512
-0.0050028036 -0.016358839 0.0024986512
-0.0050028036 -0.011340789 0.0024986512
-0.0050028036 -0.0063227415 0.0024986512
-0.0050028036 -0.0039140778 0.0024986512
-0.00051049015 -0.020172555 -0.000513907
-0.0043902155 0.0053191315 -0.0041289767
-0.0043902155 0.0055198534 -0.0041289767
-0.0043902155 0.0057205753 -0.0041289767
-0.0043902155 0.0059212972 -0.0041289767
-0.0043902155 0.0061220191 -0.0041289767
-0.0043902155 0.0063227415 -0.0041289767
-0.0043902155 0.0065234634 -0.0041289767
-0.0043902155 0.0067241853 -0.0041289767
0.0052069998 0.013950176 0.002297814
0.0052069998 0.011340789 0.002297814
0.0052069998 0.0013046926 0.002297814
0.0052069998 -0.0013046926 0.002297814
0.0027566471 0.020373277 -0.0019197675
0.002960843 -0.020373277 -0.0019197675
0.0052069998 -0.0037133561 0.002297814
0.0052069998 -0.011541512 0.002297814
0.0052069998 -0.018968225 0.002297814
0.0050028036 0.019168945 0.002297814
0.0050028036 0.018968225 0.002297814
0.0050028036 0.01655956 0.002297814
-0.0043902155 0.0099357367 -0.0041289767
-0.0041860193 -0.01957039 -0.0041289767
-0.0050028036 0.0013046926 0.0024986512
0.0027566471 0.019971833 -0.0049323258
0.0027566471 0.020172555 -0.0049323258
0.0027566471 0.020373277 -0.0049323258
-0.0043902155 0.011742234 -0.0041289767
-0.0043902155 0.011541512 -0.0041289767
-0.0043902155 0.011340789 -0.0041289767
-0.0043902155 0.011140068 -0.0041289767
-0.0043902155 0.010939346 -0.0041289767
-0.0043902155 0.010738624 -0.0041289767
-0.0043902155 0.010537902 -0.0041289767
-0.00051049015 0.020373277 -0.0027231164
-0.0043902155 0.01033718 -0.0041289767
-0.0043902155 0.010136458 -0.0041289767
0.0050028036 0.016358839 0.002297814
-0.0043902155 0.0097350143 -0.0041289767
-0.0043902155 0.0095342929 -0.0041289767
-0.0043902155 0.0093335705 -0.0041289767
-0.0043902155 0.0091328481 -0.0041289767
-0.0043902155 0.0089321267 -0.0041289767
-0.0043902155 0.0087314043 -0.0041289767
-0.0043902155 0.0085306829 -0.0041289767
-0.0043902155 0.0083299605 -0.0041289767
-0.0043902155 0.0081292391 -0.0041289767
-0.0043902155 0.0079285167 -0.0041289767
-0.0043902155 0.0077277948 -0.0041289767
-0.0043902155 0.0075270729 -0.0041289767
-0.0043902155 0.007326351 -0.0041289767
-0.0043902155 0.0071256291 -0.0041289767
-0.0043902155 0.0069249072 -0.0041289767
-0.0025524509 -0.020373277 -0.0033256279
-0.0025524509 -0.020574 -0.0033256279
-0.0027566471 0.020574 -0.0033256279
-0.0043902155 -0.0067241853 -0.0041289767
-0.0043902155 -0.0069249072 -0.0041289767
-0.0043902155 -0.0071256291 -0.0041289767
-0.0043902155 -0.007326351 -0.0041289767
-0.0043902155 -0.0075270729 -0.0041289767
-0.0043902155 -0.0077277948 -0.0041289767
-0.0043902155 -0.0079285167 -0.0041289767
-0.0043902155 -0.0081292391 -0.0041289767
-0.0043902155 -0.0083299605 -0.0041289767
-0.0019398626 -0.020373277 -0.0011164186
-0.0021440587 0.020373277 -0.0011164186
-0.0025524509 -0.020172555 -0.0033256279
-0.0043902155 -0.0085306829 -0.0041289767
-0.0043902155 -0.0087314043 -0.0041289767
-0.0043902155 -0.0089321267 -0.0041289767
-0.0043902155 -0.0091328481 -0.0041289767
-0.0043902155 -0.0093335705 -0.0041289767
-0.0043902155 -0.0095342929 -0.0041289767
-0.0043902155 -0.0097350143 -0.0041289767
-0.0043902155 -0.0099357367 -0.0041289767
-0.0043902155 -0.010136458 -0.0041289767
-0.0043902155 -0.01033718 -0.0041289767
-0.0043902155 -0.010537902 -0.0041289767
-0.0043902155 -0.010738624 -0.0041289767
-0.0043902155 -0.010939346 -0.0041289767
-0.0043902155 -0.011140068 -0.0041289767
-0.0043902155 -0.011340789 -0.0041289767
-0.0043902155 -0.0037133561 -0.0041289767
0.0050028036 0.013950176 0.002297814
-0.0043902155 -0.00090324873 -0.0041289767
-0.0043902155 -0.0011039707 -0.0041289767
-0.0043902155 -0.0013046926 -0.0041289767
-0.0043902155 -0.0015054146 -0.0041289767
-0.0043902155 -0.0017061365 -0.0041289767
-0.0043902155 -0.0019068585 -0.0041289767
-0.0043902155 -0.0021075804 -0.0041289767
-0.0043902155 -0.0023083023 -0.0041289767
-0.0043902155 -0.0025090242 -0.0041289767
-0.0043902155 -0.0027097464 -0.0041289767
-0.0043902155 -0.0029104683 -0.0041289767
-0.0043902155 -0.0031111902 -0.0041289767
-0.0043902155 -0.0033119121 -0.0041289767
-0.0043902155 -0.003512634 -0.0041289767
-0.0043902155 -0.0039140778 -0.0041289767
-0.0043902155 -0.0041147997 -0.0041289767
-0.0043902155 -0.004315522 -0.0041289767
-0.0043902155 -0.0045162439 -0.0041289767
-0.0043902155 -0.0047169658 -0.0041289767
-0.0043902155 -0.0049176877 -0.0041289767
-0.0043902155 -0.0051184096 -0.0041289767
-0.0043902155 -0.0053191315 -0.0041289767
-0.0043902155 -0.0055198534 -0.0041289767
-0.0043902155 -0.0057205753 -0.0041289767
-0.0043902155 -0.0059212972 -0.0041289767
-0.0043902155 -0.0061220191 -0.0041289767
-0.0043902155 -0.0063227415 -0.0041289767
-0.0043902155 -0.0065234634 -0.0041289767
-0.0025524509 -0.019971833 -0.0033256279
0.0041860193 -0.020373277 -0.0019197675
0.0043902155 0.0053191315 -0.0049323258
0.0043902155 0.0051184096 -0.0049323258
0.0043902155 0.0049176877 -0.0049323258
0.0043902155 0.0047169658 -0.0049323258
0.0043902155 0.0045162439 -0.0049323258
0.0043902155 0.004315522 -0.0049323258
0.0043902155 0.0055198534 -0.0049323258
0.0039818236 0.020373277 -0.0019197675
0.0043902155 -0.004315522 -0.0049323258
0.0043902155 -0.0045162439 -0.0049323258
0.0043902155 -0.0047169658 -0.0049323258
0.0043902155 0.0057205753 -0.0049323258
0.0043902155 0.0059212972 -0.0049323258
0.0043902155 0.0061220191 -0.0049323258
0.0043902155 0.0063227415 -0.0049323258
0.0043902155 0.0065234634 -0.0049323258
0.0043902155 0.0067241853 -0.0049323258
0.0043902155 0.0069249072 -0.0049323258
0.0043902155 0.0071256291 -0.0049323258
0.0043902155 0.007326351 -0.0049323258
0.0043902155 0.0075270729 -0.0049323258
0.0043902155 0.0077277948 -0.0049323258
0.0043902155 0.0079285167 -0.0049323258
0.0043902155 0.0081292391 -0.0049323258
0.0043902155 0.0083299605 -0.0049323258
0.0043902155 0.0085306829 -0.0049323258
0.0043902155 -0.007326351 -0.0049323258
0.0043902155 -0.01033718 -0.0049323258
0.0043902155 -0.010136458 -0.0049323258
0.0043902155 -0.0099357367 -0.0049323258
0.0043902155 -0.0097350143 -0.0049323258
0.0043902155 -0.0095342929 -0.0049323258
0.0043902155 -0.0093335705 -0.0049323258
0.0043902155 -0.0091328481 -0.0049323258
0.0043902155 -0.0089321267 -0.0049323258
0.0043902155 -0.0087314043 -0.0049323258
0.0043902155 -0.0085306829 -0.0049323258
0.0043902155 -0.0083299605 -0.0049323258
0.0043902155 -0.0081292391 -0.0049323258
0.0043902155 -0.0079285167 -0.0049323258
0.0043902155 -0.0077277948 -0.0049323258
0.0043902155 -0.0075270729 -0.0049323258
0.0043902155 0.0087314043 -0.0049323258
0.0043902155 -0.0071256291 -0.0049323258
0.0043902155 -0.0069249072 -0.0049323258
0.0043902155 -0.0067241853 -0.0049323258
0.0043902155 -0.0065234634 -0.0049323258
0.0043902155 -0.0063227415 -0.0049323258
0.0043902155 -0.0061220191 -0.0049323258
0.0043902155 -0.0059212972 -0.0049323258
0.0043902155 -0.0057205753 -0.0049323258
0.0043902155 -0.0055198534 -0.0049323258
0.0043902155 -0.0053191315 -0.0049323258
0.0043902155 -0.0051184096 -0.0049323258
-0.0033692352 -0.020373277 -0.0011164186
0.0043902155 -0.0049176877 -0.0049323258
0.0045944117 0.013749453 -0.0049323258
0.0045944117 -0.011140068 -0.0049323258
0.0045944117 -0.010939346 -0.0049323258
0.0045944117 -0.010738624 -0.0049323258
0.0045944117 -0.010537902 -0.0049323258
0.0045944117 -0.01033718 -0.0049323258
0.0045944117 -0.010136458 -0.0049323258
0.0045944117 -0.0099357367 -0.0049323258
0.0045944117 -0.0097350143 -0.0049323258
-0.0035734312 -0.020373277 -0.0011164186
0.0045944117 0.013348009 -0.0049323258
0.0045944117 0.013548731 -0.0049323258
0.0045944117 -0.011340789 -0.0049323258
0.0045944117 0.013950176 -0.0049323258
0.0045944117 0.014150897 -0.0049323258
0.0045944117 0.014351619 -0.0049323258
0.0045944117 0.014552341 -0.0049323258
0.0045944117 0.014753063 -0.0049323258
0.0045944117 0.014953785 -0.0049323258
0.0045944117 0.015154507 -0.0049323258
0.0045944117 0.015355228 -0.0049323258
0.0045944117 0.015555951 -0.0049323258
-0.0037776274 -0.020574 -0.0033256279
-0.0037776274 -0.020373277 -0.0011164186
0.0043902155 0.014552341 -0.0049323258
0.0043902155 0.0089321267 -0.0049323258
0.0043902155 0.0091328481 -0.0049323258
0.0043902155 0.0093335705 -0.0049323258
0.0043902155 0.0095342929 -0.0049323258
0.0043902155 0.0097350143 -0.0049323258
0.0043902155 0.0099357367 -0.0049323258
0.0043902155 0.010136458 -0.0049323258
0.0043902155 0.01033718 -0.0049323258
0.0043902155 0.010537902 -0.0049323258
0.0043902155 0.013348009 -0.0049323258
0.0043902155 0.013548731 -0.0049323258
0.0043902155 0.013749453 -0.0049323258
0.0043902155 0.013950176 -0.0049323258
0.0043902155 0.014150897 -0.0049323258
0.0043902155 0.014351619 -0.0049323258
0.0043902155 -0.010537902 -0.0049323258
0.0043902155 0.014753063 -0.0049323258
0.0043902155 0.014953785 -0.0049323258
0.0043902155 0.015154507 -0.0049323258
0.0043902155 0.015355228 -0.0049323258
0.0043902155 0.015555951 -0.0049323258
0.0043902155 0.015756672 -0.0049323258
0.0043902155 0.015957395 -0.0049323258
0.0043902155 0.016158117 -0.0049323258
0.0043902155 0.016358839 -0.0049323258
0.0043902155 0.01655956 -0.0049323258
0.0043902155 0.016760282 -0.0049323258
0.0043902155 0.016961005 -0.0049323258
0.0045944117 -0.011541512 -0.0049323258
0.0052069998 -0.0037133561 0.00089195347
-0.0052069998 0.0037133561 0.0010927906
-0.0052069998 -0.013950176 0.0010927906
0.0052069998 0.018968225 0.00089195347
0.0052069998 0.013950176 0.00089195347
0.0052069998 0.011340789 0.00089195347
0.0052069998 0.0013046926 0.00089195347
0.0052069998 -0.0013046926 0.00089195347
-0.0052069998 0.0089321267 0.0010927906
0.0052069998 -0.011340789 0.00089195347
0.0052069998 -0.011541512 0.00089195347
-0.002960843 -0.020373277 -0.0011164186
0.00051049015 0.020574 -0.0027231164
-0.0052069998 0.018968225 0.0010927906
-0.0050028036 -0.016358839 0.0010927906
-0.0050028036 -0.011541512 0.0010927906
-0.0050028036 -0.0063227415 0.0010927906
0.0037776274 0.020373277 -0.0019197675
0.0039818236 -0.020373277 -0.0019197675
-0.0035734312 -0.020574 -0.0033256279
-0.0037776274 0.020574 -0.0033256279
0.0039818236 -0.019369667 -0.0049323258
0.0035734312 0.020373277 -0.0019197675
0.0037776274 -0.020373277 -0.0019197675
-0.0033692352 -0.019971833 -0.0033256279
-0.0033692352 -0.020172555 -0.0033256279
-0.0033692352 -0.020373277 -0.0033256279
-0.0033692352 -0.020574 -0.0033256279
-0.0035734312 0.020574 -0.0033256279
0.0037776274 0.019971833 -0.0049323258
0.0037776274 0.020172555 -0.0049323258
0.0039818236 -0.020172555 -0.0049323258
0.0039818236 -0.019971833 -0.0049323258
0.0039818236 -0.019771112 -0.0049323258
0.0039818236 -0.01957039 -0.0049323258
0.0039818236 0.019771112 -0.0049323258
0.0039818236 -0.019168945 -0.0049323258
0.0039818236 -0.018968225 -0.0049323258
0.0039818236 -0.018767502 -0.0049323258
0.0039818236 -0.01856678 -0.0049323258
0.0039818236 -0.018366057 -0.0049323258
0.0039818236 -0.018165337 -0.0049323258
0.0039818236 -0.017964615 -0.0049323258
0.0039818236 -0.016760282 -0.0049323258
0.0039818236 -0.01655956 -0.0049323258
0.0041860193 0.018165337 -0.0049323258
-0.0050028036 0.011541512 0.0010927906
0.0041860193 0.015555951 -0.0049323258
0.0041860193 0.015756672 -0.0049323258
0.0041860193 0.015957395 -0.0049323258
0.0041860193 0.016158117 -0.0049323258
0.0041860193 0.016358839 -0.0049323258
0.0041860193 0.01655956 -0.0049323258
0.0041860193 0.016760282 -0.0049323258
0.0041860193 0.016961005 -0.0049323258
0.0041860193 0.017161727 -0.0049323258
0.0041860193 0.017362447 -0.0049323258
0.0041860193 0.01756317 -0.0049323258
0.0041860193 0.017763892 -0.0049323258
0.0041860193 0.017964615 -0.0049323258
-0.0050028036 0.0089321267 0.0010927906
0.0043902155 -0.013749453 -0.0049323258
0.0043902155 -0.013548731 -0.0049323258
0.0043902155 -0.013348009 -0.0049323258
0.0043902155 -0.012946566 -0.0049323258
0.0043902155 -0.012745843 -0.0049323258
0.0043902155 -0.012545122 -0.0049323258
0.0043902155 -0.012344399 -0.0049323258
0.0043902155 -0.012143678 -0.0049323258
0.0043902155 -0.011942956 -0.0049323258
0.0043902155 -0.011742234 -0.0049323258
0.0043902155 -0.011541512 -0.0049323258
0.0043902155 -0.011340789 -0.0049323258
0.0043902155 -0.011140068 -0.0049323258
0.0043902155 -0.010939346 -0.0049323258
0.0043902155 -0.010738624 -0.0049323258
0.0041860193 -0.017763892 -0.0049323258
0.0041860193 -0.01756317 -0.0049323258
0.0041860193 -0.017362447 -0.0049323258
0.0041860193 -0.017161727 -0.0049323258
0.0041860193 -0.016961005 -0.0049323258
0.0041860193 -0.016760282 -0.0049323258
0.0041860193 -0.01655956 -0.0049323258
0.0041860193 -0.016358839 -0.0049323258
0.0041860193 -0.016158117 -0.0049323258
0.0041860193 -0.015957395 -0.0049323258
0.0041860193 -0.015756672 -0.0049323258
0.0041860193 -0.015555951 -0.0049323258
0.0041860193 -0.015355228 -0.0049323258
0.0041860193 -0.015154507 -0.0049323258
-0.0041860193 -0.019369667 -0.0041289767
-0.003165039 -0.020373277 -0.0011164186
0.00071468623 0.020574 -0.0027231164
-0.0050028036 -0.0039140778 0.0010927906
0.0011230784 0.020172555 -0.000513907
0.0013272745 -0.020172555 -0.000513907
-0.0050028036 0.0013046926 0.0010927906
0.0041860193 0.011942956 -0.0049323258
0.0041860193 0.012143678 -0.0049323258
0.0041860193 0.012344399 -0.0049323258
0.0041860193 0.012545122 -0.0049323258
0.0041860193 0.012745843 -0.0049323258
0.0041860193 0.012946566 -0.0049323258
-0.0025524509 -0.019771112 -0.0037273024
-0.0027566471 0.020373277 -0.0037273024
0.0023482549 0.019971833 -0.0049323258
0.0023482549 0.020172555 -0.0049323258
0.0023482549 0.020373277 -0.0049323258
-0.00091888232 0.020373277 -0.0027231164
-0.00071468623 -0.020373277 -0.0027231164
0.0003062941 0.020574 -0.0023214419
0.0023482549 0.020574 -0.0019197675
0.0025524509 -0.020373277 -0.0019197675
-0.0052069998 0.018968225 0.0012936279
-0.0052069998 0.0089321267 0.0012936279
-0.0052069998 0.0037133561 0.0012936279
-0.0019398626 -0.020373277 -0.0033256279
-0.0050028036 -0.0063227415 0.0012936279
0.0023482549 -0.020574 -0.0049323258
-0.00091888232 -0.020373277 -0.0027231164
-0.0050028036 0.0087314043 0.002297814
-0.0050028036 0.011541512 0.002297814
-0.0050028036 0.011541512 0.0012936279
0.0021440587 0.020574 -0.0019197675
0.0023482549 -0.020373277 -0.0019197675
-0.0050028036 -0.0013046926 0.0012936279
-0.0050028036 -0.0039140778 0.0012936279
-0.0011230784 0.020172555 -0.000513907
-0.00091888232 -0.020172555 -0.000513907
-0.0021440587 0.020574 -0.0033256279
-0.0039818236 0.020373277 -0.0041289767
-0.0050028036 -0.016358839 0.0012936279
-0.0013272745 -0.020373277 -0.0011164186
-0.0015314706 0.020574 -0.0011164186
-0.0015314706 0.020373277 -0.0011164186
-0.0037776274 -0.019771112 -0.0041289767
-0.0050028036 0.0087314043 0.0024986512
0.0050028036 0.0063227415 0.0010927906
0.0052069998 0.018968225 0.0010927906
0.0052069998 0.013950176 0.0010927906
0.0052069998 0.0089321267 0.0010927906
0.0052069998 0.0013046926 0.0010927906
0.0052069998 -0.0013046926 0.0010927906
0.0052069998 -0.0037133561 0.0010927906
0.0052069998 -0.011340789 0.0010927906
0.0052069998 -0.011541512 0.0010927906
0.0052069998 -0.018968225 0.0010927906
0.0050028036 0.019168945 0.0010927906
0.0050028036 0.01655956 0.0010927906
0.0050028036 0.016358839 0.0010927906
0.0050028036 0.013950176 0.0010927906
0.0050028036 0.0039140778 0.0010927906
0.0050028036 0.0013046926 0.0010927906
0.0050028036 -0.0013046926 0.0010927906
0.0050028036 -0.0089321267 0.0010927906
0.0050028036 -0.018968225 0.0010927906
-0.00091888232 0.020172555 -0.000513907
0.0025524509 0.020373277 -0.0019197675
0.0027566471 -0.020373277 -0.0019197675
-0.00071468623 -0.020172555 -0.000513907
0.0050028036 -0.0013046926 0.0016953023
-0.0050028036 0.013950176 0.0024986512
-0.0050028036 0.011541512 0.0024986512
-0.0041860193 -0.016158117 -0.0041289767
-0.0017356667 -0.020373277 -0.0011164186
-0.0019398626 0.020574 -0.0011164186
-0.0041860193 -0.013950176 -0.0041289767
-0.0041860193 -0.014150897 -0.0041289767
-0.0041860193 -0.014351619 -0.0041289767
-0.0041860193 -0.014552341 -0.0041289767
-0.0041860193 -0.014753063 -0.0041289767
-0.0041860193 -0.014953785 -0.0041289767
-0.0041860193 -0.015154507 -0.0041289767
-0.0041860193 -0.015355228 -0.0041289767
-0.0041860193 -0.015555951 -0.0041289767
-0.0041860193 -0.015756672 -0.0041289767
-0.0041860193 -0.015957395 -0.0041289767
-0.0041860193 -0.016358839 -0.0041289767
-0.0041860193 -0.01655956 -0.0041289767
-0.0041860193 -0.016760282 -0.0041289767
-0.0041860193 -0.016961005 -0.0041289767
-0.0041860193 -0.017161727 -0.0041289767
-0.0041860193 -0.017362447 -0.0041289767
-0.0041860193 -0.01756317 -0.0041289767
-0.0041860193 -0.017763892 -0.0041289767
-0.0041860193 -0.017964615 -0.0041289767
-0.0041860193 -0.018165337 -0.0041289767
-0.0041860193 -0.018366057 -0.0041289767
-0.0041860193 -0.01856678 -0.0041289767
-0.0041860193 -0.018767502 -0.0041289767
-0.0041860193 -0.018968225 -0.0041289767
-0.0041860193 -0.019168945 -0.0041289767
-0.0023482549 -0.020574 -0.0033256279
-0.0025524509 0.020574 -0.0033256279
-0.0041860193 -0.011942956 -0.0041289767
-0.0041860193 -0.012143678 -0.0041289767
-0.0041860193 -0.012344399 -0.0041289767
-0.0041860193 -0.012545122 -0.0041289767
-0.0041860193 -0.012745843 -0.0041289767
-0.0041860193 -0.012946566 -0.0041289767
-0.0041860193 -0.013147287 -0.0041289767
-0.0041860193 -0.013348009 -0.0041289767
-0.0041860193 -0.013548731 -0.0041289767
-0.0041860193 -0.013749453 -0.0041289767
-0.0015314706 -0.020373277 -0.0011164186
-0.0017356667 0.020574 -0.0011164186
-0.0039818236 -0.019771112 -0.0041289767
-0.0052069998 -0.013950176 0.0012936279
-0.0041860193 0.020172555 -0.0041289767
-0.0041860193 0.019971833 -0.0041289767
-0.0041860193 0.019771112 -0.0041289767
-0.0041860193 0.01957039 -0.0041289767
-0.0041860193 0.019369667 -0.0041289767
-0.0041860193 0.019168945 -0.0041289767
-0.0041860193 0.018968225 -0.0041289767
-0.0041860193 0.018767502 -0.0041289767
-0.0021440587 -0.020373277 -0.0033256279
-0.0023482549 0.020574 -0.0033256279
-0.0041860193 0.01856678 -0.0041289767
-0.0041860193 0.011942956 -0.0041289767
-0.0041860193 0.012143678 -0.0041289767
0.0025524509 0.019971833 -0.0049323258
0.0025524509 0.020172555 -0.0049323258
0.0025524509 0.020373277 -0.0049323258
-0.00071468623 0.020373277 -0.0027231164
-0.00051049015 -0.020373277 -0.0027231164
-0.0041860193 0.015355228 -0.0041289767
-0.0041860193 0.018366057 -0.0041289767
-0.0041860193 0.018165337 -0.0041289767
-0.0041860193 0.017964615 -0.0041289767
-0.0041860193 0.017763892 -0.0041289767
-0.0041860193 0.01756317 -0.0041289767
-0.0041860193 0.017362447 -0.0041289767
-0.0041860193 0.017161727 -0.0041289767
-0.0041860193 0.016961005 -0.0041289767
-0.0041860193 0.016760282 -0.0041289767
-0.0041860193 0.01655956 -0.0041289767
-0.0041860193 0.016358839 -0.0041289767
-0.0041860193 0.016158117 -0.0041289767
-0.0041860193 0.015957395 -0.0041289767
-0.0041860193 0.015756672 -0.0041289767
-0.0041860193 0.015555951 -0.0041289767
-0.0035734312 -0.020172555 -0.000513907
-0.0041860193 0.015154507 -0.0041289767
-0.0041860193 0.014953785 -0.0041289767
-0.0041860193 0.014753063 -0.0041289767
-0.0041860193 0.014552341 -0.0041289767
-0.0041860193 0.014351619 -0.0041289767
-0.0041860193 0.014150897 -0.0041289767
-0.0041860193 0.013950176 -0.0041289767
-0.0041860193 0.013749453 -0.0041289767
-0.0041860193 0.013548731 -0.0041289767
-0.0041860193 0.013348009 -0.0041289767
-0.0041860193 0.013147287 -0.0041289767
-0.0041860193 0.012946566 -0.0041289767
-0.0041860193 0.012745843 -0.0041289767
-0.0041860193 0.012545122 -0.0041289767
-0.0041860193 0.012344399 -0.0041289767
-0.0043902155 0.011340789 -0.0037273024
-0.0043902155 0.012946566 -0.0037273024
-0.0043902155 0.012745843 -0.0037273024
-0.0043902155 0.012545122 -0.0037273024
-0.0043902155 0.012344399 -0.0037273024
-0.0043902155 0.012143678 -0.0037273024
-0.0043902155 0.011942956 -0.0037273024
-0.0043902155 0.011742234 -0.0037273024
-0.0043902155 0.011541512 -0.0037273024
-0.0043902155 0.013147287 -0.0037273024
-0.0043902155 0.011140068 -0.0037273024
-0.0035734312 -0.020574 -0.0027231164
-0.0037776274 0.020574 -0.0027231164
-0.0043902155 0.010939346 -0.0037273024
-0.0043902155 0.013348009 -0.0037273024
-0.0043902155 0.013548731 -0.0037273024
0.00051049015 0.020574 -0.0033256279
-0.0043902155 0.013749453 -0.0037273024
-0.0043902155 0.013950176 -0.0037273024
-0.0043902155 0.014150897 -0.0037273024
-0.0043902155 0.014351619 -0.0037273024
-0.0043902155 0.014552341 -0.0037273024
-0.0043902155 0.014753063 -0.0037273024
-0.0043902155 0.014953785 -0.0037273024
-0.0043902155 0.015154507 -0.0037273024
-0.0043902155 0.015355228 -0.0037273024
-0.0043902155 0.015555951 -0.0037273024
-0.0045944117 -0.018968225 -0.000513907
-0.0047986074 0.017362447 -0.000513907
-0.0047986074 0.01756317 -0.000513907
-0.0047986074 0.017763892 -0.000513907
-0.0047986074 0.017964615 -0.000513907
-0.0047986074 0.018165337 -0.000513907
-0.0047986074 0.018366057 -0.000513907
-0.0047986074 0.01856678 -0.000513907
-0.0047986074 0.018767502 -0.000513907
-0.0047986074 0.018968225 -0.000513907
-0.0047986074 0.019168945 -0.000513907
-0.0047986074 0.019369667 -0.000513907
-0.0047986074 0.01957039 -0.000513907
-0.0045944117 -0.019168945 -0.000513907
-0.0043902155 0.015756672 -0.0037273024
-0.0045944117 -0.018767502 -0.000513907
-0.0045944117 -0.01856678 -0.000513907
-0.0043902155 0.0083299605 -0.0037273024
-0.0043902155 0.0085306829 -0.0037273024
-0.0043902155 0.0087314043 -0.0037273024
-0.0043902155 0.0089321267 -0.0037273024
-0.0043902155 0.0091328481 -0.0037273024
-0.0043902155 0.0093335705 -0.0037273024
-0.0043902155 0.0095342929 -0.0037273024
-0.0043902155 0.0097350143 -0.0037273024
-0.0043902155 0.0099357367 -0.0037273024
-0.0043902155 0.010136458 -0.0037273024
-0.0043902155 0.01033718 -0.0037273024
-0.0043902155 0.010537902 -0.0037273024
-0.0043902155 0.010738624 -0.0037273024
-0.0041860193 -0.01655956 -0.0037273024
-0.0041860193 -0.015555951 -0.0037273024
-0.0041860193 -0.015756672 -0.0037273024
-0.0041860193 -0.015957395 -0.0037273024
-0.0041860193 -0.016158117 -0.0037273024
-0.0041860193 -0.016358839 -0.0037273024
-0.0041860193 -0.016760282 -0.0037273024
-0.0041860193 -0.016961005 -0.0037273024
-0.0041860193 -0.017161727 -0.0037273024
-0.0041860193 -0.017362447 -0.0037273024
-0.0041860193 -0.01756317 -0.0037273024
-0.0041860193 -0.017763892 -0.0037273024
-0.0041860193 -0.017964615 -0.0037273024
-0.0041860193 -0.018165337 -0.0037273024
-0.0043902155 0.017763892 -0.0037273024
-0.0043902155 0.015957395 -0.0037273024
-0.0043902155 0.016158117 -0.0037273024
-0.0043902155 0.016358839 -0.0037273024
-0.0043902155 0.01655956 -0.0037273024
-0.00051049015 0.020574 -0.0049323258
-0.0043902155 0.016760282 -0.0037273024
0.0015314706 -0.020373277 -0.0011164186
0.0013272745 0.020373277 -0.0011164186
-0.0043902155 0.016961005 -0.0037273024
-0.0043902155 0.017161727 -0.0037273024
-0.0043902155 0.017362447 -0.0037273024
-0.0043902155 0.01756317 -0.0037273024
-0.0047986074 0.017161727 -0.000513907
-0.0043902155 0.017964615 -0.0037273024
-0.0043902155 0.018165337 -0.0037273024
-0.0043902155 0.018366057 -0.0037273024
-0.0043902155 0.01856678 -0.0037273024
-0.0043902155 0.018767502 -0.0037273024
-0.0045944117 -0.018366057 -0.000513907
-0.0045944117 -0.018165337 -0.000513907
-0.0045944117 -0.017964615 -0.000513907
-0.0041860193 -0.01957039 -0.0037273024
-0.0041860193 -0.019369667 -0.0037273024
-0.0041860193 -0.019168945 -0.0037273024
-0.0041860193 -0.018968225 -0.0037273024
-0.0041860193 -0.018767502 -0.0037273024
-0.0041860193 -0.01856678 -0.0037273024
-0.0041860193 -0.018366057 -0.0037273024
-0.0043902155 -0.011140068 -0.0037273024
-0.0043902155 -0.0095342929 -0.0037273024
-0.0043902155 -0.0097350143 -0.0037273024
-0.0043902155 -0.0099357367 -0.0037273024
-0.0043902155 -0.010136458 -0.0037273024
-0.0043902155 -0.01033718 -0.0037273024
-0.0043902155 -0.010537902 -0.0037273024
-0.0043902155 -0.010738624 -0.0037273024
-0.0043902155 -0.010939346 -0.0037273024
-0.0043902155 -0.0093335705 -0.0037273024
-0.0043902155 -0.011340789 -0.0037273024
-0.0043902155 -0.011541512 -0.0037273024
-0.0043902155 -0.011742234 -0.0037273024
-0.0043902155 -0.011942956 -0.0037273024
-0.0043902155 -0.012143678 -0.0037273024
-0.0043902155 -0.012344399 -0.0037273024
-0.0043902155 -0.012545122 -0.0037273024
-0.0043902155 -0.012745843 -0.0037273024
-0.0043902155 -0.0091328481 -0.0037273024
-0.0043902155 -0.0089321267 -0.0037273024
-0.0043902155 -0.0087314043 -0.0037273024
-0.0043902155 -0.0085306829 -0.0037273024
-0.0043902155 -0.0083299605 -0.0037273024
-0.0043902155 -0.0081292391 -0.0037273024
-0.0043902155 -0.0079285167 -0.0037273024
-0.0043902155 -0.0077277948 -0.0037273024
-0.0043902155 -0.0075270729 -0.0037273024
-0.0043902155 -0.007326351 -0.0037273024
-0.0043902155 -0.0071256291 -0.0037273024
-0.00051049015 0.020373277 -0.0019197675
0.0023482549 -0.020373277 -0.0023214419
0.0021440587 0.020574 -0.0023214419
0.0017356667 -0.020373277 -0.0011164186
-0.0045944117 0.0069249072 -0.0037273024
-0.0037776274 -0.020574 -0.0027231164
0.00071468623 0.020574 -0.0033256279
-0.0047986074 0.011140068 -0.000513907
-0.0047986074 0.011340789 -0.000513907
-0.0047986074 0.011541512 -0.000513907
-0.0047986074 0.011742234 -0.000513907
-0.00071468623 0.020373277 -0.0049323258
0.0015314706 0.020373277 -0.0011164186
-0.0043902155 -0.015355228 -0.0037273024
-0.0043902155 -0.015154507 -0.0037273024
-0.0043902155 -0.014953785 -0.0037273024
-0.0043902155 -0.014753063 -0.0037273024
-0.0043902155 -0.014552341 -0.0037273024
-0.0043902155 -0.014351619 -0.0037273024
-0.0043902155 -0.014150897 -0.0037273024
-0.0043902155 -0.013950176 -0.0037273024
-0.0043902155 -0.013749453 -0.0037273024
-0.0043902155 -0.013548731 -0.0037273024
-0.0043902155 -0.013348009 -0.0037273024
-0.0043902155 -0.013147287 -0.0037273024
-0.0043902155 -0.012946566 -0.0037273024
-0.0047986074 0.013950176 -0.000513907
-0.0047986074 0.011942956 -0.000513907
-0.0047986074 0.012143678 -0.000513907
-0.0047986074 0.012344399 -0.000513907
-0.0047986074 0.012545122 -0.000513907
-0.0047986074 0.012745843 -0.000513907
-0.0047986074 0.012946566 -0.000513907
-0.0047986074 0.013147287 -0.000513907
-0.0047986074 0.013348009 -0.000513907
-0.0047986074 0.014351619 -0.000513907
-0.0047986074 0.014552341 -0.000513907
-0.0047986074 0.014753063 -0.000513907
-0.0047986074 0.014953785 -0.000513907
-0.0047986074 0.015154507 -0.000513907
-0.0047986074 0.015355228 -0.000513907
-0.0047986074 0.015555951 -0.000513907
-0.0047986074 0.015756672 -0.000513907
-0.0047986074 0.015957395 -0.000513907
-0.0047986074 0.016158117 -0.000513907
-0.0047986074 0.016961005 -0.000513907
-0.0043902155 -0.0069249072 -0.0037273024
-0.0043902155 -0.0067241853 -0.0037273024
-0.0043902155 -0.0065234634 -0.0037273024
-0.0043902155 -0.0063227415 -0.0037273024
-0.0043902155 -0.0061220191 -0.0037273024
-0.0043902155 -0.0059212972 -0.0037273024
-0.0011230784 -0.020172555 -0.0041289767
-0.0011230784 -0.020373277 -0.0041289767
-0.0011230784 -0.020574 -0.0041289767
-0.0013272745 0.020574 -0.0041289767
-0.0041860193 0.019971833 -0.0037273024
-0.0041860193 0.019771112 -0.0037273024
-0.0041860193 0.01957039 -0.0037273024
-0.0041860193 0.019369667 -0.0037273024
-0.0041860193 0.019168945 -0.0037273024
-0.0041860193 0.018968225 -0.0037273024
-0.0041860193 0.020172555 -0.0037273024
-0.0043902155 -0.013147287 -0.000513907
-0.0039818236 -0.019771112 -0.0037273024
-0.0003062941 0.020574 -0.0049323258
-0.0015314706 -0.019971833 -0.0041289767
0.0019398626 -0.020373277 -0.0023214419
-0.0017356667 0.020574 -0.0041289767
0.0017356667 0.020574 -0.0023214419
-0.00010209803 0.020373277 -0.0019197675
-0.0015314706 0.020574 -0.0041289767
-0.0013272745 -0.019971833 -0.0041289767
-0.0045944117 0.013147287 -0.000513907
-0.0045944117 0.013348009 -0.000513907
-0.0045944117 0.013548731 -0.000513907
-0.0045944117 0.013749453 -0.000513907
-0.0045944117 0.013950176 -0.000513907
-0.0045944117 0.014150897 -0.000513907
-0.0045944117 0.014351619 -0.000513907
-0.0045944117 0.014552341 -0.000513907
-0.0045944117 0.014753063 -0.000513907
-0.0045944117 0.014953785 -0.000513907
-0.0003062941 0.020373277 -0.0019197675
-0.0045944117 0.015154507 -0.000513907
0.0021440587 -0.020373277 -0.0023214419
0.0019398626 0.020574 -0.0023214419
-0.0043902155 -0.014552341 -0.000513907
-0.0043902155 -0.016961005 -0.000513907
-0.0043902155 -0.016760282 -0.000513907
-0.0043902155 -0.01655956 -0.000513907
-0.0043902155 -0.016358839 -0.000513907
-0.0043902155 -0.016158117 -0.000513907
-0.0043902155 -0.015957395 -0.000513907
-0.0043902155 -0.015756672 -0.000513907
-0.0043902155 -0.015555951 -0.000513907
-0.0043902155 -0.015355228 -0.000513907
-0.0043902155 -0.015154507 -0.000513907
-0.0043902155 -0.014953785 -0.000513907
-0.0043902155 -0.014753063 -0.000513907
-0.0033692352 -0.020574 -0.0027231164
-0.0043902155 -0.014351619 -0.000513907
-0.0043902155 -0.014150897 -0.000513907
-0.0043902155 -0.013950176 -0.000513907
-0.0043902155 -0.013749453 -0.000513907
-0.0043902155 -0.013548731 -0.000513907
0.0003062941 0.020574 -0.0033256279
-0.0043902155 -0.013348009 -0.000513907
0.0011230784 0.020373277 -0.0011164186
-0.0050028036 -0.0057205753 -0.00031306982
-0.0045944117 0.015355228 -0.000513907
-0.0045944117 0.015555951 -0.000513907
-0.0045944117 0.015756672 -0.000513907
-0.0045944117 0.015957395 -0.000513907
-0.0045944117 0.016158117 -0.000513907
-0.0045944117 0.016358839 -0.000513907
-0.0045944117 0.01655956 -0.000513907
-0.0045944117 0.016760282 -0.000513907
-0.0045944117 0.016961005 -0.000513907
-0.0045944117 0.017161727 -0.000513907
-0.0045944117 0.017362447 -0.000513907
-0.0045944117 0.01756317 -0.000513907
-0.0045944117 0.017763892 -0.000513907
-0.0045944117 0.0067241853 -0.0037273024
-0.0045944117 0.019771112 -0.000513907
-0.0043902155 -0.01957039 -0.000513907
-0.0043902155 -0.019369667 -0.000513907
-0.0043902155 -0.019168945 -0.000513907
-0.0043902155 -0.018968225 -0.000513907
-0.0043902155 -0.018767502 -0.000513907
-0.0043902155 -0.01856678 -0.000513907
-0.0043902155 -0.018366057 -0.000513907
-0.0043902155 -0.018165337 -0.000513907
-0.0043902155 -0.017964615 -0.000513907
-0.0043902155 -0.017763892 -0.000513907
-0.0043902155 -0.01756317 -0.000513907
-0.0043902155 -0.017362447 -0.000513907
-0.0043902155 -0.017161727 -0.000513907
-0.0035734312 0.020574 -0.0027231164
-0.0050028036 0.01033718 -0.000513907
0.002960843 0.020373277 -0.0011164186
0.003165039 -0.020373277 -0.0011164186
-0.0050028036 0.010537902 -0.000513907
-0.0050028036 0.010136458 -0.000513907
-0.0050028036 0.0099357367 -0.000513907
0.0035734312 -0.020373277 -0.0023214419
0.0033692352 0.020574 -0.0023214419
0.0021440587 -0.020373277 -0.0033256279
0.0019398626 0.020574 -0.0033256279
-0.0052069998 0.016358839 -0.0027231164
-0.0052069998 0.01655956 -0.0027231164
-0.0052069998 0.016760282 -0.0027231164
-0.0052069998 0.016961005 -0.0027231164
0.0052069998 0.014552341 -0.0029239536
0.0052069998 0.011541512 -0.0029239536
0.0052069998 0.011742234 -0.0029239536
0.0052069998 0.011942956 -0.0029239536
0.0052069998 0.012143678 -0.0029239536
0.0052069998 0.012344399 -0.0029239536
0.0052069998 0.012545122 -0.0029239536
0.0052069998 0.012745843 -0.0029239536
0.0052069998 0.012946566 -0.0029239536
0.0052069998 0.013147287 -0.0029239536
0.0052069998 0.013348009 -0.0029239536
0.0052069998 0.013548731 -0.0029239536
0.0052069998 0.013749453 -0.0029239536
0.0052069998 0.013950176 -0.0029239536
0.0052069998 0.014150897 -0.0029239536
0.0052069998 0.014351619 -0.0029239536
-0.0052069998 0.017161727 -0.0027231164
0.0052069998 0.014753063 -0.0029239536
0.0052069998 0.014953785 -0.0029239536
0.0052069998 0.015154507 -0.0029239536
0.0052069998 0.015355228 -0.0029239536
0.0052069998 0.015555951 -0.0029239536
-0.0052069998 -0.016358839 -0.0027231164
-0.0050028036 0.007326351 -0.000513907
-0.0050028036 0.0075270729 -0.000513907
-0.0050028036 0.0077277948 -0.000513907
-0.0050028036 0.0079285167 -0.000513907
-0.0050028036 0.014953785 -0.000513907
-0.0050028036 0.015154507 -0.000513907
-0.0050028036 0.015355228 -0.000513907
0.002960843 -0.020373277 -0.0011164186
