# .PCD v0.7 - Point Cloud Data file format
VERSION 0.7
FIELDS x y z
SIZE 4 4 4
TYPE F F F
COUNT 1 1 1
WIDTH 1200
HEIGHT 1
VIEWPOINT 0 0 0 1 0 0 0
POINTS 1200
DATA ascii
0.0086988192 -0.0017445795 0.0067210104
0.0082208607 -0.0032953164 0.0091944188
0.0077429027 -0.0032953168 0.0091944197
0.0077429032 -0.0032953168 0.0087187635
0.0082208598 -0.0032953154 0.0087187644
0.0082208607 -0.0032953168 0.00824311
0.006827957 0.00015230512 0.0098739276
0.006213442 -0.00087228959 0.011287302
0.0058310754 -0.0017445795 0.011762959
-0.0068825809 -0.00038768409 0.0055794381
-0.0062421188 -0.00083352061 0.0057506748
-0.0068143005 0.00013845868 0.0050901938
-0.0067869895 0.00077536842 0.0050086528
-0.0072888439 0.00075113866 0.0050562173
-0.0067869895 0.0012599737 0.0050086528
-0.0072649461 -0.00029076275 0.0044378657
-0.0075517213 3.4924597e-10 0.0055794381
-0.0077702147 0.00074767694 0.005076604
-0.0085771559 -0.00086347869 0.0067556053
-0.0085713631 -0.0002907631 0.007418639
-0.0058310749 -0.0012599733 0.0051989146
0.0017206447 0.002713789 6.1836094e-05
0.0012426884 0.0022291841 6.1836094e-05
-0.0010515058 0.0023261048 -0.00012842566
0.00076473079 0.00073659979 0.00013794005
0.0017206453 0.00073660049 0.00013794005
0.0012426886 -5.8207661e-10 0.00063262321
0.0058310754 -0.0017445785 0.0062453561
0.0058310754 -0.0031014741 0.0067210123
-0.0058310758 -0.0022291837 0.0067210123
0.0058310758 -0.0022291834 0.0082431082
0.0058310749 -0.0027137899 0.0072917975
0.0058310754 -0.002713789 0.0067210104
0.0052384096 -0.00031014788 0.016158016
0.0032501083 -0.00029076275 0.014807154
0.0058310754 -0.0022291846 0.011762959
0.0032501069 -0.0022291841 0.014712022
0.0032501072 -0.0026860973 0.014766382
0.0012426886 -0.0022291844 0.016234122
0.001720645 -0.0022291846 0.016234122
0.0017206457 -0.0027137897 0.01623412
0.0072840648 0.0022098005 0.0050467048
0.0072512901 0.0012461273 0.0074005183
0.0077429041 0.0012599735 0.0074820593
0.0021986025 0.00073660049 0.00013794005
0.0021986021 0.0012276669 0.0001252573
0.0017206452 0.0016961179 0.00010940246
0.0032501081 0.00073660025 0.00013794005
0.0037280647 0.0012276666 0.0001252573
0.0027721501 0.00072690821 -0.00017599203
-0.0032501081 0 0.00063262321
-0.0032501074 -0.00077536813 0.00063262321
-0.0037280642 -0.0012599741 0.00063262321
-0.003728064 -0.00077536842 0.00063262321
-0.0032501072 -0.0012599736 0.00063262321
-0.006786989 -0.0036830006 0.015282809
-0.0082208607 -0.0036830003 0.014902285
-0.0077429041 -0.0036829996 0.014236368
-0.0085076345 -0.0036829996 0.014902286
-0.0085076345 -0.0036830001 0.015092547
-0.0027721496 -0.003295315 0.00063262321
-0.0032501081 -0.0032953164 0.00063262321
-0.0027721508 -0.0027137902 0.00063262321
-0.0032501076 -0.0027137897 0.00063262321
-0.0021986025 -0.0032953161 0.00063262321
-0.0021986025 -0.0027137897 0.00063262321
-0.0017206452 -0.0027137897 0.00063262321
-0.0021986025 -0.0022291846 0.00063262321
-0.0058310744 -0.002713789 0.0027255062
-0.0058310754 -0.0022291846 0.0027255062
0.0021986028 -0.0032953159 0.00063262321
-0.0086032264 -0.0017445786 0.0057697017
-0.0017206449 0.0022291839 6.1836094e-05
-0.0017206456 -4.6566129e-10 0.00063262321
-0.0017206456 0.0017445784 6.1836094e-05
-0.0017206451 0.0012276669 0.0001252573
-0.0012426878 0.00073660025 0.00013794005
0.00028677395 0.0022291839 6.1836094e-05
0.00028677471 0.0017058102 0.00013794005
0.0068932031 0.0017015021 0.00741864
-0.00028677392 0.0022291839 6.1836094e-05
-0.00028677445 2.3283064e-10 0.00063262321
-0.0058310758 -0.0022291839 0.0032962933
-0.0037280654 -0.0017445794 0.00063262321
-0.0043016137 -0.0017445784 0.00063262321
-0.0043016132 -0.0022291839 0.00063262321
-0.0037280649 -0.0022291839 0.00063262321
-0.002772151 -0.0022291846 0.00063262321
-0.0032501076 -0.0022291851 0.00063262321
-0.0032501083 -0.0032953154 -0.0010797363
-0.0058310749 -0.0031983946 0.044773445
-0.0086605819 -0.0022097996 0.039731499
-0.0086553684 -0.0027226 0.042291395
-0.0067869895 -0.0036830001 0.039731499
-0.0067869895 -0.0036830003 0.039255843
-0.0086032255 -0.0032953157 0.031740487
-0.0086032255 -0.0032953159 0.032786928
-0.0086032255 -0.0032953157 0.033262581
-0.0086032273 -0.0032953164 0.033738244
0.0043016127 -0.0032953161 0.047341991
-0.0077429046 -0.0036829996 0.042300038
-0.0077190055 -0.0036829999 0.041753031
-0.0072649457 -0.0036830006 0.041729245
-0.0058310749 -0.0012599734 0.044202659
-0.004292924 -0.003268884 0.047290102
-0.0058310758 -0.0031983943 0.045724753
0.0086988173 -0.0027137899 0.046771187
-0.00076473114 -0.00038768444 0.048578687
0.00023897887 -0.00033922412 0.048578687
0.0012426879 2.3283064e-10 0.048007902
0.0027721508 -0.00031014683 0.048160113
0.0022105514 -0.00030287844 0.047270641
0.0021986028 4.6566129e-10 0.047817636
-0.0067869895 0.001259973 0.015092546
-0.0061960616 0.00074012438 0.015127141
-0.0082208598 0.00077536819 0.0023449827
-0.0086655682 -0.0017530075 0.0027337782
-0.0085841082 -0.00031014788 9.9888071e-05
-0.0085076345 0.00077536819 6.1836094e-05
-0.0085076345 0.00077536865 0.017565956
-0.0085076345 0.00067844684 0.017375695
-0.00855543 0.00014538143 0.017565954
-0.0082017425 0.001240589 0.017604006
-0.0072649461 0.0012599737 0.0023449827
-0.0072649461 0.0012599742 6.1836094e-05
-0.005735484 0.0017445793 6.1836094e-05
-0.005735484 0.0012599742 -0.00012842566
-0.0073127421 0.0026653295 0.0025352444
-0.0077429041 0.0022291837 0.0025352444
-0.0043016132 -1.1641532e-10 0.00063262321
-0.0042879567 0.0007338305 0.00012978725
-0.003728064 0.00073660025 0.00013794005
-0.0043016127 -0.00029076287 0.00063262321
-0.0052384082 -0.00031014683 -0.00058505498
-0.005735483 0.00072690775 0.00010940246
-0.0052575264 2.3283064e-10 0.00063262321
-0.0073605385 0.0012599744 0.0048183892
-0.0072649457 0.00077536888 0.0048183892
-0.0077429041 0.00077536795 0.0048183892
-0.0085945353 -0.00079298997 0.017289212
-0.0085622575 -0.00030460849 0.017674675
-0.008597604 -0.00078677054 0.017745025
-0.0085076345 -0.00032307033 0.01978568
-0.0085945362 -0.00079299073 0.01976262
-0.0085622584 -0.00030460872 0.020148085
-0.0085458718 0.00011630473 0.020077419
-0.0085872943 -0.00085613661 0.023257967
-0.0086032245 -0.0012599734 0.02974274
-0.008597604 -0.00078677066 0.029753923
-0.0086032255 -0.0012599736 0.028791424
-0.0075517213 -1.1641532e-10 0.015663333
-0.0077429032 0.00077536888 0.017375693
-0.0075517204 -4.6566129e-10 0.016995169
-0.0082208598 0.00077536842 0.017375693
-0.0072649461 0.00077536795 0.01261914
-0.0077328407 0.00014283159 0.012749318
-0.0072649461 -0.00029076333 0.013189926
-0.0077429037 0.00077536865 0.01261914
-0.0072649461 0.00077536888 0.014902286
-0.0072649471 0.0012599742 0.014902285
-0.0077429037 0.00077536795 0.014902286
-0.0027084225 0.0017122719 0.014712023
-0.0082208598 0.0017445784 0.015092546
-0.0082208617 0.0012599735 0.014902285
-0.0085076345 0.00077536865 0.015092548
-0.0085841082 -0.00031014718 0.007710374
-0.0086605819 -0.0022291844 0.011781986
-0.0086441953 -0.0027137888 0.012211436
-0.0085076345 0.0001938421 0.017375693
-0.0086032264 -0.00087228883 0.015758464
-0.0086655691 -0.0017614349 0.016225848
-0.0086749196 -0.0017688095 0.014236369
-0.00866058 -0.0017704248 0.015752126
-0.0081252689 -0.00038768479 0.016995169
-0.0082072038 -0.00083075225 0.01623412
-0.0085076354 0.00023261062 0.022588877
-0.0082208607 -0.00038768374 0.023083558
-0.0086032264 -0.00087228941 0.021276066
-0.0021986023 -0.0012793584 0.014750075
-0.0027721508 -0.0017445789 0.014712024
-0.0027721501 -0.0012599732 0.014807153
-0.0021986018 -0.0017445795 0.014712024
-0.0021986021 -0.0017445794 0.016234122
-0.0067869895 0.0012599742 0.012619139
-0.0069144447 0.0012276671 0.012428876
-0.0064046239 0.00058152643 0.012428877
-0.0068825809 -0.00038768409 0.013189925
-0.0063090324 0.00019384152 0.01261914
-0.0085811671 -0.00082010083 0.014755929
-0.0085554309 0.0001453812 0.015092548
-0.0085713621 -0.00032306963 0.015187677
-0.0086032264 -0.00029076322 0.012428877
-0.00855543 0.00014538202 0.0099554686
-0.0085841082 -0.00031014695 0.0099174175
-0.0085958736 -0.00084992254 0.010701883
-0.0082208598 0.0017445791 0.0099554677
-0.0082208598 0.001259974 0.0099554695
-0.0082208607 0.00077536912 0.010145731
-0.0082072038 0.00016615074 0.012401695
-0.0082208598 0.00077536772 0.012428876
-0.0082208607 0.0012599733 0.012428877
-0.0077429032 0.001259974 0.012428876
-0.0086032264 -0.0012599735 0.0087187644
-0.0068825809 0.0012599742 0.010145731
-0.0067869886 0.00077536842 0.010145731
-0.0067869886 0.00077536865 0.0099554686
-0.0072649457 0.00077536888 0.0099554677
-0.0077429027 0.00077536819 0.012428877
-0.0077429037 0.00012922846 0.012302038
-0.0072840652 0.0017445793 0.012428877
-0.0072649471 0.0012599742 0.012428877
-0.0086032255 -0.0027137897 0.0077674529
-0.0082208598 -0.0032953168 0.0062453561
-0.0086032255 -0.0017445794 0.0077674529
-0.0077429041 0.0012599737 0.0048183892
-0.0082208598 0.00077536842 0.0051037837
-0.0069781719 0.0022291844 0.0074820602
-0.0072649466 0.0012599737 0.0074820602
-0.0077190059 0.0026895592 0.007672322
-0.0072649466 0.0022291848 0.010145731
-0.0077429037 0.0022291841 0.010145731
-0.0077429032 0.0022291834 0.012619141
-0.0077429032 0.0022291841 0.0099554677
-0.0077429046 0.00077536795 0.0074820612
-0.0082208607 0.001259973 0.0076723229
-0.0082208589 0.00077536865 0.007672322
-0.0086032255 -0.0012599732 0.0042476039
-0.0086032264 -0.001259973 0.0047232583
-0.0069781728 0.0022291851 0.0099554686
-0.0072649461 0.0017445795 0.0099554677
-0.0077429041 0.0012599742 0.0076723211
-0.0072649466 0.0012599744 0.0099554686
-0.0086032264 -0.0017445789 0.0012034085
-0.0086032255 -0.0012599742 0.00072775409
-0.0062308204 -0.00029957341 0.0050951354
-0.0058310754 -0.003198395 0.0042476039
-0.0067869895 -0.0036830001 0.0037719477
-0.0072649466 -0.0036829999 0.0032962933
-0.0077429037 -0.0036829994 0.0047232583
-0.006309032 -0.0036830001 0.0037719477
-0.0062134415 0.00077536795 -0.00012842566
-0.0081889965 0.00015076657 0.0026198048
-0.0047795707 -0.0036830003 0.00063262321
-0.0058310754 -0.0031983941 0.0027255062
-0.0058310754 -0.003198395 0.0022498518
0.0053531178 0.001259974 0.03259667
0.0042538182 0.0006299864 0.032406405
0.0054487097 0.0023261053 0.03259667
0.0047795707 -0.0012599737 0.033167452
0.0028103867 -0.00089167361 0.033167452
0.0017206453 0.00012922846 0.032850351
0.0012665859 -0.00029076263 0.032810714
0.0027721503 0.0012599737 0.031645354
0.0017206453 -0.00029076356 0.031455092
-0.0086605819 -0.0027137897 0.041272618
-0.0081252689 0.0022291844 0.035070073
-0.0077429037 0.0022291846 0.032596666
-0.0081252689 0.0008722893 0.032406405
-0.0082208598 0.0012599735 0.032596666
-0.0072649466 0.0022291848 0.032596666
-0.0077668019 0.0017203481 0.0023449827
0.0062246872 -0.00078677066 0.039737094
0.0068825814 -0.00038768456 0.041919511
0.0069144447 0.00064614019 0.0424903
0.006213441 0.00016961142 0.047353879
-0.0082121696 -0.00029957469 0.042317335
0.00027311788 -0.001273819 0.048714582
0.00076473103 -0.0012599739 0.048673816
-0.0012527504 -0.0032443057 0.048138082
0.0058310754 -0.0017445788 0.042775691
0.0058310749 -0.0017445787 0.043251343
0.0062229997 -0.00084321317 0.043232314
0.00073286705 -0.0012922802 0.046866328
0.0012426876 -0.0012599739 0.046866328
0.0012904835 4.8461021e-05 0.047246851
0.0086510219 -0.00092075008 0.0012034085
0.0064046234 -0.00038768467 0.0019644573
0.0062308204 -0.00081942359 0.0017914921
0.0064046239 0.00077536865 0.0025352444
0.0072649466 0.00072690821 -0.00017599203
0.0072649457 0.0017445793 0.0023449827
0.0077429037 0.0017445786 0.0025352444
0.0043016127 0.0012276669 0.0001252573
0.0068347855 -0.00033922424 0.006911274
0.0067869886 0.00077536795 0.007672322
0.0072649466 0.00077536912 0.0076723211
0.0064046239 0.00077536795 0.0099554686
0.0085841082 0.00015507371 0.0048183892
0.0085076345 -0.00038768374 0.0044378657
0.0086988183 -0.0012599732 0.0051989146
0.0086988173 -0.0012599737 0.0057697017
0.0085076345 0.00077536912 0.0050086528
0.0043016137 -0.0017445794 0.00063262321
0.0037280642 -0.0017445784 0.00063262321
0.0043016132 -0.0022291846 0.00063262321
0.0058310749 -0.0022291846 0.0027255062
0.00678699 0.00077536888 0.0048183892
0.0072649461 3.4924597e-10 0.0044378657
0.0013024322 -0.00083594385 -0.00065164641
0.0012973116 -0.0017445795 -0.00067203306
0.0077429037 -0.0036830001 0.0047232583
0.0077429037 -0.0036829999 0.0051989146
0.0047795703 -0.00031014788 0.048160113
0.006213441 0.00016961235 0.048007902
0.006786989 -0.00029076322 0.048103034
0.0072649466 0.0012599737 0.044963706
0.0077046673 7.753633e-05 0.043061085
0.0077429046 0.0017445791 0.042680562
0.0077255247 0.00015859772 0.042334635
0.0085076345 2.3283064e-10 0.040207151
0.0072968104 6.4614112e-05 0.040587679
0.0069016987 0.00073660049 0.042680562
0.0069781723 0.0013568946 0.0424903
0.0072649457 0.00077536819 0.0424903
0.0037280642 -0.0022291841 0.047246862
0.0081889974 -0.0003230701 0.033167452
0.0082017416 0.00013568997 0.032691799
0.0086441943 -0.00080305967 0.032216139
0.0085076345 -0.00038768456 0.030503782
0.0058310749 -0.0022291846 0.042775691
0.0086988192 -0.0022291841 0.041729257
0.0047986885 -0.00081413653 0.033167452
0.0067630922 -0.0036830001 0.034309026
0.0047795703 -0.0036829996 0.032691799
0.0043398491 0.00067844777 0.032710828
0.0086510219 -0.0008722893 0.041741144
0.0086988173 -0.0022291839 0.044773452
0.0043016137 -0.0022291839 0.047246858
0.0037144094 0.00071998453 0.015744876
0.0021986021 0.0017445791 0.014712024
0.0021986023 0.0012599742 0.014807153
0.0017325941 0.0017324632 0.015306592
0.0072649461 0.0027137899 0.0099554677
0.0081252689 0.0025199472 0.012428877
0.0085076345 0.001259974 0.012428876
0.0072649466 0.0017445786 0.012428877
0.0077429041 0.0012599735 0.012428876
0.0072649466 0.0012599735 0.012428877
0.0073605385 0 0.0031060316
0.0077429037 0.00077536819 0.0048183892
0.0058310754 -0.0017445787 0.0077674529
0.0062308214 -0.00081942341 0.0082258144
0.00076473079 0.0021322637 0.015377941
0.00076473161 0.00077536888 0.015663333
0.0012426877 0.00019384187 0.014807153
0.0021986023 0.00077536795 0.015663333
0.001720645 0.002132263 0.014712023
0.00076473138 -0.00029076275 0.016043857
0.0081730653 0.00012115145 0.032311272
0.0082017425 0.00073660049 0.014902286
0.0075517204 -4.6566129e-10 0.013189926
0.0085076345 0.00077536795 0.01261914
0.0082208607 0.0017445795 0.010145731
0.0086988173 -0.0012599737 0.014712022
0.0086988183 -0.0012599733 0.015282809
0.0085622584 -0.0003046093 0.01272786
0.0086466754 -0.00086347864 0.013276409
0.0082208607 -0.00029076287 0.012809401
0.0082208598 0.00077536842 0.010145731
0.0082017416 0.00013568951 0.012333746
0.0082208607 -0.00029076345 0.012238615
0.0069781719 0.0022291846 0.01261914
0.0072649457 0.0017445793 0.01261914
0.0072649471 0.0022291841 0.01261914
0.006786989 0.0027137899 0.014902287
0.0069781719 0.0022291846 0.017565954
0.00678699 0.0012599733 0.020039363
0.0072649461 0.0022291839 0.020134494
0.0072649466 0.00077536865 0.017375693
0.0076473127 -5.8207661e-10 0.015663333
0.008213507 0.0001789307 0.01768304
0.005735483 0.0032953157 0.015092546
0.0072649471 0.0022291839 0.017375693
0.0077429032 0.002713789 0.015092546
0.0077429037 0.0022291844 0.01261914
0.005735484 0.0012276664 0.015155967
0.005735484 0.00074767671 0.01522845
0.0068825809 0.0017445788 0.0099554677
0.0064046234 0.00077536865 0.01261914
0.0067869895 0.00077536865 0.012619141
0.0067869895 0.0012599733 0.012619141
0.0043016127 0.00077536865 0.014902286
0.0068347859 -0.00033922307 0.014331498
0.0068124803 0.00014215033 0.012707928
0.00678699 0.0012599737 0.010145731
0.0072649466 0.0012599735 0.0099554686
0.006786989 0.0012599733 0.0099554686
0.0072649457 0.00077536842 0.0099554677
0.0072649466 0.0012599735 0.01261914
0.0077429041 0.0012599733 0.01261914
0.006213441 0.00077536865 0.014902286
0.0067869886 0.00077536888 0.014902285
0.0072649461 0.00077536888 0.014902286
0.0077255238 0.00015859748 0.014746618
0.007264948 0.00016615074 0.014766382
0.0073605385 -4.6566129e-10 0.013189927
0.0062207952 -0.0007828236 0.012245934
0.0021986025 -0.0017445793 0.016234124
0.0017206456 -0.0017445792 0.016234118
0.0027868566 -0.0012674292 0.0147852
0.0043016137 0.00019384152 0.014807154
0.0037471831 0.00075598387 0.01488326
0.0037280647 0.0011630531 0.014902285
0.0032501074 0.0016153513 0.01534623
0.0047795703 0.0022291839 0.015092547
0.0043972041 0.0027137899 0.015092547
0.0064046243 0.00077536842 0.010145731
0.0068043694 0.0001585983 0.025211034
0.0062373392 -0.00079959835 0.023273824
0.0069781728 -0.00038768363 0.023749476
0.0064046239 -0.00038768467 0.023083558
0.00678699 0.00077536772 0.024986181
0.0062383781 -0.00080907997 0.024233401
0.0063408962 -0.00032306975 0.024891049
0.0063226884 0.00016614981 0.022539953
0.0072649457 0.0012599733 0.022607904
0.0068143015 0.001273819 0.022539955
0.0077429041 0.00074767601 0.022322508
0.0068311077 0.00076045701 0.022571314
0.006213442 -0.0032953168 0.011287304
0.0047795698 -0.00029076322 0.014807153
0.0037280652 -0.0036830001 0.00025209785
0.0021986025 -0.0017445793 0.00063262321
0.0021986021 -0.0012599742 0.00063262321
0.0017206452 -0.0017445784 0.00063262321
0.0021986018 -0.0022291834 0.00063262321
0.0017206451 -0.0022291844 0.00063262321
0.0058310758 -0.0022291846 0.0047232583
-0.0086032264 -0.0012599732 0.037258089
-0.0085076345 -0.00038768467 0.037353221
-0.0086032264 -0.0012599733 0.03678244
-0.0086441934 -0.0017584243 0.037271678
-0.0086252857 -0.0022217287 0.036197007
-0.0086319055 -0.002723481 0.036211651
-0.0086032264 -0.001259973 0.035735995
-0.0067869895 -0.0036829994 0.030218393
-0.0082208607 -0.0032953168 0.031264842
-0.0077429027 -0.0036829999 0.032216143
-0.0072649461 -0.0036829996 0.036782432
-0.0067869895 -0.0036830001 0.036782432
-0.0077429041 0.0012599737 0.040112019
-0.0085076345 0.00029076275 0.04001689
-0.0047795698 -0.001772271 0.048714586
-0.0037204162 -0.00079087593 0.047262076
-0.0061861281 -0.00094151834 0.048660222
-0.0062134415 -0.0017722716 0.048714582
-0.0037280645 -0.00087228947 0.048673812
-0.0042933016 -0.00080065185 0.04727995
-0.0043016123 -0.00029076368 0.047341984
-0.0047795707 -0.00029076333 0.04734198
-0.0021986018 9.6920412e-05 0.047246847
-0.0017206456 1.1641532e-10 0.048388425
-0.0052575269 -0.00029821845 0.047320034
0.00076473097 -0.0022291841 0.00063262321
0.0037280649 6.4614578e-05 -0.00057237037
0.0021986028 -0.00087228941 -0.0010797363
0.0027721506 -0.00087228965 -0.0010797363
0.0027721501 0.0027137895 -0.00012842566
0.0014338717 -0.0026168684 -0.0010797363
-0.00079659442 -0.0022291834 -0.00019184686
0.00086032273 -0.0022291844 -0.00012842566
0.0002867743 -0.0027137902 0.00025209785
0.00028677369 -0.0032953164 0.00025209785
-0.0058310744 -0.0017445786 0.0027255062
-0.0058310754 -0.0017445794 0.0032962933
-0.0047795698 -0.0012599734 0.00063262321
-0.0047795707 -0.00077536836 0.00063262321
-0.0043016137 -0.00077536778 0.00063262321
-0.0047795703 -0.0017445791 0.00063262321
-0.0058310749 -0.0017445795 0.0017741956
-0.0052575264 -0.00029076322 0.00063262321
-0.0047795703 -0.00029076356 0.00063262321
-0.0032501076 0.0012599742 -0.00012842566
-0.0027721513 0.0012599737 -0.00012842566
-0.0037280649 0.0022291841 6.1836094e-05
0.0014338713 0.0032953161 -0.00012842566
0.0032501083 -0.00087228941 -0.0010797363
0.0037280642 -0.00029076287 0.00063262321
0.00028677456 -0.00029076345 0.00025209785
-0.00086032279 9.6920412e-05 -0.00012842566
-0.0012851738 0.00073229265 -0.00014956668
-0.0012836561 0.00017999636 -0.00019637682
-0.0014338715 -0.00038768479 -0.00050895102
-0.0027721506 6.4613647e-05 -0.00057237037
-0.00076473062 -0.0022291848 0.00063262321
-0.0012426886 -0.0022291844 0.00063262321
-0.0047795707 -0.0036830001 -0.00022355653
-0.0037280649 -0.0032953157 0.00063262321
-0.0043016127 -0.0032953161 0.00063262321
-0.0043016127 -0.0027137892 0.00063262321
-0.0052575264 0.0027137895 6.1836094e-05
-0.0037280649 0.0027137895 -0.00012842566
-0.0032501081 0.0012599728 6.1836094e-05
-0.0037280642 0.0012599735 6.1836094e-05
-0.0027721501 0.00072690845 -0.00017599203
-0.0032501079 0.00072690821 -0.00017599203
-0.0021986028 0.0032953161 6.1836094e-05
-0.0017206447 0.0017445784 -0.00012842566
-0.0017206452 0.0012599742 -0.00012842566
-0.0012426879 0.0027137899 6.1836094e-05
-0.0007647319 0.00073660025 0.00013794005
-0.00076473126 -4.6566129e-10 0.00063262321
-0.0052575273 -0.0036829996 -0.00022355653
-0.0052575273 -0.0027137897 -0.0010797363
-0.006213441 -0.0032953159 -0.0010797363
-0.0063568288 -0.0036829999 0.0012034085
-0.0058310758 -0.003198395 0.0017741956
-0.0058310744 -0.0027137888 0.0017741956
-0.0047795707 -0.0027137899 0.00063262321
-0.0047795698 -0.0022291844 0.00063262321
-0.006213442 -0.0017445789 -0.0010797363
0.0021030111 -0.00029076333 0.048578687
-0.0043398491 0.00011630578 0.047380038
-0.0047795703 0.00019384257 0.047437117
0.0086605819 -0.00089167414 0.0087187644
0.0058310749 -0.0022291839 0.0037719477
0.0058310744 -0.0027137895 0.0032962933
0.0058310758 -0.0022291841 0.0032962933
0.0067551248 -0.0036830001 0.0057697017
0.0062134406 -0.0032953173 0.0057697017
0.0058310749 -0.0031014741 0.0046281274
0.0058310758 -0.003101473 0.0050086528
0.007264948 -0.0032953159 0.0067210123
0.0072649466 -0.0032953157 0.0062453561
0.0066913976 -0.0036829999 0.0062453561
0.006213442 -0.0032953168 0.0062453561
0.0086988173 -0.0022291846 0.038780186
0.0058310749 -0.0022291844 0.024795918
0.0062134406 -0.00077536883 0.030218389
0.0047986885 -0.00079475221 0.031378988
0.0058310758 -0.0017445786 0.030218387
0.0058310744 -0.0017445784 0.029742735
0.0062287366 -0.00079087651 0.029750336
0.0047795703 -0.0012599735 0.031359959
0.0058310758 -0.0022291844 0.028791424
0.0058310749 -0.0022291848 0.028220639
0.0058310749 -0.0027137892 0.02879142
0.0058310754 -0.0027137902 0.028220639
0.0058310754 -0.002713789 0.027744979
0.0058310749 -0.0027137888 0.027269326
0.0086988173 -0.0022291844 0.024225131
0.0072458289 -0.0036829999 0.024263185
0.0082208598 -0.0032953168 0.024225131
0.0086988173 -0.0027137897 0.021276064
0.0086749205 -0.0032710861 0.020229626
0.0086988192 -0.0022291844 0.022703031
0.0086988183 -0.0022291844 0.023273822
0.0086988192 -0.0027137892 0.032216135
0.0086988192 -0.0027137885 0.029742729
0.0086988183 -0.0022291846 0.028791426
0.0086988164 -0.0027137899 0.026222885
0.0086988192 -0.0027137885 0.026698535
0.0081969621 0.00014538155 0.027388241
0.0082072038 -0.00030460954 0.028111916
0.0072512897 -0.00035999261 0.028791424
0.0068071131 0.00017343822 0.020159528
0.0063090324 -3.4924597e-10 0.031455092
0.0063568279 0.00014538132 0.03012326
0.0051810537 0.00015507301 0.031455092
0.005735483 6.4614112e-05 0.031708777
0.0063408962 -0.00032307033 0.030218391
0.0052575273 -0.0002907631 0.0314551
0.0063281511 -0.0003101473 0.029894944
0.0043016132 -0.0022291837 0.031359963
0.0068217502 0.00015859841 0.029881109
0.0068252259 -0.00038768398 0.029286107
-0.0062134406 -0.0027137892 -0.0010797363
-0.0072649471 9.692146e-05 -0.00050895102
-0.0043016127 0.001259974 -0.00012842566
-0.0047795703 0.0012599735 6.1836094e-05
-0.0047795707 0.00072690705 -0.00017599203
0.0032501074 0.0012276664 0.0001252573
0.006786989 0.00077536842 0.0023449827
0.0067869886 0.0012599737 6.1836094e-05
0.0052336287 7.2690309e-05 -0.00055651553
0.0057354835 0.0017445788 -0.00012842566
0.0062134406 0.0017445784 -0.00012842566
0.0052575264 0.0022291846 6.1836094e-05
0.005735484 0.002713789 6.1836094e-05
0.0057354844 0.0022291846 6.1836094e-05
0.0062134415 0.0022291844 6.1836094e-05
0.0057354844 0.0022291844 -0.00012842566
0.0047795703 0.0012276669 0.0001252573
0.0043016132 -0.00029076298 0.00063262321
-0.0027602015 -0.0026895588 0.031371858
-0.0058310744 -0.0027137897 0.028220639
-0.0037280638 -0.0032953164 0.032786921
-0.0032309899 -0.0036829996 0.032748878
-0.00076473079 -0.0026750215 0.031378992
-0.0071693547 -0.0036829996 0.033738241
-0.0067869886 -0.0036829996 0.033262581
-0.0062134406 -0.0036829996 0.033262581
-0.0043016132 -0.0027137892 0.031359967
-0.0063568284 -0.0036829994 0.03074161
-0.0062134415 -0.0036829999 0.032216147
-0.0058310754 -0.0017445791 0.030218393
-0.0047795698 -0.00077536883 0.031455096
-0.0047659138 -0.0012738197 0.03137356
-0.0058310749 -0.0031983946 0.033738237
-0.0052575269 -0.0036830003 0.032216143
-0.0047795698 -0.0036829999 0.032786928
-0.0037280649 -0.0022291839 0.031359963
-0.0058310758 -0.003198395 0.028220639
-0.0071693556 -0.0036830001 0.038780186
-0.0058310754 -0.0022291848 0.037258089
-0.0085076336 -0.0036830001 0.030218389
-0.0085076336 -0.0036829996 0.029742733
0.0058310749 -0.0022291846 0.021751722
-0.0058310758 -0.0022291837 0.022703037
-0.0058310758 -0.0022291844 0.02327382
0.0067487536 -0.0036830003 0.033243556
0.0072171506 -0.0036829999 0.033690676
0.0072649466 -0.0036830006 0.034309026
0.0043016141 -0.0032953173 0.032786921
0.0062851342 -0.0003149939 0.027721198
0.0062899143 -0.00031014672 0.02734543
0.0032501069 -0.0017445796 0.031359963
0.0027721508 -0.0017445785 0.031359967
0.0032364519 -0.0022153382 0.031373557
-0.0086032264 -0.0032953168 0.026698539
-0.0086032264 -0.0027137897 0.02726933
-0.0086350907 -0.0022184153 0.026233455
-0.0062246867 -0.00078677072 0.027739383
-0.0062316488 -0.00083075155 0.028202519
0.0069781719 0.0012599742 0.029932998
0.0072649457 0.0017445784 0.029932998
0.0072649466 0.0022291848 0.02745959
0.0081252679 0.0022291848 0.02745959
0.0069781719 0.0021322626 0.032406405
0.0072968099 0.0012922799 0.032406405
0.0068825819 0.0017445791 0.02764985
-0.0086252876 -0.0022217282 0.026698537
-0.0058310754 -0.0017445784 0.027744979
-0.0086032255 -0.0012599733 0.027744981
-0.0085076345 0.00019384164 0.02764985
-0.0082072048 0.00016614981 0.027677031
-0.0086032264 -0.0027137895 0.030694045
-0.0086032264 -0.0027137892 0.031264834
-0.0037280654 -0.0027137892 0.031359967
-0.0086032255 -0.0012599734 0.02574723
-0.0086032255 -0.0012599739 0.026222885
-0.0086032273 -0.0032953159 0.027744981
-0.0086032264 -0.0032953157 0.028220639
-0.0086032273 -0.0032953164 0.028791424
-0.0086032264 -0.0017445796 0.025747227
-0.0086032273 -0.0032953164 0.034784682
-0.0086032255 -0.0027137895 0.03430903
-0.0058310754 -0.0012599732 0.025271574
-0.008597604 -0.00078677031 0.027280521
-0.0082144868 -0.00081413641 0.026711222
-0.0086032264 -0.0012599743 0.026698539
-0.0077429041 -0.0012599743 0.048673812
-0.0076882802 5.5383192e-05 0.048062265
-0.0086032273 -0.00077536842 0.040207148
-0.0062134415 -0.00087228988 0.041729257
-0.0086441934 -0.0017584242 0.033248991
-0.0086441943 -0.001758425 0.031754076
-0.0086319046 -0.0017542706 0.032216139
-0.0077429037 0.0017445791 0.034879811
-0.0027373901 0.0016564687 0.015386588
-0.0010515052 0.0012599742 0.015663335
-0.0072649471 0.0022291841 0.022512771
-0.0069781719 0.0025199479 0.022512771
-0.0057354844 0.0022291846 0.015092548
-0.0052575264 0.0022291841 0.015092546
-0.0057354835 0.0025199475 0.015092547
-0.0053531183 0.0031014734 0.015092547
-0.0058310754 0.0032953161 0.015092547
-0.0069781728 0.0025199472 0.014902285
-0.0072649471 0.0022291841 0.014902284
-0.0068252268 0.0022098003 0.014902285
-0.0072649461 0.0022291846 0.020039365
0.0077046664 7.7537261e-05 0.040587679
0.0082208598 -0.0032953168 0.038780186
0.0086988173 -0.0017445794 0.039731499
0.0068507171 -0.00038768444 0.033769947
0.0037280652 -0.0036829999 0.032691795
0.0037204165 -0.0032798096 0.032771703
-0.002772151 -0.00029076275 0.031455096
-0.006213441 -0.00087228988 0.036211651
-0.0052575259 6.461388e-05 0.031708773
-0.0047795703 -0.00029076368 0.031455092
-0.007278603 0.00015230419 0.037692968
-0.0082102381 0.00015076634 0.035133496
-0.0058310758 -0.003198395 0.038304534
0.0043016127 -0.0017445787 0.033167452
0.0027721503 -0.0017445795 0.033167452
0.0027721508 -0.0027137892 0.032786921
0.0037280647 -0.002132263 0.033167452
0.0021986018 -0.0017445795 0.031359971
0.0017069898 -0.0022153384 0.031373549
0.00221772 -0.0026944056 0.031436071
0.0086624036 -0.0032491637 0.013751652
0.0086655701 -0.0032700335 0.011287304
0.0086988173 -0.0027137895 0.011762961
0.0086988183 -0.0027137892 0.012238616
0.0086988192 -0.0027137899 0.020229628
0.0086988183 -0.0022291844 0.019278316
0.0086988183 -0.0027137895 0.018231874
0.0086988164 -0.0022291844 0.017756218
0.0086988183 -0.0022291837 0.027269328
0.0082135061 -0.00084992294 0.013760712
0.0082208598 -0.00029076356 0.014712023
0.0086988164 -0.0022291844 0.010716517
0.0086988183 -0.0022291844 0.01176296
0.0086988173 -0.0022291846 0.011287304
0.0086988192 -0.00174458 0.011287304
0.0086988183 -0.0017445786 0.011762961
0.0086988173 -0.0012599732 0.012809402
0.0086988173 -0.0012599733 0.012238614
0.0086553693 -0.00080180098 0.012247265
0.0086988192 -0.0022291839 0.014236367
0.0086988192 -0.0027137897 0.013760714
0.0086988173 -0.0012599736 0.010240861
0.0086457124 -0.00083998288 0.024246272
0.0086988173 -0.0022291839 0.024795918
0.0086988173 -0.0022291834 0.015758468
0.0062373392 -0.0032710866 0.013760713
0.0047795703 -0.0027137888 0.014712022
0.0067976099 0.00017230457 0.014796584
0.0062006963 0.00016799674 0.014826179
0.00678699 0.0022291841 0.014902286
0.0062134406 0.0022291839 0.014902286
0.00678699 0.001259974 0.014902286
0.0052575269 0.001259973 0.014902287
0.0052575269 0.0017445788 0.014902286
0.0057354844 0.0012599742 0.014902285
0.0063568274 0.00014538213 0.017375693
0.0086399931 -0.00082010101 0.018224554
0.0086988173 -0.0012599735 0.018231874
0.0086988173 -0.0012599742 0.01775622
0.0086988183 -0.0012599743 0.017280562
0.0086988183 -0.0017445798 0.016804904
0.0086988164 -0.0022291841 0.017280566
0.0086563323 -0.00090459595 0.003761379
0.0086988192 -0.0027137897 0.010716518
0.0086988201 -0.0017445787 0.0082431072
0.0086988192 -0.0022291846 0.008243111
0.0086988183 -0.0022291837 0.0072917975
0.0086988183 -0.0017445785 0.0062453561
0.0086988173 -0.0022291844 0.0062453561
0.0086988192 -0.0022291834 0.0057697017
0.0082208607 -0.0032953164 0.0042476039
0.0086605819 -0.0032694705 0.004716916
0.0077429046 0.001259973 0.0048183892
0.0077429037 0.00077536795 6.1836094e-05
0.0062771682 -0.00032307021 0.0023132712
0.0072649461 -4.6566129e-10 0.0019644573
0.0052575259 0.00073660025 0.00013794005
0.0052575269 0.0012599728 6.1836094e-05
0.0057354835 0.0012599733 6.1836094e-05
0.0052575264 -0.00077536819 0.00063262321
0.0047795698 -0.00077536883 0.00063262321
0.0047795703 -0.0012599736 0.00063262321
0.003680269 0.00062998733 0.032406405
0.00028677407 0.00077536819 0.031740487
9.559116e-05 0.0012599744 0.032025881
-0.0069781719 0.0016476584 0.03012326
-0.0072968099 0.0012276669 0.029932998
-0.0077429037 0.0012599737 0.029932998
-0.0077429041 0.00077536795 0.032406405
-0.0077281976 0.000134198 0.032333221
-0.0082017425 -0.0003101473 0.032235168
-0.0082208607 0.0012599742 0.03012326
-0.0077429037 0.001259973 0.03012326
-0.0068962369 0.00016615086 0.029905815
-0.0058310758 -0.0012599741 0.029742736
-0.0072649457 0.0017445791 0.02764985
-0.0072649466 -0.00038768386 0.028791424
-0.0075517208 -0.00038768363 0.028791422
-0.0072840648 0.00013568916 0.029837865
-0.0085554309 -0.00029076345 0.029885432
-0.0085076345 9.6921343e-05 0.029932998
-0.0082017407 -0.0003101473 0.029761758
-0.0082017407 -0.00081413711 0.028791424
-0.0058310758 -0.0031983946 0.03430903
-0.0058310749 -0.002713789 0.034784682
-0.0037089468 -0.00079475314 0.031436071
-0.0037280642 -0.0012599732 0.031359967
-0.0058310754 -0.0022291846 0.036211647
-0.0058310749 -0.0027137897 0.036782432
-0.0052575273 -0.00092074979 0.033167452
-0.0052575264 -0.00029076345 0.032786928
-0.0037280635 -0.00077536848 0.032786921
-0.0058310754 0.0015507375 0.032596666
-0.0068294751 0.00015076646 0.030144403
-0.0072649471 0.0012599737 0.030123258
-0.0058310749 -0.0022291837 0.028220639
-0.0075517213 -0.00038768363 0.021561462
-0.0073127425 4.8460788e-05 0.022274947
-0.0077429032 0.0012599735 0.020134496
-0.0072786016 0.00074767694 0.020066546
-0.0077541494 0.000763966 0.020128896
-0.0058310754 -0.0027137902 0.027744982
-0.0058310754 -0.0012599735 0.027269326
-0.0086032264 -0.0027137892 0.010240862
-0.0086032245 -0.0012599741 0.010716517
-0.0082072029 0.00016615004 0.0099282879
-0.0081889965 -0.00032307068 0.0080528483
-0.0073605385 6.9849193e-10 0.0080528473
-0.0086032273 -0.0027137897 0.035735995
-0.0072649466 -0.00029076322 0.038114268
-0.0077429041 0.00015507429 0.027725955
-0.0086350907 -0.0022184146 0.037268657
-0.0086032264 -0.0027137888 0.038304526
-0.0086032264 -0.0027137892 0.029742733
-0.0086441953 -0.0017584244 0.030204801
0.0012426884 -0.001259974 0.016234122
0.0012426877 -0.0032953164 0.016138989
0.00076473149 -0.0022291844 0.014807154
-0.0067869886 -0.0036830001 0.010716517
-0.0072171511 -0.0036830001 0.011334869
-0.0085554309 -0.00033922365 0.010193297
-0.0058310744 -0.0027137892 0.011287305
-0.0058310749 -0.0022291848 0.011762959
0.0021986025 0.00077536819 0.014807154
-0.00032501129 -0.0022291837 0.031378992
-0.0077429041 0.00077536819 0.025176441
-0.0077429037 0.0017445784 0.025176441
-0.0072649457 0.0017445788 0.024986181
0.0068252264 0.0012405894 0.027459588
0.0068108868 0.00079959841 0.025176439
-0.0062516774 -0.00089167425 0.023749473
0.0058310749 -0.0027137892 0.025271572
0.0058310758 -0.0031014741 0.025271572
0.0058310758 -0.0031014741 0.025747227
0.0058310749 -0.0027137902 0.025747228
0.0058310749 -0.0031014732 0.026222883
0.00077342178 -0.00079299067 0.031368617
0.0062953765 -0.00033230032 0.025257986
0.0081889965 -0.00032307068 0.0093846833
0.0085076345 -0.00038768479 0.0080528473
0.0085841073 0.00015507347 0.0099554686
0.0085076345 0.00077536842 0.0099554686
0.0086538326 -0.00085518556 0.0057473183
0.0086988183 -0.0012599734 0.0062453561
0.0086749205 -0.0032710866 0.0051989146
0.0077429037 0.0022291841 0.0099554667
0.0077429037 0.0017445786 0.0099554677
0.0077429032 0.0017445793 0.007672322
0.0072649461 0.0022291839 0.0076723229
0.0077429037 0.0022291841 0.0076723211
0.0072649471 0.0017445786 0.007672322
0.0047739474 -0.00078677095 0.01622293
0.0032501079 -0.0036829994 0.016138989
0.0037280645 -0.0032953168 0.016138989
0.008660581 -0.0032694712 0.017286904
0.0058310754 -0.0022291844 0.01775622
0.0081730653 0.0016961179 0.0076723229
0.0072649466 0.0027137895 0.0074820612
0.0082208607 0.0012599735 0.0074820593
0.0062134415 0.002713789 0.015092546
-0.0047795693 -0.0022291839 0.014712022
-0.0058310749 -0.0022291841 0.013285057
-0.006786989 -0.0036830001 0.014236368
-0.0058310749 -0.0022291846 0.012809402
-0.0058310749 -0.0022291846 0.012238615
-0.0058310754 -0.0017445795 0.012809401
-0.0027721508 -0.0022291844 0.014712024
-0.0032607284 -0.0012707429 0.014775445
-0.0032501069 -0.0017445795 0.014712024
-0.0037535566 -0.0012664354 0.014750076
-0.0037280642 -0.0017445799 0.014712024
-0.0037280649 -0.0032953159 0.014807153
-0.0058310749 -0.0027137897 0.012238614
-0.0086032255 -0.0027137892 0.0051989146
-0.0012426889 -0.0012599736 0.016234122
-0.0047795698 0.0017445791 0.015092546
-0.0042591281 0.0012707424 0.014838865
-0.0043016137 0.0022291834 0.015092546
-0.0052575273 0.0017445781 0.015092546
-0.0062851352 -0.00031499309 0.020134496
-0.0058310758 -0.0012599732 0.018231872
-0.0058310754 -0.0017445794 0.018231872
-0.0032501079 0.00073660025 0.015739437
-0.0051619359 0.0005815269 0.015663335
-0.0057163658 -0.00034891558 0.016158018
-0.005721828 0.00011076685 0.015717695
-0.0017206452 -0.0012599736 0.016234118
-0.0027721515 -0.0027137888 0.016234122
-0.0058310754 -0.0027137899 0.020229626
-0.0058310754 -0.0031983946 0.020229626
-0.0058310749 -0.0012599735 0.01975397
-0.0077429037 -0.0036829996 0.018517267
-0.0072649457 -0.0036830003 0.019278314
-0.00678699 -0.0036830003 0.018231872
-0.0037280649 -0.0012599734 0.016234124
-0.0047795698 -0.0032676244 0.016179761
-0.0047795698 -0.0027137888 0.016234124
-0.0043016146 -0.0027137892 0.016234122
-0.0021986018 -0.0036830003 0.016138991
-0.0082208607 -0.0036830003 0.017375695
-0.0082208607 -0.0036830001 0.017565954
-0.0072458284 -0.0036830006 0.013760712
-0.0072649471 -0.0036829999 0.014236367
-0.0037280642 -0.0036829999 0.031455092
-0.0072649457 -0.0036829999 0.027269324
0.0043016137 -0.0032953157 0.031455096
0.003728064 -0.0036830006 0.031740487
0.005639893 -0.0036830003 0.031455092
0.0058310758 -0.0031014732 0.029742733
0.0058310749 -0.0027137897 0.02926708
0.0058310754 -0.0022291848 0.02926708
0.0058310758 -0.0031014732 0.028791424
0.00076473161 -0.0036829996 0.031740487
0.00028677419 -0.0036830006 0.031455092
0.00028677445 -0.0036829999 0.032216143
0.0017206455 -0.0036830006 0.031740487
0.0063408962 -0.0036830001 0.026254596
0.006213442 -0.0032953173 0.026698535
0.0012426878 -0.0022291844 0.031359967
0.0058310749 -0.0027137888 0.026698539
0.0058310758 -0.0022291834 0.027269326
0.0012426883 -0.0032710857 0.031455096
-0.00678699 -0.0036830001 0.02327382
0.006213441 -0.0036829996 0.032216143
0.006786989 -0.0036829996 0.030218393
-0.0063408967 -0.0036829996 0.017248854
-0.0067869886 -0.0036830008 0.016804907
-0.0058310749 -0.0031983946 0.017280564
-0.0058310754 -0.0027137902 0.017280566
-0.0086032255 -0.0012599737 0.022703037
-0.0086032255 -0.0012599735 0.021751722
-0.0085841073 -0.00089167373 0.021751722
-0.0086032255 -0.0012599735 0.021276068
-0.0086350897 -0.002218415 0.019764537
-0.0086032255 -0.0022291844 0.020229625
-0.0086032255 -0.0027137902 0.021276068
-0.0086032273 -0.0027137892 0.020800412
-0.0086252857 -0.002221728 0.020800414
-0.0086183203 -0.0017547819 0.020800414
-0.0086032255 -0.00087228935 0.020800412
-0.0086032273 -0.0027137897 0.022703033
-0.0086032273 -0.0027137892 0.021751726
-0.0086032255 -0.0022291834 0.00072775409
-0.0086032264 -0.0027137897 0.012809402
-0.0086441943 -0.0022153386 0.012795812
-0.0058310754 -0.0017445796 0.012238614
-0.0058310749 -0.0017445791 0.011762961
-0.0037280649 -0.0022291839 0.014712023
-0.0068043699 0.00015859806 0.0074474672
-0.0063090329 0.00019384164 0.007672322
-0.0012426883 0.00077536819 0.014807153
-0.0017206447 0.00077536888 0.014807154
-0.0058310754 -0.00096921064 0.010240862
-0.0062407525 -0.00030460942 0.010172913
-0.0063090329 0.0001938428 0.010145731
-0.0062771682 -0.00032307033 0.009923758
-0.0058310754 -0.00096921064 0.010621387
-0.0017206451 -0.00077536853 0.014807154
-0.0027721506 -0.00029076345 0.014807153
-0.0032501074 -0.00029076356 0.014807155
-0.0032501069 -0.00077536871 0.014807153
-0.00076473062 -0.0012599732 0.01623412
-0.0072649466 -0.0036830003 0.00824311
-0.0077429041 -0.0036830001 0.0082431091
-0.0067869895 -0.0036830006 0.0077674529
-0.0067869895 -0.0036829996 0.0087187663
-0.0058310754 -0.0022291834 0.00824311
-0.006234684 -0.00086152012 0.0067315809
-0.00028677407 -0.000775369 0.00063262321
0.00028677413 -0.0012599743 0.00063262321
0.00028677424 -0.00077536789 0.00063262321
-0.0061656451 0.0021807242 0.014902285
-0.0067869895 0.0017445791 0.014902285
-0.0061861291 8.3075487e-05 0.015690515
-0.005735484 0.0001938421 0.014807153
0.0062287357 -0.00079087587 0.044781066
0.006213441 -0.00087228918 0.044202667
0.0063408962 -0.00032307056 0.045249101
0.006786989 -0.0036830003 0.0027255062
0.0063408967 -0.0036829996 0.002662085
0.0058310758 -0.0031014737 0.045249097
0.0047795703 -0.0036829996 -0.00022355653
0.0047795703 -0.0022291848 0.00063262321
0.0043016132 -0.0027137888 0.00063262321
0.0047795707 -0.0027137888 0.00063262321
0.0052575269 -0.0032953159 0.00063262321
0.0047795703 -0.0032953152 0.00063262321
0.0017206458 0.0022291839 -0.00012842566
0.0058310754 -0.0031014739 0.0062453561
-0.0058310749 -0.002713789 0.0062453561
0.0037280649 -0.0022291837 0.00063262321
0.0058310758 -0.0022291841 0.0022498518
0.00028677398 -0.0017445791 0.00063262321
0.00076473138 -0.0017445795 0.00063262321
0.00076473149 -0.0012599742 0.00063262321
0.00028677451 -0.0022291834 0.00025209785
0.00028677451 -0.00029076287 0.00063262321
0.0058310749 -0.002713789 0.019278314
0.0058310758 -0.0022291837 0.019278318
0.0058310749 -0.0027137902 0.018707527
0.0032501074 -0.0012599743 0.01623412
0.0058310754 -0.0022291846 0.018231872
0.0058310744 -0.0027137897 0.017756216
0.0058310754 -0.0027137902 0.018231872
0.0058310749 -0.0027137897 0.010240862
0.0032501086 -0.0036830006 0.01528281
-0.0022105507 -0.0032710866 0.014819042
0.0066913981 -0.0036829996 0.00824311
0.006213441 -0.0032953161 0.0077674538
-0.00076473143 -0.0036830006 0.015758466
-0.00028677436 -0.0036830006 0.015758464
0.0021986021 -0.0036830001 0.016138991
0.0021986018 -0.0032953164 0.016138989
-0.0002867741 -0.0036830003 0.015282808
0.00028677407 -0.0036829996 0.014807153
0.00076473173 -0.0032953164 0.014807153
0.00076473143 -0.0036829999 0.014807154
0.0032501069 -0.0032953168 0.016138989
0.0027721517 -0.0032953159 0.016138989
0.0064046234 -0.0036829996 0.019658841
0.0067630918 -0.0036829999 0.019302098
0.0066913976 -0.0036829999 0.018707527
0.0072649461 -0.0036830001 0.019373445
0.0064046239 -0.0036830001 0.01889779
0.0021826713 -0.0026976359 0.016210342
0.0086988192 -0.0027137892 0.0087187644
0.0086988192 -0.0027137888 0.0082431082
0.0086988173 -0.0022291839 0.0077674529
0.0072649466 -0.0032953159 0.0087187644
0.0072649471 -0.0032953164 0.0091944207
0.006309032 0.00019384234 0.0099554677
0.0064046243 -0.00038768374 0.010526255
0.0068061086 -0.00031014706 0.010602362
-0.0063090329 0.00019384176 0.0074820612
-0.0067869895 0.00067844661 0.0048183892
-0.0075517208 6.9849193e-10 0.0044378657
-0.0085713631 -0.00090459618 0.0062453561
0.0017206453 0.00072690775 -0.00017599203
0.0012836555 0.00017999625 -0.00019637682
0.0021986023 -4.6566129e-10 0.00063262321
0.0021986028 -0.00029076287 0.00063262321
0.0021986025 -0.00077536894 0.00063262321
0.0027721508 -0.0012599733 0.00063262321
0.0058310749 -0.0017445789 0.0057696998
0.0058310754 -0.0022291848 0.0062453561
-0.0058310754 -0.0017445796 0.0067210123
0.0062899138 -0.00032953173 0.0051418357
0.006213442 -0.00077536888 0.0051989146
0.0058310749 -0.002713789 0.0077674529
0.0058310758 -0.0022291844 0.0077674529
0.0017206451 -0.0027137888 0.014807152
0.0058310754 -0.0031014741 0.010240862
0.0017206448 -0.0032953168 0.014807154
0.0017206458 -0.0036830001 0.014807154
0.0012426887 -0.0036829999 0.015282809
0.0012426876 -0.0036829994 0.014807154
0.0017206453 -0.0036830001 0.01528281
0.0058310758 -0.0031014737 0.010716517
0.0058310754 -0.0027137897 0.011762959
0.0058310754 -0.0027137892 0.020800415
0.0072649466 0.0022291837 0.0074820602
0.0072649471 0.00077536865 0.0073869284
0.0072649471 0.0012599742 0.0076723229
-0.002772151 -0.0036830006 0.00063262321
-0.0017206449 -0.0022291839 0.00063262321
-0.0021986025 -0.0017445795 0.00063262321
-0.0058310758 -0.0022291848 0.0047232583
-0.0037280649 -0.0027137897 0.00063262321
-0.0058310758 -0.0027137899 0.0022498518
-0.0058310744 -0.0027137904 0.0051989146
-0.0058310749 -0.002713789 0.0047232583
0.0021986016 -0.0027137902 0.00063262321
0.0027721501 -0.0022291844 0.00063262321
0.002772151 -0.0027137899 0.00063262321
-0.0058310754 -0.0012599737 0.0047232583
-0.0058310749 -0.0012599735 0.0042476039
-0.0058310744 -0.0017445789 0.0042476039
-0.0058310754 -0.00096921029 0.0042476039
-0.0058310758 -0.00096921064 0.0057697017
-0.0021986021 0.0017445784 6.1836094e-05
-0.0021712908 0.0012461278 8.9015812e-05
-0.0017206455 0.00073660002 0.00013794005
-0.0021986021 0.00073660072 0.00013794005
0.00076473143 0.0022291848 6.1836094e-05
0.00028677375 0.0012276671 0.0001252573
-0.00076473091 0.0022291848 6.1836094e-05
-0.0027721501 -0.0012599734 0.00063262321
-0.0032501076 -0.0002907638 0.00063262321
0.0032501079 9.6920412e-05 0.04734198
0.0037280647 -0.0002907631 0.047246858
0.0032501072 -0.001259973 0.046866328
-0.0058310749 -0.0027137902 0.045249101
-0.0058310754 -0.003198395 0.045249101
-0.0086252866 -0.003280405 0.042768374
-0.0086252838 -0.0022217291 0.042300042
-0.0086183194 -0.0032851142 0.041729257
-0.00678699 -0.0036830001 0.038780186
-0.0086032255 -0.0027137902 0.031740487
-0.0086032264 -0.0027137895 0.032786928
-0.0086319055 -0.0027040965 0.033719219
0.0043016137 -0.0036829999 0.047722507
0.0042942613 -0.002706334 0.047254167
-0.0058310754 -0.0027137897 0.045724757
-0.0058310749 -0.0031983946 0.046295542
-0.0058310749 -0.00096921105 0.044202659
-0.0058310754 -0.0027137895 0.043726999
0.0017206459 0 0.048007902
0.0027594052 -0.00029722403 0.047284909
0.0028199463 -5.8207661e-10 0.047770072
-0.0076154489 -0.00038768398 0.024288552
-0.0077429027 0.0027137899 0.015092546
-0.0072649471 0.0017445786 0.014902286
-0.0072649471 0.0022291837 0.015092547
-0.0082208607 0.001259973 0.017375693
-0.0077429032 0.001259973 0.017375695
-0.008597604 -0.00078677136 0.00024090707
-0.0082208598 0.00077536888 0.017565953
-0.0077620209 0.00077536842 0.017584981
-0.0068507176 0.00071075489 0.0023449827
-0.00678699 5.8207661e-10 0.00063262321
-0.0037280649 -5.8207661e-10 0.00063262321
-0.0052575269 -0.00077536894 0.00063262321
-0.006213441 0.0012599735 6.1836094e-05
-0.0072649466 0.0012599733 0.0050086528
-0.0086032264 -0.00077536824 0.020229626
-0.0086553684 -0.0017622015 0.019278316
-0.0086553684 -0.0017622018 0.017773516
-0.0086441925 -0.0017584248 0.018218281
-0.0086749205 -0.0022291834 0.019266425
-0.0086605819 -0.0022098005 0.017756218
-0.0085841082 -0.00089167361 0.018688504
-0.0081252689 -0.00038768467 0.018136743
-0.0086032264 -0.0012599744 0.028220639
-0.0086032264 -0.0012599732 0.029267076
-0.0063090324 -0.0036830001 0.020229626
-0.0082208598 0.00077536842 0.015092546
-0.0082208589 0.00015507394 0.017642057
-0.0082208589 0.00014538085 0.012666705
-0.0082208598 0.00077536865 0.01261914
-0.0082208589 0.0012599735 0.012619139
-0.0082121696 -0.00029957446 0.015265513
-0.0077429032 0.0012599735 0.012619141
-0.0085076345 0.00019384222 0.007672322
-0.0072649471 -0.0036830001 0.015758466
-0.0072458284 -0.0036830003 0.01623412
-0.0086032264 -0.0032953164 0.013760713
-0.008660581 -0.0022291839 0.013266031
-0.0086553674 -0.0017622018 0.013760711
-0.0086441943 -0.0022153384 0.01376071
-0.0086553684 -0.0017622011 0.012792106
-0.00866058 -0.0027137897 0.013266031
-0.0086032264 -0.0027137897 0.013760714
-0.0086032255 -0.0027137897 0.01423637
-0.0085713621 -0.00090459641 0.01623412
-0.0085976049 -0.00078677124 0.015271617
-0.0086032264 -0.0012599735 0.017280564
-0.0086032264 -0.0032953164 0.017280564
-0.0086032264 -0.0032953157 0.015282808
-0.0086032264 -0.0032953161 0.014712024
-0.0085622594 -0.00030460954 0.022621492
-0.0075517204 4.6566129e-10 0.023083558
-0.0077429037 0.00077536772 0.022607898
-0.0021986028 -0.00077536853 0.014807153
-0.0062373397 -0.00088440476 0.013760713
-0.0068061072 0.00017445802 0.01240985
-0.0069781719 -0.00038768386 0.01185809
-0.0064046243 0.00019384257 0.012428877
-0.0072649466 0.0012599735 0.01261914
-0.0067869895 0.00077536795 0.012619139
-0.00855543 0.00014538085 0.012619141
-0.0085713631 -0.00029076333 0.012682561
-0.0062308218 -0.00088110002 0.0087101152
-0.0062316498 -0.00083075138 0.0082249902
-0.0062335655 -0.00084678439 0.0092144478
-0.0086032255 -0.0012599733 0.00824311
-0.008597604 -0.00078677124 0.0097763985
-0.0085713621 -0.00090459717 0.0087187653
-0.0086032264 -0.001259973 0.0097652059
-0.0082208598 -0.00031014753 0.0098032588
-0.0075517208 -0.00038768421 0.0093846824
-0.0077429027 0.0017445791 0.012428877
-0.0067869895 0.00077536865 0.012428877
-0.0072840648 0.00013568928 0.012333748
-0.0086032264 -0.0022291841 0.0051989146
-0.0086032273 -0.0017445785 0.0051989146
-0.0086441953 -0.0022153375 0.00824311
-0.0086032264 -0.0022291839 0.0077674529
-0.0077429027 0.00077536819 0.0025352444
-0.0082208607 0.00077536912 0.0048183892
-0.0069781728 0.0022291844 0.0076723238
-0.0072840652 0.0026750208 0.0074820612
-0.0081252679 0.0022291844 0.0099554686
-0.0077429027 0.0017445786 0.0099554677
-0.0082208598 0.00077536795 0.0099554667
-0.0082208607 0.00077536795 0.0074820602
-0.0058310754 -0.003198395 0.0047232583
-0.0071693556 -0.0036830001 0.0037719477
-0.0077429032 -0.0036829996 0.0032962933
-0.0072649471 -0.0036829996 0.0047232583
-0.006786989 -0.0036830003 0.0051989146
-0.006786989 -0.0036829994 0.0047232583
-0.006786989 9.6920528e-05 -0.00050895102
-0.0082208607 -0.00038768479 0.0031060316
-0.0063090329 -0.0036830003 0.0027255062
0.0047795707 0.0005815255 0.031455092
0.0023260573 0.0012276662 0.031645354
0.0027960478 -0.0003149932 0.031407528
0.0032501079 0.00019384187 0.031455096
