# .PCD v0.7 - Point Cloud Data file format
VERSION 0.7
FIELDS x y z
SIZE 4 4 4
TYPE F F F
COUNT 1 1 1
WIDTH 1171
HEIGHT 1
VIEWPOINT 0 0 0 1 0 0 0
POINTS 1171
DATA ascii
-0.006329969 0.00016066688 -0.0037153738
-0.007772238 -0.00072299957 -0.0022646268
-0.0072914814 -0.00072300021 -0.0022646263
-0.013701577 -0.0011246667 -0.00024970144
-0.014182333 -0.001124666 -0.00024970167
0.0015223976 -0.0001606666 -0.0072616423
0.0015223975 0.00016066688 -0.0072616423
0.00024037891 -0.0011246667 -0.001781045
0.0012018931 -0.00016066607 -0.0072616423
0.00072113523 -0.001124666 -0.0022646275
0.0012018931 -0.00016066711 -0.0052467166
0.0042466871 -0.0011246661 -0.0022646275
0.0040864348 -0.00016066659 -0.0037153736
0.0047274446 -0.00072299951 -0.0022646263
0.0063299681 0.00016066684 -0.0072616413
0.0032851726 -0.0011246669 -0.00081388059
0.0032851733 -0.0011246662 -0.0022646263
0.0032851731 -0.0011246664 -0.0017810448
0.0056889593 -0.00072299951 -0.0022646266
-0.0040864358 0.00013388899 -0.0052198507
-0.0037659302 -0.0011246661 -0.0017810444
-0.0032851726 -0.0011246663 -0.001297463
-0.0047274437 -0.0011246664 -0.0022646273
-0.0047274441 -0.00072300003 -0.0022646261
-0.0063299676 -0.00016066692 -0.0041989544
-0.0063299676 -0.00016066624 -0.0046825381
0.0052082012 -0.0007230005 -0.002264627
0.0052082008 -0.00024100047 -0.0022646266
0.0052082012 0.0011246667 -0.0012974632
0.0042466875 0.0011246668 -0.00024970202
0.0072914828 0.0011246668 -0.00081388105
0.006650473 0.00017673377 0.00079806009
0.0052082022 0.00075513293 -0.0002819408
0.0047274446 0.00075513369 -0.00028194056
0.0056889583 0.00075513282 -0.00028193975
0.0063299681 -0.00016066729 0.00079805939
0.008252996 0.0011246667 -0.0022646273
0.008252997 0.0011246671 -0.0017810449
0.0087337531 0.0011246664 -0.0022646261
0.0077722399 0.001124666 -0.0022646273
0.0077722385 0.0011246664 -0.0017810444
0.0077722394 0.0011246669 -0.0012974626
0.008252996 0.0011246662 -0.0012974627
0.0090809688 0.00013388877 0.0017114922
0.011404625 0.00013388842 0.0020876115
0.0056889593 0.0011246669 -0.0017810445
0.0056889583 0.0011246663 -0.0022646268
0.0068107247 0.001124667 -0.00081388117
0.0072914818 -0.0011246663 -0.00024970155
0.006650473 -8.0333171e-05 0.0016040297
0.013808411 0.00013388926 0.00079805939
0.013861829 -8.0332982e-05 0.0020876124
-0.021652559 -0.00015448754 -0.0041865557
-0.02163407 -0.00016066717 -0.005810895
-0.020271925 -0.0011246665 -0.0022646268
-0.020271923 -0.001124666 -0.0012974627
-0.020271923 0.0011246661 -0.0012974621
-0.021233438 0.0010978894 -0.00030343328
-0.021714197 0.0010978888 -0.00030343235
-0.020752681 0.0011246663 -0.0017810449
-0.018188642 0.00072299957 -0.0022646263
-0.018188646 0.00024099948 -0.0022646268
-0.01890978 0.00016066639 -0.0037153731
0.0037659307 -0.00016066729 -0.0032317911
0.003285174 -0.00072299939 -0.0022646263
-0.024748974 -0.0011146244 -0.00079373154
-0.024278231 -0.0011246662 -0.0017810444
-0.022194952 0.001124667 -0.0012974623
-0.022194954 0.0010978892 -0.00030343235
-0.022194952 0.00076316635 -0.00033029879
0.023957727 -0.00016066719 0.00079806033
0.023324 -0.00075221184 -0.00034495245
-0.012740063 -0.0011246667 -0.0012974632
-0.010817036 -0.0011246664 -0.0017810455
-0.0088211633 0.00015336297 -0.0077305706
-0.015304099 0.0011246667 -0.0008138814
-0.0153041 0.0011246665 -0.0012974632
-0.015784858 0.0011246664 -0.00024970085
-0.0153041 0.0011246661 -0.00024970109
-0.013701577 0.001124666 -0.00081388012
-0.013701577 0.0011246663 -0.0012974631
0.020271923 -0.0011246672 -0.00081388059
0.019791164 -0.0011246668 -0.0022646275
-0.019310409 -0.0011246663 -0.00081387989
-0.019310413 -0.0011246658 -0.00024970202
-0.018188644 -0.0011246661 -0.0012974632
-0.017707886 -0.001124667 -0.00081388094
-0.017707884 0.0011246661 -0.0022646263
-0.017707884 0.0011246664 -0.0017810455
-0.01674637 0.0011246661 -0.0012974628
-0.01722713 0.001124666 -0.0012974627
-0.01722713 0.001124666 -0.0008138807
0.021682147 -0.00014459997 0.0012816412
0.0015223974 -0.00016066679 0.00079806009
0.0015223974 -0.0001606672 0.0012816419
0.0032851738 0.0011246665 -0.00081388105
0.002804416 0.0011246669 -0.00024970178
0.0032851729 0.0011246669 -0.00024970144
0.016265614 -0.0011246663 -0.0012974623
0.023316717 -0.001124666 -0.00081388047
0.022184936 -0.0011045836 -0.0003403736
0.012259303 -0.0011246672 -0.0012974623
0.015304098 -0.001124667 -0.00081388
0.0028044162 -0.0011246661 -0.0017810444
-0.0042466871 0.0011246658 -0.00024970202
-0.0047274451 0.0011246662 -0.00024970155
-0.0040864348 0.00016066601 0.0012816419
-0.003785962 0.00015062511 0.0017551493
0.00024037789 -0.00075513386 -0.00028194045
0.00072113564 -0.0011246661 -0.00081388024
0.00088138803 8.0333826e-05 0.0012816424
0.0012820188 -8.0332778e-05 0.0020876119
0.0012820186 0.00013388853 0.0021413432
0.00072113582 0.0011246667 -0.00024970097
0.001201892 0.0011246657 -0.00024970155
0.0012018929 0.0011246663 -0.00081388
0.00072113605 0.0011246664 -0.00081388047
0.0012113196 -0.00015594176 0.0017557424
0.0015223974 -0.00012050039 0.0017249263
0.0015223977 0.00014459967 0.001732985
-0.0012018927 0.0011246665 -0.0002497019
-0.0015223973 -0.00014460005 0.0017329853
-0.004727446 -0.00075513404 -0.00028193975
-0.0040864353 -0.00016066662 0.00079805963
-0.0052082022 -0.00020886642 -0.00028194021
-0.016265614 0.001124666 -0.00081388012
0.0040864358 -0.00013388931 0.0016577616
0.0062498418 -0.0011246658 -0.0017810459
0.0096952673 -0.0011246662 -0.0012974623
0.0092145111 -0.0011246662 -0.0017810446
0.0092145102 -0.0011246662 -0.0012974627
-0.0034454258 -0.00016066672 0.00023388118
-0.0028044155 0.0011246668 -0.00081388
-0.0015223976 0.00013388909 -0.0076377606
-0.0038152388 0.00015448722 -0.0077080252
-0.0028044165 -0.0011246664 -0.0017810445
-0.0028044158 -0.0011246662 -0.0012974623
-0.0022435333 -0.0011246667 -0.0012974625
-0.001201893 -0.0011246671 -0.0012974623
0.011329843 0.00014460045 0.0012816424
0.011618298 0.00014459947 0.0017329846
0.01474322 -0.001124667 -0.0002497019
0.014743219 -0.0011246668 -0.00081388024
0.014086184 -0.00016066727 0.001732985
0.014102208 -0.00016066671 0.0012816412
0.016586119 -8.0332873e-05 0.0020876115
0.016385803 0.00016066649 0.0017249254
-0.016265614 -0.0011246667 -0.0012974627
0.024198106 -0.00016066655 -0.003715374
0.021682147 -0.00014459937 -0.0041989554
0.023957727 -0.00016066732 -0.0032317913
0.023957727 0.00016066706 -0.0032317913
0.023957727 0.00016066708 -0.0041989563
0.019230284 0.00016066663 -0.0052467175
0.011778548 -0.0011246667 -0.00024970097
0.011297791 -0.0011246667 -0.00081388047
0.013220819 -0.00075513293 -0.00028194033
0.01322082 -0.0011246669 -0.00024970144
0.013220822 -0.0011246668 -0.00081387989
0.012740065 -0.0011246671 -0.00081388128
0.013220822 -0.001124666 -0.0012974623
0.013220821 -0.0011246664 -0.0017810444
0.020271923 -0.0011246665 -0.0022646263
0.019791165 -0.0011246661 -0.001781045
0.023316715 -0.00020886658 -0.00028193987
0.0052082022 -0.0011246668 -0.0012974623
0.0042466875 -0.0011246665 -0.0012974623
0.0042466871 -0.0011246665 -0.00081388024
0.004246688 -0.0011246664 -0.00024970144
0.0037659309 -0.0011246663 -0.00024970167
0.0040864353 -0.00016066732 0.00079805939
0.0040864358 -0.00016066639 0.0012816421
0.0047274446 -0.0011246664 -0.00081388105
0.0037659302 0.00016066633 0.0012816424
0.0062498427 -0.0011246663 -0.0012974627
0.0052082022 -0.0011246668 -0.00081388047
0.0037659311 0.00015062517 -0.007725073
0.021714197 -0.0011246668 -0.0017810453
0.021393688 -0.00016066644 -0.0046825367
-0.02163407 -0.00016066682 -0.0067780605
-0.02163407 0.00016066691 -0.0072616404
-0.02163407 0.00014459991 -0.0077129854
-0.021393688 0.00016066674 -0.0072616413
-0.024198106 -0.00016066665 -0.0041989554
-0.02219495 -0.00072299974 -0.0022646266
-0.022755831 0.00072300021 -0.002264627
-0.023797479 -0.0011246667 -0.0017810453
0.023316715 -0.00072300021 -0.0022646261
0.021682145 -0.00014459966 -0.0067780605
0.022755837 -0.0011246658 -0.0012974627
0.018749526 -0.0011246664 -0.00024970132
0.018749528 -0.0011246664 -0.00081388059
0.019310409 -0.0011246667 -0.00081388059
0.019310413 -0.0011246667 -0.00024970155
0.019791164 -0.0011246667 -0.00081387989
-0.021233438 -0.001124666 -0.0017810451
-0.0072914828 0.0011246667 -0.0012974627
-0.0077722389 0.0011246668 -0.0012974632
-0.0088138804 0.00016066627 -0.0067780595
-0.0088138804 0.00016066713 -0.0062944777
-0.0072914828 -0.0011246661 -0.0022646266
-0.008795389 -0.00015448745 -0.0072616413
-0.0088211643 -0.00015336348 -0.0077305706
-0.0066504725 8.0332822e-05 -0.0075840307
-0.0063299681 8.0333062e-05 -0.0080676116
-0.0063499995 0.00016066708 -0.0077250749
-0.013808411 -0.00013388931 -0.0058108959
-0.014102207 -0.00016066704 -0.005810895
-0.013808412 -0.00013388913 -0.0062944777
-0.012259305 -0.001124666 -0.0022646277
-0.011618297 -0.00016066608 -0.0037153736
-0.011297792 -0.0011246663 -0.0022646268
-0.014102207 -0.00016066658 -0.0037153736
-0.013808412 -0.00013388896 -0.0037153738
-0.014102208 -0.00016066643 -0.0041989554
-0.0090542585 0.00014460023 -0.0077129845
-0.0088940058 -8.0333382e-05 -0.0080676116
-0.0088940058 8.0333746e-05 -0.0080676125
-0.011458043 -8.0332895e-05 -0.0080676125
-0.0113471 -0.00014212847 -0.0077204248
-0.011618297 -0.00016066634 -0.0076646265
-0.011458043 8.0332909e-05 -0.0080676116
-0.015784858 -0.00072299963 -0.0022646263
-0.0096952682 -0.0011246663 -0.001297463
-0.010256152 -0.0011246658 -0.001297463
-0.019210251 0.00014058308 -0.0076847766
-0.018944118 0.00012623869 -0.0076991683
-0.01890978 -0.00016066722 -0.0067780614
-0.019230284 -0.00016066713 -0.0067780595
-0.019230282 -0.00016066707 -0.0062944777
-0.01890978 -0.00016066601 -0.0062944777
-0.016425867 0.00014459954 -0.0077129854
-0.007772238 0.001124667 -0.00024970155
-0.0096952673 0.0011246665 -0.00081388059
-0.0096952682 0.0011246661 -0.0002497019
-0.010256153 0.0011246662 -0.00024970202
-0.010256152 0.0011246662 -0.00081388117
-0.010817036 0.0011246664 -0.0002497012
-0.010256154 0.00075870322 -0.00031238748
-0.0042466871 -0.0011246663 -0.00024970202
-0.004246688 0.0011246669 -0.00081388105
-0.0047274446 0.0011246665 -0.00081388117
-0.0056889588 0.00075513386 -0.00028193987
-0.0062498427 0.0011246664 -0.001297462
-0.0056889583 0.0011246663 -0.001297463
-0.0062498432 0.0011246671 -0.00081388047
-0.0056889588 0.001124666 -0.00081388024
-0.0052082026 0.0011246668 -0.00081388012
-0.0047274446 0.001124666 -0.001297463
-0.0068107252 -0.0011246662 -0.0017810446
-0.0066504721 8.0333237e-05 -0.0032317908
-0.014182334 0.001124666 -0.001297462
-0.018188644 0.0011246669 -0.0012974621
-0.018749526 0.0011246661 -0.0012974625
-0.01890978 -0.00016066672 0.001281641
-0.018936489 0.00013388878 0.0017652246
-0.016425867 0.00014459966 0.001732985
-0.015304102 0.001124667 -0.001781045
-0.01578486 0.001124666 -0.0017810451
-0.017707884 0.00075870374 -0.00031238783
-0.018188642 0.00075870374 -0.00031238864
-0.017707886 0.0011246667 -0.0002497012
-0.014102208 0.00016066656 0.0012816417
-0.014102206 0.00016066671 0.00079806009
-0.017707884 -0.00020886691 -0.00028193975
-0.017707882 0.00022639357 -0.00025702838
-0.020271923 0.0011131909 -0.00028424268
0.016612828 -0.00013388845 -0.0076914933
-0.019214258 0.00014459944 -0.0062944777
-0.019222999 0.00015336419 -0.005810895
-0.021393688 -0.00016066626 -0.0062944777
0.020271925 0.0011246667 -0.00024970144
0.021393688 0.00016066691 0.0012816419
0.023316715 0.0011246665 -0.00081388047
0.020271923 -0.0011246665 -0.0017810445
0.019791167 -0.0011246667 -0.0012974624
0.020271923 -0.0011246661 -0.0012974625
0.0090542585 -0.00014460066 -0.0077129854
0.0096952682 -0.0011246662 -0.0022646273
0.019230282 -0.00016066726 -0.005810895
0.011618297 -0.00016066617 -0.0072616423
0.011618297 0.00016066627 -0.0076646274
0.011385202 0.00015336378 -0.0077305697
0.014743216 -0.001124667 -0.0022646263
0.015304099 -0.0011246661 -0.0022646266
0.015784858 -0.0011246662 -0.0022646277
0.015304099 -0.0011246661 -0.0017810445
0.016265612 -0.0011246661 -0.0022646268
0.016746372 -0.0011246662 -0.0022646273
0.017227126 -0.0011246661 -0.0022646277
0.016666247 -0.00016066722 -0.0037153731
0.016345739 -0.00016066684 -0.0041989554
0.016666247 -0.00016066647 -0.0041989544
0.021682145 0.00014459957 -0.0058108959
0.023957727 0.00014459965 -0.0077129854
0.023787463 0.0011146253 -0.0022444772
0.0040864348 -0.00016066634 -0.0075840298
0.0038460572 -8.0333855e-05 -0.0080676125
0.0037659304 0.00016066646 -0.0032317904
0.0034454262 0.00024100005 -0.0037959698
0.0034454258 0.00024100039 -0.0041989554
0.0037659307 -0.00016066646 -0.0041989554
-0.019791165 -0.0011246658 -0.00024970109
-0.019791169 -0.001124666 -0.00081388082
-0.020752681 -0.0011246669 -0.00024970155
-0.020271925 -0.0011246658 -0.0002497019
-0.02075268 -0.00075513287 -0.00028193998
-0.025159618 -0.00072299974 -0.0012974623
-0.023797477 -0.0011246663 -0.0002497019
0.018749526 0.0011246662 -0.00081388035
0.018749526 0.0011246657 -0.0012974623
0.018188646 0.001124666 -0.0012974631
0.018749529 0.0011246661 -0.0002497019
0.018925805 0.00014460033 0.0017491048
0.01722713 0.0011246663 -0.00081388059
0.017707886 0.0011246662 -0.00081388117
0.017707886 0.0011246669 -0.00024970144
0.018188646 0.0011246661 -0.00081388024
0.018188644 0.0011246658 -0.00024970178
0.01890978 0.00016066608 -0.0062944777
0.013701578 0.0011246669 -0.0002497019
0.01322082 0.0011246663 -0.00081388035
0.01322082 0.0011246671 -0.0002497019
0.020752678 0.0011246671 -0.001297462
0.019310411 0.001124667 -0.0012974626
0.018749524 0.001124666 -0.0017810449
0.012740063 0.0011246661 -0.0017810452
0.013220821 0.001124666 -0.001781045
0.013220821 0.0011246668 -0.0022646268
0.013701577 0.0011246671 -0.0022646266
0.013701577 0.0011246665 -0.0017810455
0.011778547 0.0011246664 -0.0017810449
0.013220821 0.0011246663 -0.0012974625
0.014182335 0.0011246672 -0.00081388059
0.014182333 0.0011246665 -0.00024970167
0.014743222 0.0011246665 -0.00024970144
0.012740063 0.0011246669 -0.00081388082
0.01322082 0.00075513276 -0.00028193998
0.014102207 0.00016066655 0.00079805893
0.014102208 0.00016066608 0.0012816419
0.01637245 0.00013388867 0.00079805939
0.01578486 0.00075513346 -0.00028194045
0.01474322 0.001124667 -0.0022646263
0.015304099 0.0011246665 -0.0022646268
0.015304099 0.001124666 -0.001781045
0.014743219 0.001124666 -0.0017810453
0.012740066 0.000241 -0.0022646259
0.013808412 0.0001338892 -0.0032317911
0.016345739 -0.00016066706 -0.0062944768
0.016666247 -0.00016066642 -0.0062944777
0.01890978 -0.00016066733 -0.0072616413
0.019230286 -0.00016066615 -0.0067780605
0.016666247 -0.00016066602 -0.0067780605
-0.006650473 -0.00016066612 0.0012816414
-0.0066504739 -0.00016066643 0.00079806009
-0.0015223974 -0.00016066659 0.00079805963
-0.0028044165 -0.00020886699 -0.00028194068
-0.00024037802 0.001124667 -0.00024970109
0.0002403789 0.0011246663 -0.00024970097
-0.00024037808 0.0011246671 -0.0017810443
-0.00072113541 0.001124667 -0.0022646275
-0.00024037878 0.0011246667 -0.0022646273
-0.0012018923 -0.00016066656 -0.0041989554
-0.0012018929 0.00016066643 -0.003715374
-0.0012018922 0.00016066659 -0.0041989554
0.00024037792 -0.00072300027 -0.0022646261
-0.0028044165 -0.00072299939 -0.0022646268
-0.0022435333 -0.00072300044 -0.0022646268
0.0015223975 0.00016066656 -0.0058108964
0.001522398 0.00016066626 -0.0062944777
0.0015223976 -0.00016066691 -0.0058108959
0.0015223975 -0.00016066665 -0.0062944768
0.0015223981 -0.00016066669 -0.0037153733
0.0022435335 -0.0011246669 -0.0022646261
0.0072914832 -0.0011246663 -0.0017810446
0.006650473 -8.0332873e-05 -0.0072616432
0.0088138804 -0.0001606671 -0.0067780595
0.022755837 0.0011246664 -0.0012974621
0.012259306 -0.0011246663 -0.0022646263
0.011343578 -0.00014919094 -0.003715374
0.011329843 0.00014460023 -0.0052467175
0.011618297 0.0001606672 -0.005810895
0.011329843 -0.00014459972 -0.0052467175
0.011329844 -0.00014460043 -0.005810895
0.011329844 0.00014459943 -0.0037153729
0.011329844 0.0001446002 -0.0032317918
0.011618297 0.00016066713 -0.0041989554
0.011329843 0.0001446003 -0.0041989554
0.010256152 0.0011246669 -0.0022646261
0.010817035 0.0011246671 -0.0022646273
-0.023323126 0.00074870733 -0.00033674599
-0.014102208 -0.00016066678 -0.0072616413
-0.014102208 -0.00016066674 -0.0067780595
-0.01380841 -0.00013388928 -0.0067780595
-0.014102208 -0.00016066682 -0.0062944768
-0.014102207 0.00016066662 -0.0062944768
-0.014743219 0.0011246662 -0.0022646261
-0.016372448 -0.00013388941 -0.0037153736
-0.01890978 -0.00016066708 -0.0032317911
-0.016666247 -0.00016066714 -0.0037153738
-0.014102209 0.00016066684 -0.005810895
-0.014102207 0.00016066692 -0.0052467175
-0.013808411 0.00013388846 -0.0058108959
-0.011778547 -0.0011246663 -0.0017810456
-0.011778547 -0.0011246662 -0.001297463
-0.01578486 -0.0011246665 -0.0012974623
-0.012259306 -0.0011246671 -0.0017810453
-0.012740064 -0.0011246665 -0.0022646266
-0.014182337 -0.0011246661 -0.0017810455
-0.014182333 -0.0011246661 -0.001297462
-0.010256152 -0.0011246668 -0.00081388
-0.0092145111 -0.001124666 -0.00024970155
-0.008252997 -0.0011246664 -0.00081388105
-0.0087337522 -0.0011246664 -0.00081388059
-0.0092145102 -0.0011246663 -0.001297462
-0.008733754 -0.0011246667 -0.0012974626
-0.0062979185 -0.00015263383 0.00079805963
-0.015304097 0.00022639451 -0.00025702827
-0.014743221 0.0011246664 -0.00081388012
-0.010256153 -0.00020886734 -0.00028193975
-0.0090542585 -0.00016066698 0.00079805916
-0.013808412 -0.00013388865 0.0012816424
-0.01322082 -0.0011246662 -0.00024970202
-0.016666247 -0.00016066634 -0.0072616413
-0.0153041 -0.00024099943 -0.0022646263
-0.022755839 -0.0011246663 -0.0008138807
-0.022194952 -0.0011246665 -0.00081388035
-0.0072914828 0.001124667 -0.0022646275
-0.0077722385 0.0011246669 -0.002264627
-0.0077722385 0.00072300027 -0.0022646261
-0.0028044162 0.00072299963 -0.002264627
-0.001522398 -0.00012050002 -0.0077049248
-0.0032851738 -0.0011246664 -0.00081388035
-0.0037659304 -0.0011246661 -0.00081388059
-0.006329969 0.00016066634 -0.0032317911
-0.0056889593 0.00072299992 -0.0022646266
-0.0077722389 -0.00024100022 -0.0022646266
-0.0088138804 -0.00016066656 -0.0032317908
-0.0077722375 0.00024099971 -0.0022646268
-0.014743217 -0.001124666 -0.0002497019
-0.014182334 -0.0011246668 -0.00081388012
-0.013701579 -0.001124666 -0.00081388012
0.0015223973 0.00016066676 -0.0067780595
0.0012018931 0.00016066611 -0.0067780605
0.0012018929 -0.00016066652 -0.0067780614
0.0037659307 -0.0011246665 -0.0012974634
-0.0037659302 0.00016066719 -0.0046825376
-0.0037659311 0.0001606664 -0.005246717
-0.0063299686 0.00016066628 -0.0041989544
-0.0037659302 0.00016066697 -0.0067780605
-0.0040864358 0.00016066642 -0.005810895
-0.0042466875 -0.0011246662 -0.0017810452
-0.0040864353 -0.00016066695 -0.0041989563
-0.0040864358 -0.00016066665 -0.0062944777
0.0077722389 0.0011246662 -0.00081388035
0.0072914818 0.0007551334 -0.0002819408
0.0072914818 0.0011246667 -0.0017810456
0.0092145102 0.0011246662 -0.00081388012
0.0092145093 0.001124667 -0.0012974631
0.0096952682 0.001124666 -0.00081388035
0.008733754 0.0011246664 -0.0017810455
0.0092145102 0.0011246658 -0.0017810452
0.0092145121 0.0011246661 -0.0022646268
0.010256152 0.0011246663 -0.001781045
0.010817034 0.001124666 -0.0017810448
0.010256152 0.0011246661 -0.001297463
0.0096952682 0.0011246661 -0.001297462
0.010256153 0.001124667 -0.00081388012
0.0056889579 0.0011246664 -0.0012974618
0.0088138795 -0.00016066692 0.0012816424
0.0087795407 0.00014918987 0.00079805916
0.0088138795 -0.0001606673 0.00079806033
0.0090542585 -0.00016066656 0.00079805963
0.0066504735 -8.0333048e-05 0.00079805986
0.0077722389 0.00022639408 -0.00025702873
0.0072914823 -0.0011246664 -0.00081388082
0.013808411 0.00013388871 0.0012816426
-0.019203572 0.00013388903 -0.0041989554
-0.019214258 0.00014460053 -0.0046825372
-0.019230282 -0.00016066601 -0.0046825376
-0.01890978 -0.00016066649 -0.0046825376
-0.019218836 0.00014919102 -0.005235204
-0.018917065 0.00015336422 -0.0046678837
-0.01890978 -0.00016066646 -0.0041989554
-0.019791165 0.00072300032 -0.0022646273
-0.020271925 -0.0011246663 -0.00081388012
-0.02075268 -0.001124666 -0.00081388117
-0.018925805 0.00014460056 0.00079806056
-0.018917065 0.00015336365 0.0012816424
-0.021233438 0.001124666 -0.0017810444
-0.01890978 0.00016066719 -0.0041989544
0.002243533 -0.00072299986 -0.0022646273
0.001522397 0.00016066666 -0.0052467166
0.0037659304 -0.00016066655 -0.0037153729
-0.02163407 0.00016066695 0.0012816417
-0.021634072 0.0001606662 0.00079805986
-0.02163407 -0.00016066623 0.0012816414
-0.011329842 -0.00014459994 -0.0037153736
-0.011618297 -0.00016066685 -0.0041989554
-0.011329841 -0.00014460039 -0.0041989554
-0.008252997 0.001124667 -0.0012974625
-0.013701577 0.0011246671 -0.0017810441
-0.013808412 0.00013388833 -0.0052467175
-0.01380841 0.00013388891 -0.0046825372
0.014743218 0.00075513287 -0.00028194091
0.014743216 0.00022639341 -0.00025702838
0.02075268 -0.0011246663 -0.00081388105
0.021714194 -0.0011246667 -0.00081388105
-0.024278231 -0.0011246671 -0.00081388059
0.017227124 -0.0011246671 -0.001781045
0.017707886 -0.0011246667 -0.0017810452
0.017707886 -0.001124666 -0.0022646263
0.01818864 -0.001124666 -0.0022646268
0.016746372 -0.001124666 -0.0017810451
0.018749528 -0.001124666 -0.0022646263
0.018188644 0.00075513305 -0.00028194033
-0.019310409 -0.0011246662 -0.0012974627
-0.018749526 -0.0011246665 -0.001297463
-0.017707884 -0.0011246661 -0.00024970097
-0.01890978 0.00016066707 -0.0062944768
-0.018925805 0.00014460039 -0.0058108959
-0.017707884 0.001124667 -0.00081388012
-0.011618297 -0.00016066701 0.0012816412
-0.011297792 0.0011246662 -0.00024970074
-0.011329843 0.00014459941 0.0012816419
-0.011618298 0.00016066662 0.0012816419
0.0015223981 0.00016066659 0.00079806033
0.0022435323 0.00075513317 -0.0002819401
0.002243533 0.00022639467 -0.00025702885
0.0037659307 -0.00016066624 0.0012816414
0.0032851738 0.0011246663 -0.001297462
0.0028044155 0.001124666 -0.0012974618
0.002243533 0.0011246665 -0.0002497019
0.0022435333 0.0011246665 -0.00081388117
0.0016826502 0.001124667 -0.00081388117
0.0028044169 0.00075513351 -0.00028194033
0.012740063 -0.0011246671 -0.0012974627
0.012740064 -0.0011246669 -0.0017810444
0.012259305 -0.0011246671 -0.0017810445
0.011778549 -0.0011246661 -0.001297463
0.01474322 -0.001124667 -0.001781045
0.0028044167 0.0011246662 -0.00081388105
0.0022435321 -0.0011246658 -0.0012974634
0.002804416 -0.001124667 -0.00081388035
0.0028044167 -0.0011246668 -0.0012974634
-0.0040864358 0.00016066711 0.0016040304
0.0012018924 -0.001124666 -0.00081388047
0.0016826495 -0.0011246663 -0.0012974621
0.001201893 0.00016066617 0.0017652237
0.0012018929 0.00016066617 0.0012816419
0.00024037817 0.00075513386 -0.00028194033
0.00072113634 0.00075513346 -0.0002819401
-0.0016826499 0.0011246667 -0.00024970074
-0.015784858 0.0011246669 -0.00081388094
-0.015784858 0.00075870409 -0.00031238771
-0.015304098 0.00075870386 -0.00031238829
0.0028044165 -0.00075513381 -0.00028194033
0.0032851726 -0.00075513381 -0.00028194021
0.0087337531 0.0011246667 -0.0012974624
-0.0022435328 -0.00075513392 -0.00028194091
-0.0037659304 -0.00016066717 0.00079806009
-0.0015223974 0.0001606665 -0.0032317913
-0.0022435328 0.0007229998 -0.0022646268
-0.0022435335 0.00024100057 -0.0022646259
-0.0040864353 0.00016066601 -0.0075840298
-0.0012018933 -0.00016066711 -0.0058108941
-0.0015223968 -0.00016066695 -0.0052467161
-0.001201893 -0.00016066621 -0.0052467175
-0.0022435333 -0.00024100044 -0.0022646261
-0.0013621456 -0.00056233333 -0.0026676122
-0.00072113634 0.0011246663 -0.0017810446
-0.0012018927 0.0011246672 -0.0012974627
-0.00072113599 0.0011246667 -0.001297462
-0.0012018926 0.0011246665 -0.0022646275
0.015304099 -0.00075513375 -0.00028193987
0.014743218 -0.00075513398 -0.00028194068
0.0153041 -0.0011246663 -0.00024970202
0.014182333 -0.0011246665 -0.0002497019
0.01578486 -0.0011246664 -0.00024970178
0.012259305 -0.0011246671 -0.00081388082
0.016658962 -0.00015336354 0.0017505705
0.01637245 -0.00016959292 0.0017294025
-0.016265614 0.0011246664 -0.0022646275
-0.015784858 0.00072300027 -0.0022646261
-0.016265616 0.0011246662 -0.0017810453
-0.01474322 0.00072299963 -0.0022646268
0.02469489 -0.001044333 -0.0022001492
0.02219495 0.00072299951 -0.0022646273
0.021393688 -0.00016066694 -0.0032317908
0.021674134 -0.00016066665 -0.0032217158
0.02219495 -0.00072299934 -0.0022646261
0.022755835 0.00024100044 -0.002264627
0.012740062 -0.001124667 -0.00024970155
0.020271923 -0.00024100018 -0.0022646268
0.019230282 0.00016066614 -0.0032317913
0.019203573 -0.00013388907 -0.0032317913
0.003285174 0.0011246664 -0.0022646275
0.0032851731 0.0011246669 -0.0017810449
0.0047274446 -0.0011246663 -0.0017810444
0.0047274455 -0.0011246662 -0.00024970074
0.0047274451 -0.00075513264 -0.00028193975
0.0037659309 -0.0011246663 -0.00081388047
0.0015223977 0.00014459966 -0.0077129854
0.0038460565 8.0333928e-05 -0.0080676125
-0.021393688 -0.0001606672 -0.0067780595
-0.022755837 0.00024100053 -0.0022646263
0.022755833 -0.00072300021 -0.0022646268
0.019310411 -0.001124667 -0.0012974621
0.018188644 -0.0011246664 -0.00081388059
0.01818864 -0.0011246661 -0.0012974627
0.022194952 -0.0011246664 -0.0012974632
-0.0068107252 0.0011246663 -0.0012974621
-0.0088138804 -0.00056233373 -0.0025870146
-0.0082529979 -0.00072299957 -0.0022646266
-0.0088138804 0.0001606662 -0.0058108959
-0.0090542575 0.00016066605 -0.0062944768
-0.0066504721 8.0333972e-05 -0.0072616432
-0.0066504735 -0.00016066691 -0.0072616423
-0.0077722385 -0.0011246662 -0.002264627
-0.0066504725 -0.00013388874 -0.0076377615
-0.010817033 -0.0011246661 -0.0022646268
-0.011618297 -0.00016066671 -0.005810895
-0.011329843 -0.00014460007 -0.0062944777
-0.011618297 -0.00016066612 -0.0062944768
-0.013808412 -0.00013388899 -0.0032317908
-0.014102207 -0.00016066659 -0.0046825367
-0.011618297 0.0001606663 -0.0076646274
-0.011329843 0.00014460053 -0.0072616413
-0.011618297 0.00016066698 -0.0072616413
-0.011618298 -0.00016066701 -0.0072616413
-0.0090542585 -0.00016066614 -0.0037153738
-0.011329843 -0.00014459967 -0.0052467175
-0.011618296 -0.00016066605 -0.0052467166
-0.0092145093 -0.0011246665 -0.0017810451
-0.019230284 0.00016066642 -0.0072616423
-0.01890978 0.0001606662 -0.0067780605
-0.0077722394 0.0011246662 -0.00081388117
-0.0092145121 0.0011246664 -0.00081388117
-0.0088211652 0.00015336389 0.0017505696
-0.0090542585 0.00016066611 0.0017652246
-0.0088940058 8.0333266e-05 0.0021682086
-0.0088405879 -0.00013388913 0.0020876119
-0.0088211624 -0.0001533633 0.0017505698
-0.0077722385 0.00075513293 -0.00028194033
-0.0082529988 0.00075513369 -0.00028193963
-0.0096952673 0.00075870421 -0.00031238818
-0.0096952654 0.00022639363 -0.00025702885
-0.0047274455 -0.001124666 -0.00024970167
-0.0056889588 0.0011246663 -0.0017810456
-0.0052082012 0.0011246669 -0.0012974626
-0.0066504725 8.0333099e-05 -0.0037153731
-0.0077722385 0.00022639365 -0.00025702803
-0.0077722385 -0.00020886658 -0.00028194045
-0.0088138795 -0.00016066703 0.00079805986
-0.018188648 0.0011246671 -0.0022646268
-0.018188646 0.0011246664 -0.0017810448
-0.019230282 -0.00016066694 0.00079806009
-0.016658962 0.00015336425 0.0017505705
-0.017227126 0.00075870426 -0.00031238818
-0.018749528 0.0011246658 -0.00024970074
0.020271925 0.00075513311 -0.00028194056
0.019791165 0.00075513334 -0.00028194045
0.02139369 0.00014460036 0.0017329848
0.020752681 0.00075513386 -0.00028193987
0.020752678 -0.0011246663 -0.0017810455
0.011329844 0.00014459978 -0.0058108955
0.0092145111 -0.0011246667 -0.002264627
0.008733754 -0.0011246661 -0.001781045
0.008733755 -0.0011246663 -0.0022646273
0.018917065 -0.00015336367 -0.0058108964
0.019310411 -0.0011246663 -0.0022646268
0.019203573 -0.00013388917 -0.0037153736
0.018917063 -0.0001533639 -0.0037300275
0.014102207 -0.00016066646 -0.0072616423
0.014022082 -0.00016066604 -0.007745225
0.014062145 0.00018075049 -0.0077250749
0.014102209 0.0001606673 -0.0072616423
0.011618297 -0.00016066665 -0.0076646265
0.018925805 -0.00014459985 -0.0032156711
0.01637245 0.00013388855 -0.0046825372
0.016666247 0.00016066653 -0.0046825376
0.016372448 0.00013388885 -0.0052467175
0.007772238 -0.00072300044 -0.0022646266
0.0077722399 -0.001124666 -0.0022646263
0.0063299681 -0.00016066607 -0.0037153731
0.0066504721 -8.0332888e-05 -0.0037153731
0.0066504721 -8.0333797e-05 -0.0041989563
0.0040864348 -0.00016066695 -0.0067780595
0.0040864358 0.00016066631 -0.0062944777
0.0040864348 -0.00016066646 -0.0062944768
0.0037659302 -0.00016066647 -0.0062944777
0.0040864353 -0.00016066691 -0.0072616432
0.0040864358 0.00016066674 -0.0072616413
0.0037659304 0.00016066662 -0.0037153736
0.011618297 -0.00016066703 -0.0062944777
0.011618297 0.00016066611 -0.0062944777
-0.02139369 0.00014460004 0.001732985
-0.021634068 8.0333324e-05 0.0020876119
-0.021634068 -8.0333317e-05 0.0020876119
-0.021652561 -0.00015448697 0.0017528238
0.01922138 0.00015174122 0.0017114922
0.019230282 -0.00016066669 0.0012816417
0.01722713 0.0011246667 -0.00024970132
0.017227128 0.0011246665 -0.0012974621
0.016345741 -0.00016066671 -0.0037153738
0.014743222 0.0011246664 -0.00081388035
0.014743218 0.0011246664 -0.0012974625
0.0153041 0.001124667 -0.00024970132
0.0153041 0.0011246667 -0.00081388082
0.015304098 0.0011246668 -0.0012974625
0.01578486 0.0011246664 -0.001781045
0.016265614 0.001124666 -0.0017810448
0.016265616 0.001124667 -0.0022646275
0.015784858 0.0011246661 -0.0022646273
0.016265614 0.0011246663 -0.0012974628
0.02075268 0.0011246672 -0.0017810444
0.020271923 0.0011246658 -0.0017810449
0.019310411 0.0011246661 -0.0017810449
0.019310411 0.0011246664 -0.0022646263
0.018749528 0.0011246669 -0.0022646273
0.01322082 0.00072299945 -0.002264627
0.011778549 0.001124666 -0.0022646268
0.011297791 0.0011246662 -0.0022646273
0.011297791 0.001124666 -0.0017810451
0.013701577 0.001124666 -0.00081388
0.014182334 0.0011246663 -0.0012974624
0.014086183 0.00016066684 0.0017329857
0.015304099 0.00075513398 -0.00028193963
0.015304099 0.00022639388 -0.00025702897
0.016666247 0.00016066711 0.0012816419
0.014182335 0.0011246671 -0.0022646261
0.013808411 0.00013388878 -0.0037153731
0.013808411 -0.00013388832 -0.0032317908
0.013220819 -0.00072300015 -0.0022646261
0.016265612 -0.0011246662 -0.001781045
0.016666247 0.0001606665 -0.0062944787
-0.0066504735 8.0333455e-05 0.0016846268
-0.006650473 8.0332902e-05 0.0012816417
-0.0012018922 0.0011246665 -0.00081388059
-0.00072113599 0.001124666 -0.00081388082
-0.00024037789 0.0011246667 -0.00081388105
-0.0012018923 -0.00016066633 -0.0046825372
-0.0015223972 -0.00016066676 -0.0037153731
-0.00024037827 -0.00072299998 -0.0022646266
0.0015223972 -0.00016066697 -0.0052467166
0.0015223976 -0.00016066628 -0.0046825376
-0.0012018922 -0.00016066652 -0.0067780605
-0.0012018932 -0.00016066682 -0.0062944777
0.0063299676 0.00016066656 -0.0058108941
0.0066504735 0.00016066636 -0.0058108959
0.0063299676 0.0001606671 -0.0062944777
0.0066504735 0.00016066719 -0.0052467166
0.0063299681 0.00016066627 -0.005246717
0.013220821 -0.0011246669 -0.002264627
0.0088200429 -0.00017920454 -0.0032193917
0.011618298 -0.00016066706 -0.0041989554
0.013808411 -0.00013388922 -0.0046825381
0.013808411 -0.00013388896 -0.0041989554
0.013808411 0.00013388948 -0.0046825372
0.010817033 0.00072300056 -0.0022646263
0.011329843 0.00014460064 -0.0046825381
0.012740063 -0.0002409994 -0.0022646273
0.012259305 -0.00072300073 -0.0022646263
-0.014102208 0.00016066727 -0.0072616413
-0.01380841 -0.00013388824 -0.0072616404
-0.016372448 -0.00013388951 -0.0041989554
-0.016666247 -0.00016066627 -0.0041989544
-0.016425865 0.00016066611 -0.0041989549
-0.014743221 -0.0011246662 -0.0012974624
-0.008733754 -0.001124666 -0.00024970132
-0.0096952664 -0.0011246658 -0.00024970202
-0.0082529979 -0.0011246661 -0.0012974626
-0.006650473 8.0332997e-05 0.00079806033
-0.0072914832 -0.00075513328 -0.00028194045
-0.014743219 -0.00072300056 -0.0022646261
-0.01474322 0.00022639414 -0.00025702815
-0.014743221 0.001124666 -0.00024970167
-0.0088138785 0.00016066732 0.0012816414
-0.010256152 -0.0007551334 -0.0002819401
-0.0096952654 -0.0007551327 -0.00028193987
-0.013808411 -0.00013388845 0.00079806033
-0.013808411 0.00013388826 0.0012816414
-0.016380081 -0.00012623795 -0.0076991692
-0.016666247 -0.00016066687 -0.0046825376
-0.016666247 0.00016066666 -0.005246717
-0.016666248 -0.00016066694 -0.005246717
-0.016425865 0.00016066729 -0.0058108959
-0.022194952 -0.0011246658 -0.0002497012
-0.022194952 -0.00075513334 -0.00028194045
-0.021714196 -0.0011246664 -0.00024970097
-0.022755837 -0.001124666 -0.0012974626
-0.0042466875 0.001124667 -0.0022646275
-0.0072914832 0.001124666 -0.0017810452
-0.0063032601 -0.00015174017 -0.0077273138
-0.0066504735 -0.0001606662 -0.0067780595
-0.0063299681 -0.0001606672 -0.0067780605
0.008733754 -0.001124667 -0.0012974619
-0.0028044158 -0.0011246662 -0.00081388059
-0.0052082008 -0.00024100023 -0.0022646273
-0.0052082022 0.0007229998 -0.002264627
0.0015223981 -0.00016066671 -0.0067780595
0.0034454253 0.00024100053 -0.0045213434
0.0037659302 -0.00016066711 -0.0046825381
0.0040864358 0.00016066698 -0.0076646274
0.0037659302 0.00016066703 -0.0072616413
0.0066504739 0.00016066691 -0.0072616423
0.006650473 0.00016066628 -0.0067780595
0.006650473 0.00016066644 -0.0062944777
0.0066504725 -8.0333397e-05 -0.0067780595
0.0037659309 -0.000160667 -0.0058108959
0.0032851738 -0.0011246662 -0.0012974627
0.0056889593 -0.0011246661 -0.0012974633
-0.0040864353 0.00012050022 -0.0046825381
-0.0015223976 0.00016066724 -0.0041989554
-0.0015223979 0.00016066713 -0.0037153733
-0.0063299662 0.000160667 -0.005246717
-0.0063299676 -0.00016066614 -0.005246717
-0.0066504725 8.0333688e-05 -0.0058108959
-0.0063299676 0.00016066637 -0.005810895
-0.0037659302 0.00016066631 -0.0058108941
-0.0037659309 -0.0001606666 -0.0058108955
-0.0040864348 -0.00016066607 -0.003715374
-0.0040864358 -0.00016066617 -0.0058108969
-0.0040864353 0.0001446005 -0.0062622391
0.0077722389 0.0011246658 -0.0002497012
0.008252997 0.00075513357 -0.0002819401
0.0052082017 0.00022639408 -0.0002570292
0.0052082017 -0.00020886704 -0.00028194056
0.0056889593 -0.0011246657 -0.00024970074
0.0056889593 -0.00075513369 -0.00028194021
0.0072914828 0.001124666 -0.001297462
0.0068107261 0.0011246661 -0.0012974633
0.0068107257 0.0011246658 -0.0017810446
0.0096952673 0.0011246672 -0.001781045
0.0096952682 0.001124667 -0.002264627
0.0062498432 0.0011246664 -0.001297463
0.008733754 -0.0011246665 -0.00024970167
0.006650473 -8.0333353e-05 0.0012816414
0.0077722389 -0.0011246667 -0.0012974632
0.0077722399 -0.0011246662 -0.00081388128
0.008252997 -0.0011246663 -0.0012974625
0.0082529979 -0.0011246667 -0.00024970155
-0.019230284 -0.00016066604 -0.0052467175
-0.018921226 0.00014919013 -0.005258231
-0.020271923 -0.00075513346 -0.00028194045
-0.016666247 0.00016066637 -0.0037153736
-0.016666247 0.000160667 -0.0041989563
0.0028044165 -0.00072299992 -0.0022646263
0.0028044158 0.0011246663 -0.0022646266
0.0012018929 0.00016066704 -0.0052467175
0.001201893 0.00016066618 -0.0046825372
-0.021393688 -0.00016066707 0.0012816417
-0.021233438 -0.0011246663 -0.00024970167
-0.012740063 -0.0011246661 -0.00081388094
-0.0077722408 0.0011246664 -0.0017810449
-0.008252996 0.00072299998 -0.0022646263
-0.013808411 0.00013388842 -0.0062944768
-0.013808411 0.00013388926 -0.0067780595
-0.012740063 0.0011246668 -0.0017810443
-0.012259305 0.0011246669 -0.002264627
-0.012259305 0.0011246661 -0.0017810449
-0.012740064 0.0011246665 -0.0022646268
-0.011329843 0.00014460036 -0.0041989549
-0.011329843 0.0001446004 -0.0046825381
-0.012259305 0.0011246667 -0.0012974625
-0.011778549 0.001124666 -0.0017810452
-0.011618297 -0.00016066628 0.00079806009
-0.012740063 -0.00075513299 -0.0002819401
0.014182333 -0.0011246662 -0.0012974627
-0.021233438 -0.0011246672 -0.00081388047
0.01722713 -0.0011246668 -0.0012974627
-0.019791165 -0.0011246662 -0.001297462
-0.017707884 -0.00075513334 -0.00028194021
-0.018188644 -0.00020886654 -0.00028193987
-0.017227126 -0.00075513398 -0.00028194068
-0.017227126 0.0011246663 -0.0017810443
-0.017707886 0.0011246662 -0.0012974625
-0.013220821 0.0011246667 -0.00024970167
-0.0090809679 -0.00013388836 0.0017114929
-0.011618296 -0.0001446001 0.0017329857
-0.011359427 -0.0001544866 0.0017528243
-0.011364563 0.00014727809 0.0017383588
-0.0090542575 0.00016066649 0.0012816419
-0.011329843 -0.00014460037 0.0012816414
0.0012018933 0.00016066634 0.00079805963
0.0015223974 0.00016066671 0.0012816414
0.0034454262 0.00024099938 0.0012816417
0.0037659304 0.00016066681 0.00079806009
0.0032851738 -0.001124667 -0.0002497019
0.0016826499 0.0011246664 -0.00024970144
0.015304099 -0.001124666 -0.0012974631
0.014743219 -0.001124666 -0.0012974628
0.015784858 -0.00075513346 -0.00028194068
0.018188644 -0.00072300038 -0.0022646268
0.018188642 -0.00024100037 -0.0022646266
0.018188644 -0.001124666 -0.0017810452
0.018749528 -0.0011246658 -0.0017810449
0.0022435333 -0.0011246657 -0.0017810457
0.0016826499 -0.0011246671 -0.0017810453
0.00072113547 -0.00075513375 -0.0002819401
-0.0047274446 0.00075513299 -0.00028193975
-0.0052082017 0.00075513351 -0.00028194033
-0.0052082022 0.0002263942 -0.00025702815
0.00024037795 0.0011246665 -0.00081388024
0.00024037909 0.00022639436 -0.00025702838
-0.0016826498 0.0011246667 -0.00081388117
-0.01578486 0.001124667 -0.001297463
0.0037659307 -0.00016066615 0.00079806033
0.0040864358 0.00016066605 0.0012816424
0.0040864348 0.00016066708 0.00079806009
-0.0022435333 -0.00020886608 -0.00028194021
-0.0028044169 -0.00075513351 -0.00028194091
-0.0028044169 0.00024099961 -0.0022646273
-0.0032851738 0.0011246663 -0.00081388094
-0.0015223975 -0.00016066698 -0.005810895
-0.0015223973 0.0001606664 -0.0052467166
-0.002243533 0.0011246658 -0.0022646273
-0.0032851738 0.0011246671 -0.0017810444
-0.0012018922 0.0011246663 -0.0017810448
0.016345739 -0.00016066698 0.00079805963
0.015304102 -0.00020886718 -0.00028193998
0.016666247 -0.00016066631 0.00079805963
0.016345741 -0.00016066722 0.0012816414
0.013701577 -0.0011246665 -0.00081388047
0.013701576 -0.0011246662 -0.00024970213
0.016265614 -0.0011246663 -0.0002497012
0.020271923 -0.00020886706 -0.0002819401
0.020271923 -0.00075513346 -0.00028193975
0.019230286 -0.00016066634 0.00079805986
0.02075268 -0.00075513305 -0.00028194091
0.019791167 -0.0010978888 -0.00030343246
0.018917063 0.00015336345 0.00079805963
0.018188642 0.00022639403 -0.00025702792
0.018925805 -0.00014459967 0.0017491041
0.018917063 -0.00015336426 0.00079805986
0.01890978 -0.00016066704 0.0012816421
-0.020271925 -0.0002088672 -0.0002819401
-0.015784858 -0.00075513346 -0.00028193998
0.010256154 -0.00024099973 -0.002264627
0.011297791 -0.001124667 -0.0002497012
0.0047274437 -0.001124667 -0.0012974625
0.0052082022 -0.00075513351 -0.0002819408
0.022755835 -0.00024099978 -0.0022646259
0.020271923 -0.00072300038 -0.0022646273
0.019791164 -0.00072299992 -0.002264627
0.018749528 -0.001124666 -0.0012974627
0.019310411 -0.0011246667 -0.0017810444
0.017707884 -0.001124667 -0.00081388117
-0.0096952682 0.0011246664 -0.0012974625
-0.0087337531 0.0011246668 -0.0017810452
-0.0092145111 0.0011246665 -0.0022646266
-0.008733755 0.0011246664 -0.0022646266
-0.011618297 -0.00016066642 -0.0067780605
-0.0090542585 0.00016066676 -0.0052467161
-0.0090542585 -0.00016066612 -0.0046825372
-0.0090542594 0.00016066643 -0.0046825367
-0.0088138813 0.00016066624 -0.0052467166
-0.0088138785 0.00016066607 -0.0046825372
-0.011329842 -0.00014459972 -0.0046825362
-0.011618297 -0.00016066602 -0.0046825372
-0.011618297 0.00016066639 -0.0046825372
-0.011329843 -0.00014460039 -0.0067780605
-0.010256153 -0.00072300015 -0.0022646266
-0.0096952664 -0.00072300067 -0.0022646266
-0.013220821 -0.00072300032 -0.0022646261
-0.013808411 0.00013388923 -0.0032317918
-0.014102207 -0.000160667 -0.0032317908
-0.01380841 -0.00013388848 -0.0041989554
-0.013808412 0.00013388923 -0.0041989554
-0.014102208 0.00016066621 -0.0046825372
-0.014102208 0.00016066692 -0.0041989554
-0.011329842 0.00014460034 -0.0067780595
-0.011329843 0.00014460059 -0.0062944787
-0.011356067 0.00013875702 -0.007701261
-0.011329843 -0.00014459947 -0.0072616423
-0.0090542585 -0.00016066678 -0.0041989554
-0.011329843 -0.00014460023 -0.005810895
-0.0090542575 -0.00016066733 -0.005246717
-0.0087997383 -0.00015594138 -0.0052609402
-0.0088138795 -0.00016066714 -0.0058108959
-0.01025615 0.0011246665 -0.0017810445
-0.0096952682 0.0011246671 -0.0017810449
-0.01025615 0.001124667 -0.0022646261
-0.010817034 0.001124667 -0.0022646263
-0.010817037 0.0011246658 -0.0017810456
-0.0096952664 -0.0011246661 -0.0017810452
-0.019230282 0.00016066634 -0.0067780605
-0.016666247 0.00016066644 -0.0067780605
-0.016666247 -0.00016066637 -0.0067780595
-0.016666247 -0.00016066713 -0.0062944777
-0.016666247 0.00016066621 -0.0062944777
-0.016425865 0.00016066698 -0.0062944777
-0.016372448 -0.00013388865 -0.005810895
-0.010817035 0.00075870327 -0.00031238783
-0.0072914818 0.00075513322 -0.00028193998
-0.0072914814 0.00022639353 -0.00025702873
-0.0088138795 0.00016066716 0.00079806033
-0.0042466875 -0.0011246662 -0.00081388059
-0.0066504721 8.0333084e-05 -0.0041989554
-0.018749526 0.0011246662 -0.0017810446
-0.019222999 -0.000153363 0.0017505696
-0.016666247 0.00016066694 0.00079805939
-0.01818864 0.00022639462 -0.00025702815
-0.020271923 0.0011246663 -0.00081388105
0.019230284 0.00016066694 -0.0037153731
0.019791165 0.0011246668 -0.002264627
0.013829778 -0.00014459988 -0.0076485081
0.01380841 -0.00013388909 -0.0072616423
0.014086181 -0.00016066706 -0.0067780595
0.014743217 -0.00072300027 -0.0022646268
0.017707886 -0.00072299968 -0.0022646263
0.017227128 -0.00072300003 -0.0022646266
0.017707884 -0.00024099961 -0.0022646263
0.016666247 -0.0001606672 -0.0032317913
0.0066504739 0.00016066653 -0.0041989554
0.0040864353 0.00016066694 -0.0037153731
0.0063299686 -0.00016066634 -0.0041989544
0.0063299681 0.00016066602 -0.0041989549
0.0063299676 -0.00016066706 -0.0067780605
0.0063299686 -0.00016066628 -0.0062944777
0.00376593 -0.00016066726 -0.0067780605
0.0037659302 0.00016066663 -0.0067780605
0.0037659304 0.00016066627 -0.0041989544
0.0037659309 0.00016066637 -0.0046825367
0.013808412 -0.00013388837 -0.0067780595
0.011618296 -0.00016066708 -0.0058108959
-0.021393688 0.00016066611 0.0012816426
-0.02163407 0.00016066656 0.0017652242
0.017707884 0.0011246661 -0.001297463
0.016746372 0.0011246661 -0.0017810452
0.016746372 0.0011246668 -0.0022646268
0.016746374 0.001124667 -0.001297463
0.017707886 0.00024100021 -0.0022646266
0.016666247 0.0001606661 -0.0032317908
0.016666247 0.00016066614 -0.003715374
0.01722713 0.0011246662 -0.0022646263
0.016372448 0.00013388885 -0.0037153738
0.016666247 0.00016066602 -0.0041989554
0.016666247 0.00016066681 -0.005246717
0.016666245 0.00016066665 -0.005810895
0.016345739 -0.00016066694 -0.0046825372
0.016345739 -0.00016066687 -0.0052467175
0.016666247 -0.00016066601 -0.0046825376
0.015784858 0.0011246661 -0.00081388082
0.01578486 0.0011246662 -0.0012974623
0.01637245 0.00013388878 -0.0041989558
0.016345741 -0.00016066647 -0.0032317904
0.015784858 -0.00072300003 -0.002264627
0.02075268 0.0007229998 -0.0022646263
0.021233438 0.0011246661 -0.0017810448
0.020271923 0.00024100038 -0.0022646263
0.019791165 0.0011246671 -0.0017810451
0.013701576 0.001124667 -0.001297462
0.016361764 0.0001445997 0.001297761
0.016666247 0.00016066604 0.00079805986
0.017227126 0.00075513276 -0.0002819408
0.014182335 0.0011246665 -0.0017810451
0.013808411 0.00013388932 -0.0041989554
0.014102208 0.00016066714 -0.0032317908
0.01474322 0.00072300015 -0.0022646261
0.013808412 -0.00013388949 -0.0037153736
0.014102208 -0.0001606673 -0.0032317911
0.015304099 -0.00024100028 -0.0022646268
0.013808412 0.00013388824 -0.0058108959
0.014086184 0.00017673278 -0.0057947757
0.014086182 0.00017673313 -0.0062944768
0.013808412 0.00013388858 -0.0052467166
0.016666247 0.00016066634 -0.0067780595
0.01637245 0.00013388926 -0.0062944777
0.0012018926 0.00016066706 -0.0041989549
0.001201893 0.00016066644 -0.0037153736
0.0015223973 0.00016066688 -0.0041989554
-0.0016826494 0.0011246663 -0.0022646273
-0.0015223977 -0.00016066694 -0.0046825381
-0.001201893 -0.00016066675 -0.0037153736
-0.001201892 -0.00016066663 -0.0032317908
-0.0015223968 -0.0001606665 -0.0032317918
-0.0012018931 0.00016066727 -0.0067780605
-0.0015223975 0.00016066647 -0.0062944777
-0.0015223969 0.00016066672 -0.0067780605
-0.0015223976 0.00016066701 -0.0046825376
-0.0012018922 0.0001606671 -0.0058108945
0.0090542585 -0.0001606662 -0.0052467166
0.0090542594 -0.00016066658 -0.005810895
0.0090542585 0.00016066655 -0.0052467161
0.0088138813 -0.0001606665 -0.0052467166
0.0090542585 -0.00016066659 -0.0067780595
0.011329843 0.00014460024 -0.0062944759
0.0090542585 -0.00016066711 -0.0062944777
0.008795389 0.00015448712 -0.0067780614
0.0088138804 -0.00016066637 -0.0062944768
0.0090542585 -0.00019509568 -0.0032087634
0.0066504725 -8.0332953e-05 -0.0046825381
0.014062145 -0.00016066627 -0.0041989554
0.0082529979 -0.00072300067 -0.0022646259
0.011329843 -0.00014460036 -0.0046825372
0.011778549 -0.0011246667 -0.0017810446
-0.013808412 0.0001338884 -0.0072616413
-0.0096952673 -0.0011246661 -0.0008138807
-0.0082529979 -0.0011246663 -0.00024970202
-0.0082529988 -0.00075513346 -0.00028193975
-0.0077722375 -0.00075513305 -0.00028193987
-0.014743219 0.00075870415 -0.00031238841
-0.013220817 -0.00075513287 -0.0002819408
-0.016372448 -0.00013388939 -0.0052467175
-0.016666247 -0.00016066726 -0.005810895
-0.016372448 -0.00013388865 -0.0046825372
-0.01637245 -0.00013388906 -0.0062944777
-0.016666247 0.00016066704 -0.0058108964
-0.023316717 -0.0011246661 -0.0012974634
-0.0037659314 0.0011246662 -0.0022646268
-0.0082529979 0.0011246667 -0.0022646266
-0.0096952682 0.001124667 -0.0022646266
-0.0063131 -0.00015643914 -0.0072701247
-0.0063299686 -8.0333433e-05 -0.0080676125
-0.0066504735 -0.00016066649 -0.005246717
-0.0068107257 -0.0011246669 -0.0022646268
-0.0066504739 -0.00016066653 -0.0062944768
-0.0066504735 -0.00016066604 -0.0058108959
-0.006650473 8.0333353e-05 -0.0062944777
-0.006650473 8.0333943e-05 -0.0067780586
-0.0063299686 0.00016066679 -0.0067780605
-0.0052082017 0.00024100071 -0.0022646263
0.0063299686 -0.00016066681 -0.0052467175
0.0037659304 -0.00016066634 -0.005246717
0.0040864353 -0.00016066727 -0.0052467166
0.00376593 0.00016066614 -0.0062944759
0.0040864353 -0.00016066601 -0.0058108959
0.0063299686 -0.00016066656 -0.005810895
-0.0040864358 8.033272e-05 -0.0041989554
-0.0063299681 0.00016066605 -0.0046825381
-0.006329969 -0.00016066639 -0.005810895
-0.0063299681 0.00016066684 -0.0062944749
-0.0037659309 0.0001606673 -0.0062944777
0.0077722375 0.00075513346 -0.00028193963
0.0072914814 -0.00072300062 -0.002264627
0.0077722399 -0.00024099961 -0.0022646259
0.0077722389 -0.0011246669 -0.0002497019
0.0077722394 -0.00075513293 -0.00028194021
0.0072914809 -0.00075513282 -0.00028193998
0.008252997 -0.0011246669 -0.0017810452
0.008252997 -0.00075513293 -0.00028194068
-0.019230282 -0.00016066655 -0.005810895
-0.018909778 -0.00016066646 -0.005246717
0.0028044151 0.00072300015 -0.0022646268
0.0022435333 0.0011246665 -0.0022646268
0.0028044158 0.0011246669 -0.0017810445
0.0012018922 -0.00016066634 -0.0046825372
-0.02163407 -0.00016066713 0.00079805916
-0.02139369 -0.00014460036 0.0017329848
-0.012740063 -0.0011246658 -0.0017810448
-0.010256152 0.00072300003 -0.0022646268
-0.0090542585 0.00016066694 -0.0032317904
-0.010256153 0.00024099981 -0.0022646266
-0.011297792 0.0011246669 -0.00081388082
-0.011778547 0.0011246667 -0.00024970109
-0.012259305 0.0007230005 -0.0022646263
-0.01322082 0.0011246669 -0.0012974626
-0.013220822 0.001124666 -0.0017810451
-0.011618297 0.0001606662 -0.0041989549
-0.011618297 0.00016066618 -0.0037153731
-0.0090542594 0.00016066604 -0.0037153731
-0.011778548 0.0011246663 -0.001297463
-0.012259305 -0.0011246664 -0.00024970109
-0.012259305 -0.00075513322 -0.00028193998
-0.011618297 0.0001606671 0.00079806033
-0.012740063 -0.00020886642 -0.00028194068
0.016586119 0.00056233304 -0.0025870157
0.014102207 -0.00016066599 0.00079805939
-0.021714196 -0.0011246671 -0.00081388105
0.017707884 -0.001124667 -0.001297463
