# .PCD v0.7 - Point Cloud Data file format
VERSION 0.7
FIELDS x y z
SIZE 4 4 4
TYPE F F F
COUNT 1 1 1
WIDTH 1245
HEIGHT 1
VIEWPOINT 0 0 0 1 0 0 0
POINTS 1245
DATA ascii
-0.0011495689 0.001205 -0.0018328574
-0.0021714079 0.001205 -0.00080428575
-0.0031932471 0.001205 -0.0013185714
-0.0021714079 0.001205 -0.0018328573
-0.0031932471 0.001205 -0.0018328574
0.011751149 0.0012050001 -0.00080428575
0.012645258 0.001205 -0.0018328574
0.012645259 0.001205 -0.00029
0.0047260057 0.001205 -0.0023471429
0.0052369251 0.001205 -0.0023471429
0.0021714079 0.001205 -0.0013185716
0.0026823275 0.001205 -0.0013185716
0.007408333 0.00013388885 0.0007385714
0.0037041667 0.001205 -0.00080428575
0.0031932471 0.001205 -0.0018328573
0.0037041665 0.001205 -0.0013185714
0.0021714079 0.001205 -0.0023471429
0.0016604885 0.0012049999 -0.0023471429
0.00012772989 0.00013388885 -0.0036328572
0.01085704 0.001205 -0.00029
0.012645258 0.00013388893 0.0012528573
0.0088133616 0.0012050001 -0.0013185714
0.0016604885 0.00080333324 -0.00029000011
0.0083024427 0.00080333324 -0.00029
0.0077489465 0.00022314819 -0.0032471428
0.01085704 -0.001205 -0.0018328573
0.0099629303 0.00013388883 -0.0032471432
0.038191237 -0.00013388885 0.0012528573
0.040362641 -0.00013388885 0.0007385714
0.038702153 -0.001205 -0.0018328573
0.038191237 -0.001205 -0.0018328573
0.037169397 -0.001205 -0.0018328573
0.033209771 -0.00013388891 0.0012528573
0.034359336 0.001205 -0.00029
0.035253447 0.00013388888 0.0007385714
0.035636637 0.00013388885 0.0012528573
0.035636637 -0.0001338889 0.0007385714
0.036658473 -0.001205 -0.00029
0.037169397 0.0008033333 -0.00029
0.036147557 0.00080333336 -0.00029
-0.03384842 0.00080333324 -0.00029
-0.01979813 0.001205 -0.00029
-0.02030905 0.001205 -0.00029
-0.0098352004 0.001205 -0.0013185714
-0.0093242815 0.001205 -0.0013185714
-0.0088133616 0.001205 -0.0013185714
-0.0083024427 0.001205 -0.0013185714
-0.0077915224 0.001205 -0.0013185716
-0.0077915224 0.001205 -0.00080428575
-0.013667097 0.001205 -0.00080428575
-0.013667097 0.0012049999 -0.00029
-0.01213434 0.001205 -0.00080428575
-0.01213434 0.0012049999 -0.00029
-0.0093242805 0.0008033333 -0.00029000011
-0.0093242815 0.001205 -0.00029
-0.0099629303 0.00013388883 0.0007385714
-0.0098352004 0.001205 -0.00080428587
-0.0093242815 0.001205 -0.00080428564
-0.0077915224 0.0012050001 -0.00028999988
-0.01085704 0.001205 -0.0013185715
-0.01085704 0.001205 -0.00080428587
-0.013667096 0.0002677778 -0.0023471429
-0.013667097 0.001205 -0.0018328573
-0.014178017 0.001205 -0.0013185715
-0.012645258 0.00013388887 -0.003632857
-0.01979813 0.0012049999 -0.0013185714
-0.02030905 0.0012049999 -0.0018328574
-0.01979813 0.0008033333 -0.0023471429
-0.022863647 -0.00013388893 -0.0046614287
-0.022863647 0.00013388893 -0.0041471431
-0.022863647 0.00013388894 -0.0046614287
-0.02030905 -0.00013388891 -0.00569
-0.03231566 0.001205 -0.00080428575
-0.037169397 0.001205 -0.0013185715
-0.037169397 0.0012049999 -0.0018328574
-0.030764652 0.00078420632 -0.0023287756
-0.030271981 0.001205 -0.0018328574
-0.030782901 0.001205 -0.0018328574
-0.029761061 0.0008033333 -0.0023471429
-0.030399712 -0.00013388894 -0.0036328572
-0.030271981 -0.001205 -0.0023471429
-0.030655172 -0.00013388885 -0.0041471431
-0.030399712 -0.00013388894 -0.0041471431
-0.030399712 0.00013388887 -0.0041471431
-0.039723992 0.0012049999 -0.00080428575
-0.037680313 0.001205 -0.00080428587
-0.039213073 -0.00022314815 -0.00033285713
-0.039213073 -0.001205 -0.0018328573
-0.039723992 -0.001205 -0.0018328573
-0.039213073 -0.001205 -0.0022185715
0.0077489465 -0.00013388883 -0.0071900003
0.0077489465 -0.00013388891 -0.0067614298
0.0099629303 -0.00013388893 -0.0067185722
0.0077915229 0.00013388883 -0.0072328579
-0.026695546 -0.0012050001 -0.0018328573
-0.026695546 -0.0012049999 -0.0023471429
-0.02463362 0.00082246028 -0.0023287756
-0.024140948 0.001205 -0.0023471429
-0.025290517 0.00013388887 -0.0036328572
0.0067696837 -0.0008033333 -0.0023471429
0.0048537357 -0.00013388893 -0.0076185716
0.0052369251 -0.001205 -0.00080428575
0.0047260057 -0.001205 -0.00029
0.0057478445 -0.001205 -0.0018328573
0.0072806031 -0.001205 -0.00029
0.0077915229 -0.001205 -0.00029
-0.0052369251 -0.00013388884 0.0007385714
-0.0062587648 -0.00022314808 -0.00033285713
-0.0062587643 -0.00080333324 -0.00029
-0.007408333 -0.00013388894 0.0007385714
-0.0048537357 0.00013388883 0.0012528573
-0.0048537357 -0.00013388893 0.0007385714
0.012645259 -0.0001338889 -0.0036328575
0.01021839 -0.00013388883 -0.003247143
-0.0048537357 0.00013388885 -0.0051757144
0.0037041665 -0.0012050001 -0.00029
0.0037041667 -0.001205 -0.0018328574
0.0048537357 -0.0001338889 -0.0046614287
0.0051943487 -0.00013388883 -0.0047042859
0.0048537357 0.00013388887 -0.0051757144
0.0051091951 -0.0001338889 -0.0062042866
0.0052369251 0.00013388887 -0.0062042866
0.0052369251 0.00013388887 -0.00569
-0.0048537357 -0.00013388883 0.0012528573
0.0022991379 -0.00013388891 -0.0072328579
0.0022991379 0.00013388884 -0.0067185722
0.0022991379 -0.00013388883 -0.0062042866
0.0022991379 0.00013388883 -0.0062042866
0.00012772993 -0.00013388893 -0.0072328569
0.00012772989 -0.0001338889 -0.0062042866
0.0016604885 -0.001205 -0.00080428575
0.0021714079 -0.001205 -0.00029
0.0021714079 -0.001205 -0.00080428575
0.012645258 -0.001205 -0.00080428575
0.014178017 -0.001205 -0.00029
0.014688935 -0.001205 -0.00029
0.042789508 -0.0012049999 -0.0018328574
0.043172698 -0.001205 -0.00080428575
-0.017243534 -0.0012050001 -0.00029
-0.017243534 -0.00080333324 -0.00029
-0.0052369251 -0.001205 -0.0018328574
-0.0057478449 -0.001205 -0.0023471429
-0.0022991379 -0.00013388888 -0.0072328579
-0.0026823275 -0.001205 -0.00029
-0.0021714079 -0.001205 -0.00029
-0.0022991379 0.00013388893 -0.00569
-0.0026823275 0.00013388894 -0.00569
-0.0022991379 0.0001338889 -0.0051757144
-0.0022991379 0.00013388894 -0.0062042866
-0.0022991379 -0.00013388894 -0.0062042866
-0.0026823275 -0.00013388888 -0.0062042866
-0.0026823275 -0.00013388887 -0.00569
-0.0022991379 -0.00013388884 -0.00569
-0.0026823275 -0.00013388887 -0.0051757144
0.0011495689 -0.00022314815 -0.00033285713
0.0022991379 0.00013388885 0.0007385714
0.0052369251 -0.00013388888 -0.003247143
0.0062587648 -0.0002677778 -0.0023471429
0.0048537357 -0.00013388884 -0.0036328572
0.0051943487 0.00022314816 -0.003247143
0.0093242815 -0.0012050001 -0.0013185715
0.0083024427 -0.001205 -0.00029
0.0083024427 -0.001205 -0.00080428575
0.0072806031 -0.001205 -0.00080428564
0.0077915229 -0.001205 -0.0013185714
0.0072806031 -0.001205 -0.0013185714
0.0099629303 -0.00013388894 0.0007385714
0.011367959 0.00022314812 -0.00033285713
0.011367959 -0.00022314813 -0.00033285725
-0.0062587643 0.0008033333 -0.00029
-0.018776294 0.001205 -0.0018328573
-0.037169397 0.001205 -0.0022185715
-0.0333375 0.001205 -0.0018328574
-0.035253447 0.001205 -0.0018328573
-0.035636637 0.001205 -0.00029
-0.035253447 0.001205 -0.00080428575
-0.034870259 0.001205 -0.0013185714
-0.031293821 0.001205 -0.00080428575
-0.030782903 0.001205 -0.0013185714
-0.0333375 0.0012049999 -0.0013185716
-0.03231566 0.0008033333 -0.00029000011
-0.025162788 0.001205 -0.0013185715
-0.016732614 0.00026777774 -0.0023471429
-0.017225286 0.00078420632 -0.0023287756
-0.022863649 -0.00013388884 -0.0072328569
-0.022863647 0.00013388893 -0.0067185722
-0.022863647 -0.00013388891 -0.0067185722
-0.020819969 0.001205 -0.00029
-0.021330889 0.001205 -0.00028999988
-0.021841809 0.001205 -0.00029000011
-0.022863647 0.00013388891 0.0007385714
-0.022352729 0.0012049999 -0.00029
-0.022863647 0.00013388888 0.0012528573
-0.022863647 0.001205 -0.00029
-0.022352729 0.001205 -0.00080428575
-0.021841809 0.0012050001 -0.0018328573
-0.021841809 0.001205 -0.0023471429
-0.021841809 0.0008033333 -0.0023471429
-0.024651866 0.001205 -0.0018328573
-0.024140947 0.001205 -0.0018328573
-0.0072806031 0.001205 -0.00080428575
-0.0088133626 0.00022314809 -0.00033285713
-0.0062587643 0.0008033333 -0.0023471429
0.011751149 -0.001205 -0.00029
0.01034612 -0.0012049999 -0.00028999988
0.013667097 -0.001205 -0.00029000011
0.011367959 -0.00080333342 -0.00029000011
0.01085704 -0.0008033333 -0.00029
0.018776294 -0.001205 -0.00080428575
0.02030905 -0.001205 -0.00080428575
0.017243534 -0.00080333324 -0.0023471429
0.017754454 -0.00013388887 -0.003247143
0.016732614 -0.0002677778 -0.0022185715
0.016221695 -0.001205 -0.0013185714
0.015710775 -0.001205 -0.0013185715
0.017243534 -0.001205 -0.00080428575
0.016732614 -0.001205 -0.00080428575
0.016732614 -0.001205 -0.00029
0.0076637929 -0.00013388891 -0.0036328572
0.007408333 -0.00013388893 -0.0041471431
0.0099629303 0.00013388885 -0.0067185722
0.015199856 -0.001205 -0.0018328573
0.015199857 0.00013388888 -0.0067185722
0.015199857 -0.00013388893 -0.0067185722
0.017754454 -0.00013388883 -0.0072328579
0.017754454 0.00013388891 -0.0067185722
0.017754454 -0.00013388891 -0.0067185722
0.017754454 0.00013388885 -0.0077471435
0.017754454 -0.00013388894 -0.0077471435
0.01021839 -0.0001338889 -0.0062042866
0.0083024427 -0.0012050001 -0.0018328573
0.0099629303 -0.00013388888 -0.0036328572
0.01021839 -0.00013388894 -0.0046614287
0.015199857 -0.00013388891 -0.0046614287
0.015199857 -0.00013388887 -0.0051757144
0.015199857 0.00013388884 -0.0051757144
0.007408333 -0.00013388887 -0.0076185716
0.017754454 -0.00013388883 -0.0062042857
0.014688936 -0.00026777782 -0.0023471429
0.027845114 0.00013388885 -0.0072328579
0.028100574 0.00013388884 -0.0076185716
0.030399712 0.00013388894 -0.0072328579
0.030271981 -0.00013388891 -0.0062042866
0.030314559 -0.00013388894 -0.0057328572
0.030655172 -0.00013388888 -0.0062042866
0.027845114 -0.00013388894 -0.0067185722
0.027845114 0.00013388884 -0.0062042866
0.025290517 -0.00013388894 -0.0072328579
0.036658473 0.001205 -0.0018328573
0.036658473 0.001205 -0.0022185715
0.035636637 0.001205 -0.0013185714
0.0333375 0.001205 -0.0018328573
0.0333375 0.001205 -0.0023471429
0.038191237 0.0012050001 -0.0013185715
0.034359336 0.001205 -0.0013185715
0.032869156 0.001205 -0.0023042858
0.015199857 0.00013388885 -0.0036328572
0.015199857 0.00013388894 -0.0041471431
0.015199856 -0.00013388887 -0.0041471431
0.033209771 0.00013388885 -0.003632857
0.03384842 0.001205 -0.0023471429
0.03384842 0.00080333336 -0.0023471429
0.027845114 0.0001338889 -0.00569
0.024140947 0.001205 -0.00029
0.025290517 0.00013388893 0.0012528573
0.025290517 -0.00013388883 0.0017671429
0.025290517 0.00013388893 0.0017671429
0.029250141 0.001205 -0.00029
0.024651866 0.001205 -0.0013185714
0.030314557 0.00013388893 -0.0041900002
0.030271981 0.001205 -0.0022185715
0.011349712 0.00082246022 -0.0023287756
0.010899615 0.0008033333 -0.0023042858
0.01085704 0.001205 -0.0018328573
0.01034612 0.001205 -0.0018328574
0.010814463 0.0012049999 -0.0023042858
0.011751149 0.001205 -0.0018328574
0.012645259 0.001205 -0.0022185715
0.013709675 0.001205 -0.0023042858
0.015199857 0.00013388893 -0.0046614287
-0.0031932471 0.0008033333 -0.0023471429
-0.0022991379 0.00013388887 -0.0041471431
-0.0026823275 -0.00013388881 -0.0036328572
-0.015710775 -0.00080333324 -0.00029
-0.027206466 0.00080333324 -0.00029
-0.028228303 0.001205 -0.0018328573
-0.026184626 0.001205 -0.0018328573
-0.025545977 0.00013388894 0.0007385714
-0.025162786 0.0012049999 -0.00080428575
-0.024651866 0.001205 -0.00080428575
-0.025545977 0.00013388887 0.0012528573
-0.03231566 0.00080333324 -0.0023471429
-0.033209771 0.0001338889 -0.003247143
-0.033209771 -0.00013388888 -0.00569
-0.029250143 0.00080333324 -0.00029
-0.029250139 -0.00022314812 -0.00033285725
-0.029250143 0.00022314812 -0.00033285713
-0.030782903 -0.001205 -0.0013185714
-0.030271983 -0.001205 -0.0018328573
-0.029761061 -0.001205 -0.0013185715
-0.03180474 -0.00080333336 -0.0023471429
-0.032954309 -0.00013388883 -0.0036328572
-0.030399712 0.00013388888 -0.0062042866
-0.030655172 0.00013388884 -0.0062042866
-0.030655172 0.00013388884 -0.00569
-0.030655172 0.00013388891 -0.0067185722
-0.012134339 -0.00080333324 -0.0023471429
-0.012134339 -0.001205 -0.0023471429
-0.011751149 -0.001205 -0.0023471429
-0.012627011 -0.00078420638 -0.0023287756
-0.012687835 -0.00022314819 -0.0028614288
-0.013174425 -0.00078420626 -0.0023287756
-0.02030905 -0.00013388885 -0.0041471431
-0.025290517 0.00013388883 -0.0062042866
-0.025290517 -0.00013388896 -0.00569
-0.025545977 0.00013388888 -0.0077471435
-0.021841809 0.00026777777 -0.0023471429
-0.021841811 -0.00026777774 -0.0023471429
-0.021330889 -0.00026777777 -0.0023471429
-0.022352729 0.00080333336 -0.0023471429
-0.017754454 -0.00013388896 -0.0062042866
-0.017754454 0.00013388891 -0.0062042866
-0.017754454 0.00013388884 -0.0067185722
-0.025545977 0.00013388885 -0.0067185722
-0.025545977 -0.00013388888 -0.0062042866
-0.025545977 -0.00013388893 -0.0067185722
-0.017754454 -0.0001338889 -0.0032471428
-0.024122702 0.00078420638 -0.0023287756
-0.025545977 -0.00013388884 -0.0051757144
-0.027845114 -0.00013388893 -0.0051757144
-0.030399712 -0.00013388888 -0.0067185722
-0.030655172 -0.00013388894 -0.0062042866
-0.030399712 -0.0001338889 -0.0062042866
-0.03282658 -0.00013388883 -0.0062042857
-0.028100574 0.00013388884 -0.003632857
-0.028100574 -0.00013388883 -0.0036328572
-0.02926839 -0.0002869048 -0.0023287756
-0.028739223 -0.0008033333 -0.0023471429
-0.028720977 0.00082246028 -0.0023287756
-0.027188217 0.00082246022 -0.0023287756
-0.027845114 -0.00013388891 -0.0041471431
-0.030399712 0.00013388891 -0.0046614287
-0.030655172 0.00013388894 -0.0051757144
-0.030399712 0.00013388891 -0.0051757144
-0.030399712 -0.00013388891 -0.0051757144
-0.028100574 -0.00013388883 -0.0046614287
-0.030655172 -0.00013388888 -0.00569
-0.030655172 -0.00013388887 -0.0051757144
-0.030655172 -0.00013388893 -0.0046614287
-0.030399712 -0.0001338889 -0.00569
-0.028100574 -0.00013388888 -0.0051757144
-0.028100574 -0.00013388883 -0.00569
-0.007408333 -0.00013388896 -0.0076185716
-0.0076637929 0.00013388887 -0.0077471435
-0.007408333 0.00013388891 -0.0076185716
-0.0077489461 -0.00013388894 -0.0077042859
-0.002639751 -0.00013388894 -0.0077042859
-0.0052369251 -0.001205 -0.0023471429
0.0011495689 -0.001205 -0.0013185715
-0.0021714079 -0.0012050001 -0.0013185714
-0.007408333 0.00013388888 -0.0046614287
0.0021714082 -0.0012050001 -0.0023471429
0.0026823275 -0.001205 -0.0018328574
-0.0076637929 0.00013388883 -0.0072328579
-0.0076637929 0.00013388884 -0.0067185722
-0.01021839 0.00013388884 -0.0067185722
-0.0099629303 0.00013388883 -0.0067185722
-0.01021839 -0.00013388885 -0.0067185722
0.0052369251 0.00013388893 -0.0046614287
0.007408333 -0.00013388893 -0.0046614287
0.007408333 0.00013388891 -0.0051757144
0.007408333 -0.00013388881 -0.0051757144
0.041767672 -0.00022314816 -0.00033285713
0.041256752 -0.00080333336 -0.00029
-0.038191237 0.00013388891 -0.0051757144
-0.035636637 0.00013388885 -0.0062042866
-0.035636637 0.00013388888 -0.0067185722
-0.035636637 -0.00013388884 -0.0062042866
-0.035636637 -0.00013388884 -0.00569
-0.035636637 0.00013388888 -0.00569
-0.035253447 0.00013388887 -0.0062042866
-0.035253447 0.00013388891 -0.00569
-0.039213073 -0.00026777771 -0.0022185715
-0.039698444 -0.00077655562 -0.0022700001
-0.039213073 -0.00080333342 -0.0022185715
-0.039238621 0.00029455553 -0.0022700001
-0.038659576 -0.0002677778 -0.0023042858
-0.039255649 0.00080333336 -0.0023042858
0.042789508 0.001205 -0.0018328574
0.042278588 0.0008033333 -0.0022185715
0.039723992 -0.001205 -0.00080428575
0.040234912 -0.001205 -0.00080428575
0.039723992 -0.001205 -0.0013185714
0.038702153 0.001205 -0.00029
0.039213073 0.001205 -0.0013185715
0.036658477 -0.00080333336 -0.00029
0.040745832 -0.001205 -0.00080428575
-0.026695544 0.00022314812 -0.00033285713
-0.03180474 -0.0008033333 -0.00029000011
-0.031293817 -0.00080333336 -0.00029000011
-0.031293821 -0.001205 -0.00029
-0.01021839 -0.00013388887 -0.0032471432
-0.01021839 0.0001338889 -0.0036328572
-0.0077915224 -0.00013388888 -0.0072328569
-0.0076637929 0.00013388881 -0.0062042866
-0.007408333 -0.00013388893 -0.0062042866
-0.015199856 0.00013388883 -0.0067185722
-0.015199856 -0.00013388883 -0.0067185722
-0.0076637929 0.00013388887 -0.0046614287
-0.007408333 0.00013388891 -0.0041471431
-0.012645258 -0.00013388887 -0.0051757144
-0.012645259 0.00013388891 -0.0051757144
-0.012645259 0.00013388894 -0.00569
-0.0093425289 -0.0002869048 -0.0023287756
-0.0088133616 -0.00026777771 -0.0022185715
0.042278592 -0.00026777771 -0.0022185715
0.041767672 -0.00080333336 -0.0022185715
0.041767672 -0.0002677778 -0.0022185715
0.04291724 0.00013388884 -0.0028614285
0.042278592 0.0002677778 -0.0022185715
0.043300431 -0.00013388885 -0.0036328572
0.043300427 0.00013388891 -0.003247143
0.040703256 0.00022314819 -0.003247143
0.032954309 0.0001338889 -0.00569
0.032954309 0.00013388883 -0.0062042866
0.033209771 0.00013388891 -0.0062042866
0.032954309 -0.00013388885 -0.00569
0.032954309 0.00013388885 -0.0041471431
0.032954309 0.00013388883 -0.0036328575
0.03231566 0.001205 -0.0022185715
0.03180474 0.0008033333 -0.0022185715
0.03180474 0.001205 -0.0022185715
0.028100574 -0.00013388891 -0.0067185722
0.040745832 -0.00013388894 -0.0046614287
0.040745832 -0.00013388881 -0.003632857
0.040745832 -0.0012050001 -0.0022185715
0.040362641 -0.0001338889 -0.0036328572
0.040703256 -0.00022314815 -0.003247143
0.040234912 -0.0012049999 -0.0022185715
0.041256752 -0.001205 -0.0022185715
0.041767672 -0.001205 -0.0022185715
0.038063504 0.00013388891 -0.0036328572
0.039213073 0.00026777777 -0.0022185715
0.036658473 0.0008033333 -0.0022185715
0.037680313 -0.001205 -0.00080428575
0.037169397 -0.001205 -0.0013185716
0.038191237 0.0012049999 -0.0022185715
0.032954309 -0.0001338889 -0.0046614287
0.035636637 -0.00013388883 -0.0041471431
0.038063504 0.00013388887 -0.0041471431
0.034870259 0.001205 -0.0018328573
0.038191237 -0.00013388885 -0.0072328579
0.03814866 0.00013388884 -0.0077042859
0.03814866 -0.00013388894 -0.0077042859
0.028739223 0.001205 -0.0018328573
0.028739223 0.0012050001 -0.0023471429
0.029250141 0.001205 -0.0023471429
0.029250141 0.001205 -0.0018328574
0.0083024427 0.001205 -0.0018328574
0.0099629303 0.00013388894 -0.0041471431
0.0077915229 0.00013388891 -0.0051757144
0.0077915229 0.00013388887 -0.00569
0.0047260057 0.001205 -0.00029
0.0048537357 0.00013388891 0.0017671429
0.017243534 -0.001205 -0.00029
0.017243534 -0.00080333324 -0.00029
0.016732614 -0.00080333324 -0.00029
0.016221697 -0.0008033333 -0.00029
0.016221695 -0.001205 -0.00029
0.018776294 -0.001205 -0.00029
0.018776294 -0.00080333324 -0.00029
0.018265374 -0.00080333324 -0.00029
0.017243534 0.0012049999 -0.00028999988
0.016732614 0.001205 -0.00028999988
0.017243534 0.001205 -0.00080428575
0.017243534 0.00080333336 -0.00029
0.018776294 0.001205 -0.00029
0.013667096 0.00022314818 -0.00033285713
0.013667096 -0.00022314815 -0.00033285713
0.014688935 0.0012050001 -0.00029
0.015199856 0.001205 -0.00080428575
0.014688935 0.0012050001 -0.00080428575
0.016221697 -0.00022314819 -0.00033285713
0.016221695 0.0008033333 -0.00028999988
0.029761061 -0.0008033333 -0.00029
0.028100574 -0.0001338889 0.0012528573
0.026695546 0.0012050001 -0.00029
0.026695546 0.0008033333 -0.00029
0.026184628 0.00080333324 -0.00029
0.025545977 0.00013388894 0.0007385714
0.027845114 -0.00013388883 0.0017671429
0.025162786 0.001205 -0.0013185715
0.025162786 0.001205 -0.0018328573
0.024651866 0.001205 -0.0018328573
0.025673706 0.001205 -0.0018328573
0.04291724 0.00013388885 -0.0067185722
0.043300427 -0.0001338889 -0.0051757144
0.043300431 -0.00013388891 -0.00569
0.04291724 -0.00013388887 -0.00569
0.043300431 0.00013388887 -0.00569
0.040745832 -0.0001338889 -0.0072328569
0.040362641 -0.0001338889 -0.0076185716
0.035253447 0.00080333342 -0.0023471429
0.035636637 0.00013388883 -0.00569
-0.037169397 -0.00026777777 -0.0023471429
-0.040362641 0.00013388884 -0.003247143
-0.038191237 0.00013388894 -0.0062042866
-0.035636637 -0.00013388883 -0.0067185722
-0.035253447 -0.00013388891 -0.0072328579
-0.035636637 -0.00013388884 -0.0072328569
-0.035636637 0.0001338889 -0.0072328569
-0.035636637 0.0012049999 -0.0022185715
-0.040277489 -0.001205 -0.0023042858
-0.040745832 -0.001205 -0.0018328574
-0.03868391 -0.00078420638 -0.0023287756
-0.039766569 -0.001205 -0.0023042858
-0.040362641 -0.00013388883 -0.0036328572
-0.035253447 -0.00013388894 -0.00569
-0.035636637 -0.00013388887 -0.0051757144
-0.035636637 0.00013388888 -0.0041471431
-0.035636637 0.00013388888 -0.0046614287
-0.035636637 -0.0001338889 -0.0036328572
-0.036147557 -0.001205 -0.0013185714
-0.034359336 -0.001205 -0.0013185714
-0.028739223 -0.001205 -0.00080428575
-0.027206466 -0.0012050001 -0.00029
-0.027717385 -0.001205 -0.00029
-0.027717385 -0.001205 -0.00080428575
-0.028228305 -0.001205 -0.00080428575
-0.028228303 -0.0012049999 -0.00029
-0.027845114 -0.00013388885 0.0012528573
-0.027845114 0.00013388894 0.0017671429
-0.028100574 -0.00013388885 0.0017671429
-0.027845114 -0.00013388887 0.0017671429
-0.028100574 0.00013388893 0.0017671429
-0.035253447 -0.001205 -0.00029
-0.037169397 -0.001205 -0.00029
-0.037680313 -0.001205 -0.00080428575
-0.035253447 -0.00013388891 0.0007385714
-0.0333375 -0.001205 -0.00080428575
-0.032869156 -0.00013388894 0.00069571426
-0.033209771 -0.00013388894 0.0007385714
-0.038702153 -0.001205 -0.0018328573
-0.037680313 -0.001205 -0.0013185714
-0.017754454 0.00013388891 0.0007385714
-0.017243532 0.0008033333 -0.00029
-0.018776292 -0.00022314812 -0.00033285702
-0.018776294 0.0002231481 -0.00033285713
-0.02030905 -0.00013388887 0.0012528573
-0.02030905 -0.00013388891 0.0017671429
-0.02030905 0.00013388883 0.0012528573
-0.015199856 0.00013388893 -0.0036328572
-0.014688935 0.001205 -0.0023471429
-0.015199857 0.001205 -0.0023471429
-0.015199856 0.00013388885 -0.003247143
-0.015710775 0.0012050001 -0.0023471429
-0.011367959 0.00022314819 -0.00033285713
-0.012645258 0.00013388887 0.0017671429
-0.012772989 0.00013388894 0.0021528571
-0.011751149 0.001205 -0.00029
-0.012134339 0.0008033333 -0.00029000011
-0.01021839 0.00013388888 0.0012528573
-0.0098352004 0.0012050001 -0.00029
-0.01034612 0.001205 -0.00029
-0.00063864945 -0.0008033333 -0.0023471429
-0.036658473 0.001205 -0.0013185716
-0.038063504 -0.00013388893 0.0012528573
-0.038063504 -0.00013388883 0.0007385714
-0.037169397 -0.0002231481 -0.00033285713
-0.037680313 -0.001205 -0.00029
-0.036658477 -0.00022314819 -0.00033285713
-0.036658473 0.00080333324 -0.00029
0.030399712 0.00013388891 0.0012528573
0.032954309 0.00013388891 0.0012528573
0.033209771 -0.00013388893 0.0007385714
0.030271981 0.001205 -0.00080428575
0.030782901 0.001205 -0.0013185714
0.030655172 -0.00013388894 0.0012528573
0.029250141 -0.001205 -0.0022185715
0.028739223 -0.0012049999 -0.0018328574
0.0287818 -0.001205 -0.0023042858
0.029250141 -0.001205 -0.0018328574
0.030399712 -0.00013388893 0.0007385714
0.030271981 -0.001205 -0.00029
0.029250143 -0.00022314813 -0.00033285713
0.029250141 0.001205 -0.00080428575
0.029761061 0.001205 -0.00080428575
0.028228305 -0.001205 -0.0022185715
0.028739223 -0.001205 -0.00080428575
0.022863647 -0.00013388894 -0.0036328572
0.022863649 0.00013388883 -0.0036328572
0.022863649 -0.00013388888 -0.0041471431
0.022863647 0.00013388887 -0.0041471431
0.01415247 -0.00083011109 -0.0022700001
0.0011495689 0.001205 -0.0018328574
0.0016604887 0.001205 -0.00080428575
-0.0011495689 0.001205 -0.0013185715
-0.0016604885 0.001205 -0.0018328573
0.025673706 0.0012049999 -0.00080428575
0.025673706 0.001205 -0.00029
0.012134339 0.001205 -0.00080428575
0.0052369251 0.001205 -0.0018328573
0.0042150863 0.001205 -0.0023471429
0.0077915229 0.001205 -0.0018328574
0.0057478445 0.001205 -0.00080428575
0.0057478445 0.001205 -0.00029
0.0072806031 0.001205 -0.00080428575
0.0042150859 0.001205 -0.00029
0.0062587638 0.00022314809 -0.00033285713
0.0031932471 0.001205 -0.00080428575
0.0016604884 0.00080333336 -0.0023471429
0.0011495688 -0.00026777774 -0.0023471429
0.01213434 0.001205 -0.00029
0.0093242815 0.001205 -0.0018328574
0.0093242815 0.001205 -0.0013185714
0.0098352004 0.001205 -0.0013185714
0.0088133616 0.001205 -0.0018328574
0.011386206 -0.00078420638 -0.0023287756
0.01136796 -0.001205 -0.0018328573
0.011751149 0.00031240747 -0.0023042858
0.011367959 0.00026777777 -0.0022185715
0.0093242815 0.0008033333 -0.0023471429
0.039213073 -0.00080333336 -0.00029
0.039213073 -0.00022314818 -0.00033285713
0.040362641 0.00013388887 0.00086714281
0.037680313 -0.0012049999 -0.0018328573
0.037680313 -0.001205 -0.0023471429
0.037169397 -0.001205 -0.0022185715
0.039213073 -0.0012049999 -0.0013185716
0.038191237 -0.0012049999 -0.0013185714
0.038702153 -0.001205 -0.0013185715
0.034359336 0.00022314818 -0.00033285713
0.034359336 0.00080333324 -0.00029000011
0.037169397 0.00022314812 -0.00033285713
0.037680317 0.00080333336 -0.00029
0.034870259 -0.00080333336 -0.00028999988
0.034870256 -0.001205 -0.00080428575
-0.028100574 0.00013388883 0.0007385714
-0.015199857 0.001205 -0.0018328574
-0.014178017 0.0008033333 -0.0023471429
-0.014178018 0.00026777771 -0.0023471429
-0.02030905 0.00013388883 0.0017671429
-0.017754454 -0.00013388888 0.0017671429
-0.017797031 0.00013388891 0.0017242855
-0.017882183 0.00013388891 0.0021528571
-0.017754454 -0.00013388884 0.0012528573
-0.0088133616 0.0008033333 -0.00028999988
-0.0077915224 -0.0001338889 0.0007385714
-0.0088133616 0.001205 -0.00080428575
-0.0067696837 0.001205 -0.00029
-0.0067696837 0.0008033333 -0.00029
-0.01034612 0.001205 -0.00080428575
-0.011751149 0.001205 -0.0018328574
-0.014178017 0.001205 -0.0018328573
-0.012645259 -0.00013388888 -0.0046614287
-0.012645258 0.00013388893 -0.0046614287
-0.018776294 0.00084796292 -0.0023042858
-0.019305458 0.00028690483 -0.0023287756
-0.018776294 0.00026777777 -0.0022185715
-0.020351626 0.001205 -0.0023042858
-0.022863647 -0.00013388883 -0.0051757144
-0.022863647 0.00013388885 -0.00569
-0.022863647 -0.00013388891 -0.00569
-0.025290517 -0.00013388894 -0.0051757144
-0.022863647 0.00013388891 -0.0062042857
-0.022863649 0.0001338889 -0.0051757144
-0.030782901 0.001205 -0.0022185715
-0.029761061 0.001205 -0.0018328574
-0.029803639 0.00026777774 -0.0023042858
-0.029250141 0.00026777774 -0.0022185715
-0.030399712 -0.0001338889 -0.0032471432
-0.029735515 -0.00083011109 -0.0022700001
-0.038191237 0.001205 -0.00080428575
-0.039213073 -0.001205 -0.0013185714
-0.038702153 -0.001205 -0.00080428587
-0.039213073 -0.001205 -0.00080428564
-0.041256752 -0.001205 -0.0018328573
-0.041767672 -0.001205 -0.0018328574
0.01021839 0.00013388888 -0.0051757144
0.01021839 0.00013388893 -0.00569
0.0077489465 -0.00013388893 -0.0051328572
0.0077489465 -0.00013388888 -0.0057328572
0.0077915229 0.00013388887 -0.0067185722
0.007408333 0.00013388893 -0.0062042866
0.0026823275 0.00013388887 -0.0067185722
0.0052369251 0.00013388893 -0.0072328579
-0.025162786 -0.001205 -0.0022185715
-0.025673706 -0.0012050001 -0.0018328573
-0.024651866 -0.001205 -0.0018328574
-0.026695546 -0.00080333324 -0.0023471429
-0.027845114 -0.00013388883 -0.0036328575
-0.027206466 -0.00080333336 -0.0023042858
-0.028228303 -0.001205 -0.0013185714
-0.028739223 -0.001205 -0.0013185714
-0.025290517 -0.00013388883 -0.003632857
0.0048537357 -0.00013388883 -0.0072328579
0.0026823275 -0.001205 -0.00080428564
0.0026823275 -0.001205 -0.0013185714
0.007408333 -0.00013388887 0.0012528573
0.0062587643 0.0008033333 -0.0023471429
0.0057478445 0.0008033333 -0.0023471429
-0.0057478445 -0.00080333324 -0.00029
-0.0062587648 0.0002231481 -0.00033285713
0.0077915229 0.00013388891 -0.0046614287
0.0031932471 -0.00080333336 -0.00029
0.0031932471 -0.001205 -0.00080428575
-0.0026823275 0.00013388883 -0.0051757144
-0.0026823275 0.00013388885 -0.0046614287
0.0047260057 -0.001205 -0.00080428575
0.0067696837 -0.001205 -0.00029
0.0067696837 -0.001205 -0.00080428575
0.0067696837 -0.00080333324 -0.00028999988
0.0051943487 -0.00013388884 -0.004104286
0.0052369251 -0.001205 -0.0018328573
0.0052369251 -0.001205 -0.0013185715
0.0048537357 -0.00013388893 -0.0062042866
0.007408333 0.00013388885 -0.00569
0.007408333 -0.00013388894 -0.0062042866
-0.0052369251 -0.00013388888 0.0012528573
-0.025290517 -0.00013388883 0.0012528573
8.5153311e-05 -0.0001338889 -0.0077042859
-0.00063864945 -0.001205 -0.0018328574
0.00012772987 -0.00013388884 -0.0036328575
0.0011495689 -0.001205 -0.0023471429
0.0016604884 -0.00080333324 -0.0023471429
0.0016604885 -0.001205 -0.00028999988
0.013156177 -0.001205 -0.0013185714
0.014688935 -0.0008033333 -0.00029
0.014688935 -0.001205 -0.00080428575
0.015710775 -0.00080333324 -0.00029
0.042789511 -0.001205 -0.0022185715
0.043172698 -0.001205 -0.0013185714
0.041256752 -0.001205 -0.00080428575
0.041256752 -0.001205 -0.0018328573
0.040745832 -0.001205 -0.0018328573
-0.014178018 -0.00080333324 -0.00029
-0.0067696837 -0.0012050001 -0.00080428575
-0.0077915224 -0.0012050001 -0.00080428575
-0.0067696837 -0.001205 -0.0023471429
-0.0098352004 -0.0012050001 -0.0018328574
-0.0093242815 -0.001205 -0.0023471429
-0.013156177 -0.001205 -0.0022185715
-0.0022991379 -0.00013388883 -0.0067185722
-0.0031932471 -0.0012049999 -0.00029
-0.0016604887 -0.001205 -0.00029
-0.0016604885 -0.001205 -0.00080428575
-0.0022991379 -0.00013388884 -0.0051757144
-0.0026823275 -0.00013388885 -0.0067185722
-0.0026823275 0.00013388884 -0.0062042857
-0.0037041667 -0.00026777777 -0.0023471429
0.0052369251 0.00013388893 -0.0036328572
0.0088133616 -0.001205 -0.0018328573
0.0093242815 -0.001205 -0.0018328573
0.0083024418 -0.00080333336 -0.00029
0.0077915229 -0.001205 -0.00080428564
0.01085704 -0.001205 -0.0013185714
0.0088133616 0.00022314821 -0.00033285713
-0.0051091951 0.00013388893 0.0007385714
-0.007408333 0.00013388888 0.0012528573
0.0062587648 -0.00022314815 -0.00033285713
-0.034359336 0.001205 -0.0013185714
-0.035636637 0.001205 -0.00080428575
-0.03180474 0.00080333324 -0.00029
-0.025673706 0.001205 -0.0013185715
-0.017754454 0.00013388893 -0.003247143
-0.025290517 -0.00013388893 -0.0067185722
-0.019287214 0.001205 -0.00080428575
-0.019287214 0.001205 -0.00028999988
-0.01979813 0.0008033333 -0.00029
-0.019287214 0.00080333324 -0.00029
-0.023630027 0.001205 -0.00080428575
-0.023630029 0.001205 -0.0013185714
-0.024140948 0.001205 -0.0013185715
-0.022352729 0.00080333342 -0.00029
-0.021841809 0.00080333324 -0.00029
-0.024651868 0.0008033333 -0.00029
-0.024140947 0.00080333324 -0.00029
-0.024140948 0.001205 -0.00029
-0.021841809 0.001205 -0.0013185714
-0.022352729 0.001205 -0.0013185714
-0.020819969 0.001205 -0.0013185715
-0.0067696837 0.001205 -0.0018328574
-0.0088133616 -0.00022314821 -0.00033285713
-0.0077915224 -0.00013388894 0.0012528573
-0.0076637929 0.00013388883 0.0012528573
0.012134339 -0.001205 -0.00080428575
0.0098352004 -0.001205 -0.00029
0.01085704 -0.001205 -0.00080428564
0.013156177 -0.001205 -0.00029
0.013156178 -0.00080333324 -0.00029
0.014178017 -0.0012050001 -0.00080428587
0.013667096 -0.00080333324 -0.00029
0.019287214 0.001205 -0.00029
0.019287214 0.00080333324 -0.00029
0.019287214 0.00022314813 -0.00033285725
0.018776294 0.00022314812 -0.00033285725
0.018265374 -0.001205 -0.0013185715
0.017754454 -0.001205 -0.0022185715
0.017243534 -0.001205 -0.0013185715
0.016732614 -0.00080333336 -0.0022185715
0.0099629303 0.00013388896 -0.0072328579
0.015199856 -0.00013388887 -0.0062042866
0.012645259 0.00013388891 -0.00569
0.012645259 -0.00013388891 -0.0062042857
0.012645259 -0.00013388887 -0.00569
0.017754454 0.00013388885 -0.0062042857
0.0057478445 -0.001205 -0.0013185715
0.0062587643 -0.001205 -0.0013185714
0.01021839 0.00013388894 -0.0046614287
0.017754454 -0.00013388888 -0.0051757144
0.017754454 -0.00013388883 -0.00569
0.017754454 0.00013388893 -0.0051757144
0.02030905 -0.00013388884 -0.0067185722
0.02030905 0.00013388888 -0.0072328569
0.02030905 -0.00013388888 -0.0072328569
0.02030905 0.00013388891 -0.0067185722
0.015199856 -0.0001338889 -0.003247143
0.015242434 -0.0008033333 -0.0023042858
0.011751149 -0.001205 -0.00080428575
0.028100574 -0.0001338889 -0.0072328579
0.030314557 0.00013388883 -0.0057328572
0.030271981 0.00013388883 -0.0062042857
0.028100574 0.00013388883 -0.0062042866
0.030655172 0.00013388884 -0.0067185722
0.030314557 0.00013388884 -0.0067614298
0.030655172 -0.00013388883 -0.0067185722
0.022863647 -0.00013388891 -0.0072328569
0.022863647 -0.00013388884 -0.0077471435
0.022863649 0.00013388894 -0.0077471435
0.022863649 0.00013388891 -0.0072328569
0.022863649 0.00013388885 -0.0067185722
0.02030905 -0.00013388893 -0.0077471435
0.022863649 -0.00013388881 -0.0062042857
0.022863649 0.0001338889 -0.0062042857
0.022863649 -0.00013388888 -0.00569
0.022863649 0.00013388893 -0.00569
0.036147557 0.001205 -0.0018328574
0.027717385 0.001205 -0.00029
0.027717385 0.001205 -0.00080428575
0.027206466 0.001205 -0.00028999988
0.031293821 0.001205 -0.0018328573
0.03231566 0.0012049999 -0.00080428587
0.03282658 0.001205 -0.00080428575
0.03231566 0.001205 -0.0013185716
0.03282658 0.001205 -0.0013185714
0.034870259 0.001205 -0.0013185716
0.022352729 0.001205 -0.0023471429
0.022863647 0.001205 -0.0023471429
0.019287212 0.0012050001 -0.0018328574
0.017754454 0.0012050001 -0.0018328574
0.018265374 0.0012050001 -0.0013185714
0.02030905 0.00013388893 -0.00569
0.02030905 -0.00013388891 -0.00569
0.02030905 -0.00013388893 -0.0062042866
0.021330889 0.001205 -0.0018328574
0.021841809 0.001205 -0.0018328573
0.021841809 0.0012050001 -0.00028999988
0.020862548 0.0012050001 -0.0023042858
0.02030905 0.001205 -0.0018328573
0.01979813 0.001205 -0.0023471429
0.019798132 0.001205 -0.0013185714
0.02030905 0.001205 -0.0013185715
0.016732614 0.00026777774 -0.0022185715
0.033209771 0.00013388894 -0.0072328579
0.032954309 0.00013388883 -0.0067185722
0.033209771 0.00013388883 -0.0067185722
0.032954309 -0.00013388883 -0.0067185722
0.03384842 0.001205 -0.0018328574
0.034359336 0.0008033333 -0.0022185715
0.034359336 0.00026777777 -0.0022185715
0.035253447 0.00013388885 -0.0028614285
0.033822872 0.00029455556 -0.0022700001
0.022863649 0.001205 -0.00029
0.025290517 -0.00013388881 0.0012528573
0.022863647 -0.00013388885 0.0007385714
0.021330891 -0.00080333336 -0.00029
0.021330887 -0.00022314818 -0.00033285713
0.021841809 -0.00022314813 -0.00033285713
0.021330891 0.00022314815 -0.00033285713
0.021841811 0.00022314812 -0.00033285713
0.021841809 0.00080333336 -0.00029
0.021330891 0.0008033333 -0.00028999988
0.024140948 0.001205 -0.00080428575
0.023630027 0.001205 -0.00080428575
0.023246838 0.001205 -0.00080428575
0.029761061 0.001205 -0.0022185715
0.029761061 0.001205 -0.0018328573
0.028100574 0.00013388894 -0.0041471431
0.027845114 0.0001338889 -0.0046614287
0.027845114 0.00013388883 -0.0041471431
0.030655172 -0.00013388893 -0.0041471431
0.022352729 0.001205 -0.00080428575
0.011751149 0.001205 -0.0013185714
0.01213434 0.001205 -0.0013185716
0.01213434 0.001205 -0.0018328574
0.012645258 0.00013388893 -0.0051757144
0.012645259 -0.00013388885 -0.0051757144
0.012645259 0.00013388885 -0.0062042857
-0.0022991379 0.00013388893 -0.0046614287
-0.0026823275 0.00013388894 -0.0041471431
-0.0022991379 -0.00013388883 -0.0046614287
-0.0026823275 -0.00013388894 -0.0046614287
-0.0042150859 -0.001205 -0.0018328573
-0.0037041665 -0.001205 -0.00080428575
-0.016221697 0.00080333324 -0.0023471429
-0.027717385 0.0012049999 -0.0018328574
-0.023246838 -0.0008033333 -0.0023471429
-0.023672603 -0.0012050001 -0.0023042858
-0.024140948 0.00022314812 -0.00033285713
-0.023630029 0.00022314815 -0.00033285713
-0.032954309 0.00013388888 -0.0041471431
-0.032954309 0.00013388888 -0.0051757144
-0.033209771 0.00013388887 -0.0051757144
-0.032358233 0.00026777774 -0.0023042858
-0.032954309 0.00013388887 -0.003247143
-0.032954309 -0.00013388893 -0.0041471431
-0.0333375 -0.001205 -0.0023471429
-0.029761061 0.00080333324 -0.00029
-0.029761061 -0.00080333336 -0.00029
-0.029761061 0.0012049999 -0.0013185715
-0.029250141 0.001205 -0.00080428575
-0.031293821 -0.0012049999 -0.0018328573
-0.029250141 -0.001205 -0.0013185715
-0.029761061 -0.0012049999 -0.0018328573
-0.031268276 0.00024099994 -0.0022700001
-0.030399712 0.00013388885 -0.00569
-0.02030905 0.00013388883 -0.0041471431
-0.022863647 -0.00013388891 -0.0041471431
-0.025545977 0.00013388884 -0.00569
-0.027845114 -0.00013388894 -0.0067185722
-0.025545977 -0.00013388888 -0.0072328579
-0.025545977 0.00013388893 -0.0072328579
-0.025545977 0.00013388888 -0.0062042866
-0.022863649 -0.00013388891 -0.003247143
-0.022352729 -0.001205 -0.0023471429
-0.022863649 -0.00080333336 -0.0023471429
-0.022863647 0.00013388888 -0.0036328572
-0.024140947 -0.001205 -0.0023471429
-0.022906223 -0.001205 -0.0023042858
-0.017797031 -0.00013388891 -0.0077042859
-0.017754454 0.00013388883 -0.0072328569
-0.017754454 0.00013388883 -0.0077471435
-0.017754454 -0.00013388884 -0.00569
-0.017754454 0.00013388881 -0.00569
-0.027717385 -0.0012049999 -0.0023471429
-0.027717385 -0.001205 -0.0018328573
-0.028100574 -0.00013388894 -0.0072328579
-0.019287214 0.001205 -0.0018328574
-0.023246838 0.001205 -0.0013185714
-0.023630027 0.001205 -0.0018328573
-0.027845114 -0.0001338889 -0.0046614287
-0.027845114 -0.00013388887 -0.00569
-0.030655172 -0.00013388891 -0.0067185722
-0.028100574 -0.00013388893 -0.003247143
-0.02926839 -0.00082246022 -0.0023287756
-0.028739223 0.001205 -0.0018328573
-0.028100574 0.00013388891 -0.003247143
-0.028100574 -0.00013388893 -0.0041471431
-0.030399712 -0.00013388894 -0.0046614287
-0.0052369251 -0.00013388894 -0.0051757144
0.00012772983 -0.001205 -0.00029
0.00063864945 -0.001205 -0.0018328573
0.00063864951 -0.001205 -0.0013185716
0.0016604885 -0.001205 -0.0018328574
0.0016604885 -0.0012049999 -0.0013185714
-0.0011495689 -0.001205 -0.0018328573
-0.0026823275 -0.001205 -0.0018328574
-0.0077915224 -0.001205 -0.0022185715
-0.0072806031 -0.001205 -0.0018328573
-0.0077915224 -0.00013388888 -0.003247143
-0.0077915224 -0.0001338889 -0.0036328572
-0.0088133616 -0.001205 -0.0023471429
-0.0072380267 0.001205 -0.0023042858
-0.0072806031 0.00080333324 -0.0023471429
-0.0083024427 -0.00080333336 -0.0022185715
-0.007408333 -0.0001338889 -0.003247143
-0.0002554598 -0.001205 -0.0023471429
-0.0002554598 -0.001205 -0.0018328573
-0.0037041665 -0.0012050001 -0.0013185714
-0.0042150859 -0.001205 -0.0013185714
0.0052369251 0.00013388894 -0.0041471431
0.0052369251 0.00013388893 -0.0051757144
0.042278588 -0.00080333324 -0.00029
-0.038702153 0.0008033333 -0.0022185715
0.042278592 0.001205 -0.0018328573
0.039213073 0.001205 -0.00029
0.038702153 0.001205 -0.0018328574
0.037169397 0.001205 -0.00080428575
0.040234912 -0.001205 -0.0013185715
0.039723992 -0.001205 -0.0018328574
0.039723992 -0.001205 -0.0022185715
-0.036147557 0.001205 -0.0018328573
-0.03231566 -0.00080333324 -0.00029
-0.031293821 -0.001205 -0.0013185715
-0.01021839 0.00026777774 -0.0028614288
-0.01021839 -0.00013388884 -0.0036328572
-0.01021839 0.00013388887 -0.0032471432
-0.0076637929 0.00013388888 -0.00569
-0.007408333 0.00013388887 -0.0062042866
-0.007408333 -0.00013388893 -0.00569
-0.0077915224 -0.0001338889 -0.00569
-0.015199857 0.00013388887 -0.0062042866
-0.0076637929 0.00013388883 -0.0041471431
-0.0077915224 -0.00013388887 -0.0041471431
-0.01021839 -0.00013388888 -0.0051757144
-0.01021839 -0.00013388893 -0.00569
-0.0099629303 -0.00013388885 -0.0051757144
-0.0077915224 -0.00013388893 -0.0051757144
-0.0099629303 -0.00013388894 -0.0041471431
-0.01021839 -0.00013388888 -0.0041471431
-0.015199857 -0.00013388893 -0.0062042866
-0.012645258 -0.00013388893 -0.0062042866
-0.012645259 0.00013388884 -0.0062042857
-0.01021839 -0.00013388884 -0.0062042866
-0.0099629303 -0.00013388888 -0.0062042866
-0.0099629303 -0.00013388884 -0.00569
-0.0077915224 -0.00013388888 -0.0067185722
0.040745832 0.00013388894 -0.0041471431
0.041767672 0.00026777777 -0.0022185715
0.030655172 0.00013388884 -0.003247143
0.030271981 -0.00013388891 -0.0067185722
0.028100574 -0.00013388885 -0.0062042866
0.040362641 -0.00013388885 -0.003247143
0.040209364 -0.00077655562 -0.0022700001
0.03974954 -0.00077655562 -0.0022700001
0.041256752 -0.00080333342 -0.0022185715
0.03868391 0.00078420626 -0.0023287756
0.038702156 0.001205 -0.0013185714
0.033209771 -0.0001338889 -0.0046614287
0.033209771 -0.00013388884 -0.0076185716
0.032954309 -0.00013388885 -0.0077471435
0.033209771 -0.00013388887 -0.0072328579
0.033209771 -0.00013388885 -0.0067185722
0.03384842 -0.001205 -0.0018328574
0.034359336 -0.001205 -0.0022185715
0.033805843 -0.001205 -0.0023042858
0.037680313 -0.0012049999 -0.0013185715
0.037143849 0.00029455559 -0.0022700001
0.032954309 -0.0001338889 -0.0051757144
0.032954309 -0.00013388891 -0.0041471431
0.032954309 -0.00013388884 -0.0036328572
0.03814866 -0.00013388885 -0.0041900002
0.033209771 -0.00013388894 -0.0062042866
0.039213073 -0.001205 -0.0022185715
0.012687835 0.00022314818 -0.003247143
0.014178018 0.00080333336 -0.0023042858
0.0093242815 0.001205 -0.00080428587
0.01034612 0.001205 -0.00080428575
0.0052369251 0.0001338889 0.0007385714
0.018776294 0.0002677778 -0.0023471429
0.01881887 -0.00026777782 -0.0023042858
0.017754454 -0.00013388887 -0.0036328572
0.019287214 -0.001205 -0.00080428575
0.019287214 -0.001205 -0.0013185716
0.017754454 0.0012049999 -0.00080428575
0.016221697 -0.001205 -0.00080428575
0.015199857 -0.001205 -0.00029
0.021330889 0.0012049999 -0.00029000011
0.020819969 0.0008033333 -0.00029
0.021330889 0.001205 -0.00080428575
0.021841811 0.001205 -0.00080428575
0.020819969 0.001205 -0.00029
0.01979813 0.00080333336 -0.00029
0.01979813 0.001205 -0.00029
0.02030905 0.001205 -0.00029
0.01979813 0.001205 -0.00080428575
0.018776294 0.001205 -0.00080428575
0.019287214 -0.0012049999 -0.00029
0.01979813 -0.0008033333 -0.00029000011
0.02030905 -0.00013388888 0.0017671429
0.02030905 -0.00013388887 0.001252857
0.02030905 0.00013388893 0.0017671429
0.018265374 -0.001205 -0.00080428575
0.013667097 0.001205 -0.00029
0.013667097 0.001205 -0.00080428575
0.013156177 0.001205 -0.0018328574
0.013156177 0.001205 -0.0013185716
0.016732614 -0.00022314809 -0.00033285713
0.016732614 0.00080333336 -0.00029
0.027845114 0.00013388893 0.0007385714
0.025545977 -0.00013388888 0.0017671429
0.026695546 -0.0008033333 -0.00029
0.027206466 -0.00080333336 -0.00029
0.026695546 -0.001205 -0.00029
0.026184624 0.001205 -0.00080428575
0.026184626 0.001205 -0.00029
0.024140947 0.001205 -0.0018328573
0.026184626 -0.00080333342 -0.0022185715
0.025545977 -0.00013388888 -0.003247143
0.026695546 -0.00080333336 -0.0022185715
0.026695546 -0.001205 -0.0022185715
0.026184626 -0.001205 -0.0022185715
0.025162786 0.001205 -0.0022185715
0.026184626 0.001205 -0.0018328574
0.026652969 0.0012050001 -0.0023042858
0.025673706 0.001205 -0.0013185714
0.036173102 0.00077655562 -0.0022700001
0.035594061 -0.001205 -0.0023042858
0.035253447 0.0001338889 -0.0067185722
0.035636637 0.00013388888 -0.0067185722
0.035253447 0.00013388884 -0.0063328575
0.035253447 -0.00013388885 -0.0067185722
0.035636637 0.00013388883 -0.0062042866
-0.037169397 0.0002677778 -0.0023471429
-0.040362641 0.00013388884 -0.0063328575
-0.038191233 0.00013388887 -0.0067185722
-0.038191233 -0.00013388894 -0.0067185722
-0.038063504 -0.00013388893 -0.003247143
-0.038209479 -0.00082246028 -0.0023287756
-0.040234912 -0.001205 -0.0018328574
-0.040362641 -0.00013388891 -0.00569
-0.036104981 -0.0012050001 -0.0023042858
-0.035636637 -0.001205 -0.0023471429
-0.035636637 -0.0012049999 -0.0018328573
-0.035636637 0.00013388885 -0.0051757144
-0.035253447 -0.00013388894 -0.0062042866
-0.034333792 0.00029455562 -0.0022700001
-0.036147557 -0.001205 -0.0018328573
-0.034870259 -0.001205 -0.0013185714
-0.034359336 0.00022314813 -0.00033285713
-0.027717385 -0.001205 -0.0013185716
-0.014178017 0.001205 -0.00080428575
-0.013667097 0.001205 -0.0013185714
-0.027845114 0.00013388891 0.0012528573
-0.027845114 -0.00013388883 0.0007385714
-0.038191237 -0.001205 -0.00029
-0.038191237 -0.001205 -0.00080428564
-0.035508908 -0.00013388884 0.0007385714
-0.034359336 -0.001205 -0.00029
-0.033209771 -0.00013388891 0.0012528573
-0.03384842 -0.001205 -0.00029000011
-0.033209771 0.00013388885 0.0007385714
-0.034359336 -0.0012049999 -0.00080428575
-0.038702153 -0.001205 -0.0013185714
-0.038191237 -0.001205 -0.0013185714
-0.037169397 -0.001205 -0.0013185714
-0.017754454 0.00013388893 0.0012528573
-0.02030905 -0.00013388885 0.0007385714
-0.022863647 -0.00013388894 0.0012528573
-0.013667097 -0.00080333324 -0.0023471429
-0.012645259 0.00013388888 0.0007385714
-0.013156177 0.0008033333 -0.00029000011
-0.011751149 0.00022314809 -0.00033285713
-0.01085704 0.001205 -0.00029
-0.037680313 -0.00080333336 -0.00029
-0.036147557 -0.0012049999 -0.00080428564
0.030271981 0.0012049999 -0.00029
0.03282658 0.001205 -0.00029
0.032954309 0.00013388891 0.0007385714
0.0333375 0.001205 -0.00029
0.033209771 0.00013388893 0.0012528573
0.031293821 0.00080333324 -0.00028999988
0.032869156 -0.00013388891 0.00078142853
0.03180474 -0.001205 -0.00029
0.03231566 -0.001205 -0.00029
0.030314557 -0.00013388894 0.0012099999
0.029250139 0.00022314813 -0.00033285713
0.028739223 0.0008033333 -0.00029
0.029250141 0.001205 -0.0013185714
0.028228303 -0.0012049999 -0.00080428575
0.029761061 -0.001205 -0.0013185715
0.029250141 -0.001205 -0.0013185714
0.027742932 -0.00077655562 -0.0022700001
0.027206466 -0.001205 -0.0022185715
0.027717385 -0.001205 -0.0022185715
0.025290517 0.00013388893 -0.0067185722
0.025545977 0.00013388887 -0.0067185722
0.025545977 0.00013388891 -0.0041471431
0.025545977 0.00013388883 -0.0046614287
0.025545977 -0.00013388894 -0.0046614287
0.022863647 0.00013388891 -0.0046614287
0.022863649 -0.00013388893 -0.0046614287
0.022863649 0.00013388894 0.0007385714
0.023630027 0.0008033333 -0.00029
0.023630029 0.00022314821 -0.00033285713
0.023246838 0.001205 -0.0018328574
0.014178018 -0.00022314819 -0.00033285713
0.0011495689 0.001205 -0.0023471429
0.027206466 0.0012049999 -0.00080428575
0.027206466 0.001205 -0.0013185715
0.028228305 0.001205 -0.0013185715
0.012645258 0.001205 -0.00080428575
0.0037041665 0.001205 -0.0023471429
0.0047260057 0.001205 -0.0018328573
0.0067696837 0.001205 -0.00080428575
0.0072806031 0.001205 -0.0018328574
0.0062587643 0.001205 -0.0023471429
0.0062587643 0.001205 -0.0018328573
0.0062587643 0.001205 -0.0013185715
0.0067696837 0.001205 -0.0018328573
0.0072806035 0.001205 -0.0013185715
0.0077915229 0.001205 -0.0013185714
0.0042150859 0.001205 -0.00080428575
0.0052369251 0.001205 -0.00029
0.0011495689 0.0008033333 -0.0023471429
0.01136796 0.001205 -0.0013185714
0.0098352004 0.001205 -0.0018328573
0.010814463 -0.00026777774 -0.0023042858
0.012645258 0.00013388893 -0.0036328572
0.013641551 0.00083011104 -0.0022700001
0.039723992 -0.0008033333 -0.00029
0.038702156 -0.00080333336 -0.00029
0.040362641 -0.00013388884 0.0012528573
0.039723992 0.00080333336 -0.00029
0.039213073 0.00022314819 -0.00033285713
0.035594061 -0.00013388887 -0.0077042859
0.033209771 0.00013388884 0.0007385714
0.034359336 -0.00022314813 -0.00033285725
0.03384842 0.00080333336 -0.00029
0.034359336 -0.001205 -0.0013185714
0.034359336 -0.001205 -0.00080428575
0.03384842 -0.0012050001 -0.00029
0.0333375 -0.0012049999 -0.00029000011
0.034870256 0.00080333324 -0.00029
-0.028100574 -0.00013388893 0.0007385714
-0.028100574 0.00013388885 0.0012528573
-0.015199857 0.001205 -0.0013185714
-0.015710775 0.001205 -0.00080428575
-0.015199856 0.0012049999 -0.00080428575
-0.016221695 0.001205 -0.0013185714
-0.016221697 0.001205 -0.00080428575
-0.017243534 0.001205 -0.0018328573
-0.018776294 0.001205 -0.00029
-0.018776294 0.001205 -0.00080428575
-0.016221695 0.001205 -0.00028999988
-0.015710775 0.001205 -0.0018328574
-0.015199857 0.001205 -0.00029
-0.014688935 0.00080333336 -0.00029
-0.017243534 0.001205 -0.0013185715
-0.0088133616 0.001205 -0.00029
-0.011751149 0.001205 -0.0013185715
-0.012645258 -0.00013388887 -0.0041471431
-0.012645259 0.00013388893 -0.0041471431
-0.021373466 0.00026777771 -0.0023042858
-0.02030905 0.00080333336 -0.0023471429
-0.020819969 0.001205 -0.0018328573
-0.034359336 -0.00026777771 -0.0022185715
-0.034870259 -0.001205 -0.0022185715
-0.0333375 -0.001205 -0.0013185714
-0.039723992 0.001205 -0.0013185714
-0.034870259 0.001205 -0.00080428575
-0.035253447 0.001205 -0.0013185714
-0.036658477 0.00022314819 -0.00033285713
-0.037169397 0.00022314809 -0.00033285725
-0.038702153 0.001205 -0.00080428575
