# .PCD v0.7 - Point Cloud Data file format
VERSION 0.7
FIELDS x y z
SIZE 4 4 4
TYPE F F F
COUNT 1 1 1
WIDTH 1190
HEIGHT 1
VIEWPOINT 0 0 0 1 0 0 0
POINTS 1190
DATA ascii
-0.016789485 -0.00079375011 -0.0021908106
-0.016242843 -0.00079375011 -0.0021908113
0.0051874481 -0.00022678571 -0.0076962165
0.0074186092 0.00015875 -0.0047075679
0.0077114506 0.00013890625 -0.005258109
0.0074186097 0.00015875 -0.005258109
0.0074186092 0.00013890625 -0.0076765539
0.0077114501 0.00013890625 -0.0072243228
0.0074186092 0.00015875 -0.0072243246
0.0074186092 0.00015875 -0.0067524323
0.0027331717 0.001190625 -0.0025054056
0.0026337833 0.00012988636 -0.0081109097
0.022802461 -0.00015875 -0.0052581085
0.022802459 -0.00015875 -0.0062805414
0.023036731 7.9375008e-05 -0.0076962165
0.022802459 -0.00015875 -0.0072243251
-0.023739545 -0.00029765631 -0.00032290549
-0.022255827 0.001190625 -0.0012470272
-0.018741747 0.00023812508 -0.002190812
0.022768993 -0.00015875 0.0021910421
0.02282849 -0.00015875 0.0025805403
-0.023036731 7.9374993e-05 0.0017416214
-0.02277643 0.00010583333 0.0017416216
-0.022802463 -0.00023812499 0.0017416216
-0.022776432 0.00010583333 -0.0062805414
-0.020244993 0.00013890625 -0.0062805414
-0.020244993 0.00013890625 -0.0067524319
-0.023036731 -0.00015875 -0.0067524328
-0.022802463 -0.00023812499 -0.0072243237
-0.020537833 -0.00015875 -0.0067524328
-0.022802463 -0.00023812499 -0.0037637837
-0.020537833 -0.00015875 -0.0037637837
-0.020225469 -0.0011906251 -0.0021908109
-0.020225471 -0.0011906251 -0.0017189191
-0.020256706 -0.00022224999 -0.0067524319
-0.020537833 7.9375e-05 -0.0067524328
-0.020537833 -0.00015875 -0.0052581085
-0.016789485 -0.001190625 -0.001718919
-0.017258028 -0.001190625 -0.0021908109
-0.020244991 0.00013890625 -0.005258109
-0.018038932 -1.8189894e-12 -0.0076962165
0.02029646 -0.0002453409 -0.0042356765
0.020244995 0.00013890625 -0.004235676
0.020256707 -0.00022224999 -0.0047075679
0.020537833 -0.00015875 -0.0047075679
-0.015247189 0.00013890625 0.00079783774
-0.013743953 0.00021647732 -0.00031754316
-0.014290581 0.00021647727 -0.00031754316
-0.011245049 -0.00081359386 -0.0003229056
-0.022255823 0.00079374999 -0.0021908106
0.020256707 -0.00022224999 -0.0076962174
0.020256706 -0.00022224999 -0.0072243232
0.01772657 -0.0011906251 -0.0021908106
0.01772657 -0.001190625 -0.0017189193
0.017258026 -0.001190625 -0.0017189191
0.018195113 -0.001190625 -0.0021908109
0.015696215 -0.0011906251 -0.001718919
0.015696213 -0.001190625 -0.0012470273
0.016242845 -0.0011906251 -0.0012470273
0.016242847 -0.001190625 -0.0017189191
0.021787278 -0.0011906251 -0.00077513524
0.0076709008 -0.00023201923 0.0022014133
0.010210349 -0.00022820312 0.0022135135
0.007699735 -0.00023283334 0.0017311352
0.012260227 -0.001190625 -0.0021908109
0.011895803 -0.0011641667 -0.0025054056
0.015852395 -0.00095249998 -0.0025054056
0.016086668 -0.000714375 -0.0025054056
0.01772657 -0.00111125 -0.0025054056
0.017310087 -0.0006879167 -0.0025054056
0.016164757 -0.00026458333 -0.0025054056
0.0092927832 -0.001190625 -0.0017189193
0.0067938841 -0.0011906251 -0.0012470272
0.0062472499 -0.001190625 -0.00077513536
0.0062472485 -0.0011906251 -0.0012470272
0.0087461499 -0.0011906251 -0.00077513524
0.0092927832 -0.0011906251 -0.0003032434
0.0092927841 -0.001190625 -0.00077513524
0.0081995139 -0.0011906251 -0.0017189191
0.0072624269 -0.001190625 -0.0017189191
0.0077309706 -0.001190625 -0.0017189191
0.0072624269 -0.001190625 -0.0012470272
0.02124065 -0.0011906251 -0.0017189194
0.023036731 -0.00015875 0.00079783774
-0.011791682 -0.0011906251 -0.001718919
-0.011791682 -0.0011906251 -0.0012470271
-0.01124505 -0.001190625 -0.0021908106
-0.01124505 -0.001190625 -0.0017189194
-0.012260227 -0.0011906251 -0.0012470272
-0.013197317 -0.001190625 -0.0003032434
-0.012728769 -0.00023812501 0.00079783774
0.0077114501 0.00013890625 0.0017416216
0.010210348 -0.00022820312 0.0017514527
0.010210349 0.00013890625 0.0022135135
0.015540033 -7.2759576e-12 0.0022135135
0.015540033 3.6379788e-12 0.0017416216
0.015233675 0.00015264424 0.0022074631
0.015258908 -0.00022224999 0.0017416219
0.015266717 7.9375e-05 0.0025870944
0.015305761 -0.00015875 0.0025281082
0.019288382 0.0008135938 -0.00032290549
0.018741749 0.0011906251 -0.00030324329
0.018741751 0.0008135938 -0.00032290549
0.018038932 -7.2759576e-12 0.00079783774
-0.018741751 -0.0011906251 -0.0017189191
-0.018741747 -0.001190625 -0.0012470272
-0.019288383 -0.001190625 -0.0012470272
-0.018741747 -0.001190625 -0.00077513524
-0.018195111 -0.0011906251 -0.00077513524
-0.018195115 -0.001190625 -0.0003032434
-0.018195113 -0.0008135938 -0.00032290549
-0.018741746 -0.00081359386 -0.00032290549
-0.019288383 -0.0011906251 -0.00077513524
-0.019756926 -0.001190625 -0.0012470271
-0.019288383 -0.0011906251 -0.0003032434
-0.019756926 -0.00081359386 -0.00032290549
-0.019288382 -0.0008135938 -0.00032290549
-0.016242849 -0.00031750009 -0.0021908113
-0.020694012 -0.001190625 -0.0003032434
-0.02124065 -0.001190625 -0.0003032434
-0.021240646 -0.001190625 -0.00077513524
-0.021240648 -0.0008135938 -0.00032290549
-0.02178728 -0.001190625 -0.00077513524
-0.022255827 -0.0011906251 -0.00077513524
-0.020537833 -0.00015875 0.0012697296
-0.020537833 7.9375008e-05 0.0017416216
-0.01772657 0.0011906251 -0.0003032434
-0.017746093 0.00013890625 0.00079783774
-0.016789485 0.0011906251 -0.0003032434
-0.016789483 0.00081359386 -0.00032290549
-0.015696215 -0.00081359391 -0.0003229056
-0.014759126 -0.0008135938 -0.00032290549
-0.010698413 -0.001190625 -0.0021908109
-0.01072965 -0.00117475 -0.0025054056
-0.010198635 -0.00022224999 -0.0032918921
-0.010750475 -0.00084666669 -0.0025054056
-0.010229871 -0.001190625 -0.0021908106
-0.0097613288 -0.0011906251 -0.0021908109
-0.0081995139 -0.001190625 -0.0012470272
-0.0097613279 -0.0011906251 -0.00030324329
-0.0092927823 -0.0011906251 -0.00077513524
-0.0092927823 -0.0011906251 -0.0003032434
0.0024208091 -0.00022225 0.0012697296
0.0024208091 -0.00015875 0.00079783774
0.0026550808 -0.00023812499 0.00079783774
0.0026550808 -0.00023812499 0.0012697296
-0.001796084 -0.001190625 -0.0021908109
-0.0012494499 -0.001190625 -0.0025054056
-0.0017960843 -0.001190625 -0.0025054056
-0.00124945 -0.0011906251 -0.0017189193
-0.001796084 -0.001190625 -0.0012470271
-0.0012494501 -0.001190625 -0.0012470273
-0.001796084 -0.0011906251 -0.0017189191
0.0012494501 -0.001190625 -0.0012470273
0.00124945 -0.0011906251 -0.0017189191
0.001796084 -0.001190625 -0.0012470271
-0.00023427184 -0.001190625 -0.001718919
0.00023427184 -0.001190625 -0.0017189189
-0.00023427184 -0.0011906251 -0.0012470272
-0.0026550808 -0.00023812499 0.002213513
-0.0023427187 -0.00023812499 0.0022135135
-0.0026160358 -0.0001984375 0.0025674324
-0.0007028156 -0.001190625 -0.00077513524
-0.00023427187 -0.0011906251 -0.0003032434
-0.00070281548 -0.0011906251 -0.0003032434
0.00023427184 -0.0011906251 -0.0012470273
0.00070281548 -0.0011906251 -0.0017189193
0.00023427187 -0.001190625 -0.00077513524
0.00070281548 -0.001190625 -0.00077513524
0.0042949836 -0.0011906251 -0.00077513524
0.0047635278 -0.001190625 -0.0003032434
0.0047635278 -0.0011906251 -0.00077513524
0.001796084 -0.0011906251 -0.00077513524
0.001796084 -0.0011906251 -0.0003032434
0.0037483505 -0.001190625 -0.00077513524
0.0037483501 -0.001190625 -0.0003032434
0.0037483491 -0.001190625 -0.0012470272
0.002264628 -0.0011906251 -0.0003032434
0.0022646277 -0.001190625 -0.00077513524
0.0032017149 -0.001190625 -0.0003032434
0.0012494501 0.00081359391 -0.00032290549
0.0023427184 0.00015875 0.00079783774
0.001796084 0.0008135938 -0.00032290549
0.00124945 0.0002164773 -0.00031754305
0.002655081 0.00015875 0.00079783774
0.002264628 0.0011906251 -0.0003032434
-0.0072624278 -0.0011906251 -0.0021908106
-0.0067938846 -0.0011906251 -0.0021908109
-0.006280717 -0.0011792857 -0.0025054056
-0.0051539815 -0.00023812499 -0.0067524319
-0.004897397 -0.00022678571 -0.0032918921
-0.005310162 -0.001190625 -0.0025054056
-0.0042637479 -0.00117475 -0.0025054056
-0.0047374968 -0.0007672917 -0.0025054056
-0.004294984 -0.00079374999 -0.0025054056
-0.0076997355 -0.00022224999 -0.0076962174
-0.0076997355 -0.00022224999 -0.006280541
-0.0074186088 -0.00023812499 -0.0058086491
-0.0074186088 -0.00023812499 -0.006280541
-0.0074186088 -0.00023812499 -0.0067524328
-0.01124505 -0.0011906251 -0.0012470272
-0.011791684 -0.0011906251 -0.00077513524
-0.005127951 -0.00015875 0.0025805403
-0.017726572 -0.0011906251 -0.0003032434
-0.017258026 -0.001190625 -0.00077513524
-0.017757807 -0.00022224999 0.0012697296
-0.015540034 -0.00015875 0.0017416216
-0.015540034 3.6379788e-12 0.0017416216
-0.015540034 0 0.0012697296
-0.004294984 -0.0011906251 -0.0003032434
0.00011713593 9.9218742e-05 0.002606757
0.00015618124 -0.00023812499 0.0022135135
0.00015158768 0.00014941176 0.0022042608
0.0049197087 -0.00015875 0.0025281082
0.005127951 7.9375e-05 0.0025805407
0.0051149353 -0.0001984375 0.0025674324
0.0049197082 -0.00023812499 0.0022135135
0.0051720017 -0.00023201923 0.0022014133
0.0026550808 -0.00023812499 0.0022135135
-0.0077114506 0.00013890625 -0.0032918921
-0.007730972 0.001190625 -0.0021908106
-0.0081995139 0.0011906251 -0.0021908106
-0.0076997345 -0.00022224999 -0.003763784
-0.007887152 -0.001190625 -0.0025054056
-0.0076997345 -0.00022224999 -0.0032918924
-0.0077114506 0.00013890625 -0.0037637847
-0.0074186088 -0.00023812499 -0.004235676
-0.0076997345 -0.00022224999 -0.004235676
-0.010217376 0.00014604999 -0.0037574917
-0.012728769 0.00015875 -0.0032918917
-0.01272877 0.00015875 -0.0037637854
-0.0074186088 -0.00023812499 -0.0072243246
-0.0074186092 0.00015875 -0.0072243246
-0.0076997345 -0.00022224999 -0.0072243232
-0.0049197082 0.00013890625 -0.0067720944
-0.0049197082 -0.00023812499 -0.0058086491
-0.0058567962 0.00111125 -0.0025054056
-0.0062082037 0.00081359374 -0.0025054056
-0.0051539815 0.00015875 -0.0037637842
-0.0051539801 0.00015875 -0.0052581076
-0.0049197082 0.00015875 -0.005258108
-0.0026550812 0.00015875 -0.005258108
-0.002655081 0.00015875 -0.0047075674
-0.0023817639 0.0001190625 -0.0052581076
-0.02124065 0.0011906251 -0.00077513536
-0.019288382 0.0011906251 -0.0017189191
-0.019756924 0.0011906251 -0.0017189189
-0.020225473 0.0011906251 -0.0012470272
-0.019756924 0.001190625 -0.0012470271
-0.014759128 0.0008135938 -0.00032290549
-0.014759125 0.0011906251 -0.00030324329
-0.015227671 0.001190625 -0.0003032434
-0.015696215 0.0011906251 -0.0003032434
-0.015240163 0.00014604999 0.0017479134
-0.019288383 0.0011906251 -0.0003032434
-0.019288382 0.0008135938 -0.00032290549
-0.021787282 0.0011906251 -0.0003032434
-0.022255825 0.00081359386 -0.00032290549
-0.011245049 0.0008135938 -0.00032290549
-0.01124505 0.001190625 -0.0003032434
-0.011791681 0.001190625 -0.0003032434
-0.012416408 5.4569682e-12 0.00016864855
-0.012416408 -0.00023812501 1.1351309e-05
-0.011791683 0.0011906251 -0.00077513524
-0.012260227 0.0011906251 -0.00030324329
-0.010698414 0.001190625 -0.00077513524
-0.010229871 0.0011906251 -0.00077513524
-0.010698414 0.0011906251 -0.0003032434
-0.010229871 0.0011906251 -0.0003032434
-0.0097613279 0.001190625 -0.00030324329
-0.0081995139 0.0011906251 -0.00077513524
-0.0087461499 0.0011906251 -0.00030324329
-0.0081995139 0.0011906251 -0.0003032434
-0.0047635273 0.0011906251 -0.0017189191
-0.007262426 0.001190625 -0.0021908109
-0.0072624269 0.0011906251 -0.0017189193
-0.0067548389 0.0011509375 -0.0025054056
-0.0022646277 0.0011906251 -0.0017189191
-0.0027331719 0.0011906251 -0.0017189193
-0.0027331717 0.0011906251 -0.0012470271
-0.001796084 0.0011906251 -0.001718919
-0.0027331719 0.0011906251 -0.0021908106
-0.00023427184 0.0011906251 -0.00077513524
-0.0007028156 0.0011906251 -0.00077513536
-0.00023427187 0.0011906251 -0.0003032434
-0.00023427184 0.0011906251 -0.0012470272
0.00023427187 0.0011906251 -0.0012470272
-0.0012494501 0.001190625 -0.0012470273
-0.0017960841 0.0011906251 -0.00077513524
-0.001796084 0.001190625 -0.0012470272
-0.0032017152 0.0011906251 -0.0021908109
-0.001796084 0.001190625 -0.00030324329
-0.00124945 0.0011906251 -0.00030324329
-0.00070281548 0.001190625 -0.0003032434
-0.0012494499 0.00081359386 -0.00032290549
-0.0023817639 0.0001190625 0.00079783774
-0.0007028156 0.00081359386 -0.00032290549
-0.00011279757 0.00010583333 0.0026329728
-0.00015618125 0.00015875 0.0022135135
-0.0027331719 0.001190625 -0.00077513512
-0.002264628 0.0011906251 -0.00077513524
-0.0027331717 0.0011906251 -0.0003032434
-0.002264628 0.0011906251 -0.0012470271
0.010229872 0.0011906251 -0.0021908109
0.0081995139 0.0011906251 -0.0012470272
0.0077309716 0.0011906251 -0.00077513512
0.0097613288 0.001190625 -0.00077513524
0.0092927832 0.001190625 -0.0012470272
0.002264628 0.0011906251 -0.00077513524
0.001796084 0.0011906251 -0.00077513512
0.001796084 0.0011906251 -0.0012470273
0.0023427187 0.00015875 0.0012697296
0.0037483496 0.0011906251 -0.0017189191
0.0037483501 0.001190625 -0.0012470272
0.0032017152 0.001190625 -0.0012470271
0.0027331719 0.0011906251 -0.0003032434
0.0037483496 0.0011906251 -0.00077513524
0.0074186092 0.00013890625 0.0021938514
0.009605146 -0.00111125 -0.0025054056
0.0092927832 -0.00079374999 -0.0025054056
0.0092927841 -0.001190625 -0.0025054056
0.020537833 7.9375e-05 0.0022135135
0.020244995 0.00013890625 0.0022135139
0.020537833 7.9375008e-05 0.0025281082
0.020537833 -0.00015875 0.0022135135
0.020329591 -0.00015875 0.0025805403
0.02030356 7.9374993e-05 0.002606757
0.02124065 -0.0008135938 -0.0003229056
0.020537833 -0.00015875 0.00079783774
0.022802459 -0.00015875 -0.0032918921
0.022255825 -0.0007739063 -0.0021711483
0.020537833 7.9375e-05 0.00079783774
0.023739548 -0.00031750009 -0.0021908113
0.023036731 -0.00015875 -0.0076962165
0.023036731 -0.00015875 -0.0067524328
0.023036731 -0.00015875 -0.004235676
0.023036731 -0.00015875 -0.0052581085
0.022255827 0.0011906251 -0.0021908106
0.022255827 0.00079374999 -0.0021908106
0.02178728 0.001190625 -0.0017189193
0.022412008 -1.8189894e-12 -0.0025054056
0.021162556 0.000635 -0.0025054056
0.021787282 -0.00031750003 -0.0021908106
0.021787284 0.00023812502 -0.0021908113
0.023739545 0.00079375011 -0.0021908116
-0.01124505 -0.00029765628 -0.00032290549
-0.011245049 0.00021647732 -0.00031754305
-0.01022987 0.00015875 0.00079783774
-0.012728769 0.00015875 0.0012697298
-0.01272877 0.0011906251 -0.0003032434
-0.013197316 0.0011906251 -0.0003032434
-0.014290582 -0.0003175 -0.0021908106
-0.013743948 -0.00031750009 -0.0021908116
-0.014915308 3.6379788e-12 -0.0033705407
-0.010198635 -0.00022224999 -0.004235676
-0.0099175088 -0.00023812499 -0.004235676
-0.012728769 -0.00023812501 -0.0032918917
-0.019288382 0.00021647727 -0.00031754305
-0.019288383 -0.00029765625 -0.00032290549
-0.022776432 0.00010583333 0.00079783774
-0.021787282 0.00021647727 -0.00031754316
-0.013197317 -0.001190625 -0.0017189191
-0.013197316 -0.0011906251 -0.0012470272
-0.0099175088 -0.00023812499 -0.006280541
-0.0099175088 7.9375e-05 -0.0062805414
-0.0099175088 -0.00023812499 -0.0058086491
-0.0099175088 -0.00022225 -0.0076647564
-0.0099175088 0.00012700001 -0.0076018386
-0.01022987 0.00015875 -0.004235677
-0.011245049 0.00023812508 -0.0021908118
-0.011245048 0.00079375005 -0.0021908111
-0.011791684 0.00079375011 -0.0021908106
-0.012327162 0.00013607144 -0.0025278765
-0.01265068 0.000635 -0.0025054056
0.020537833 -0.00015875 -0.0072243246
-0.023192914 -0.0011906251 -0.001718919
0.012416408 7.9375e-05 -0.0072243251
0.010210348 0.00013890625 -0.0072243228
0.010198635 -0.00022224999 -0.0072243232
0.012416408 7.9374993e-05 -0.0058086491
0.012416408 9.0714289e-05 -0.0052918154
0.020244995 0.00013890625 -0.0047075674
0.020244991 0.00013890625 -0.0052581099
0.018507477 0.00111125 -0.0025054056
0.017732577 0.00015264424 -0.0042417268
0.018038932 -3.6379788e-12 -0.0047075674
0.018038932 0 -0.004235676
0.017732577 0.00015264424 -0.0047015175
0.015258908 -0.00022224999 -0.0047075674
0.015247194 -0.00022820312 -0.004235676
0.020274278 -0.00022820312 -0.0052187848
0.020537833 7.9374993e-05 -0.0052581085
0.020244993 0.00013890625 -0.0058086501
0.020323083 -0.00023812499 -0.0057889866
0.022768995 0.00013607142 -0.0037637842
0.018195113 -0.00095249998 -0.0025054056
0.016060637 0.00023812499 -0.0025054056
0.020537833 7.9374993e-05 -0.0058086491
0.020244995 0.00013890625 -0.0072243228
0.01527973 0.00074083335 -0.0025054056
0.014290583 0.00083910715 -0.0025054056
0.014876262 0.0001190625 -0.0025054056
0.016242849 0.0012170833 -0.0025054056
0.015540033 1.8189894e-12 -0.004235676
0.015227669 0.00015875 -0.0042356765
0.012728769 0.00015875 -0.0052581104
0.012416408 9.5250005e-05 -0.0047075683
0.013743949 -0.00031750009 -0.00030324329
0.013743949 -0.0008135938 -0.0003229056
0.015258908 -0.00022224999 0.00079783774
0.012728769 -0.00023812501 0.00079783774
0.013197316 0.0011906251 -0.0021908106
0.013197316 0.0011906251 -0.0017189191
0.010698414 0.0011906251 -0.0021908109
0.0099175088 0.00015875 -0.0037637837
0.010729651 0.00117475 -0.0025054056
0.010210348 0.00013890625 -0.0037637847
0.0099175088 0.00015875 -0.004235676
0.010198635 -0.00022224999 -0.004235676
0.008746149 0.0011641666 -0.0025054056
0.0087461499 0.001190625 -0.0021908109
0.0086992951 0.0008255 -0.0025054056
0.0091990735 0.0008255 -0.0025054056
0.0085743498 0.00034924998 -0.0025054056
0.0099175088 0.00015875 -0.0032918919
0.0074186088 -0.00022225 -0.0067524323
0.0077114482 -0.00022820312 -0.0062805414
0.0074186088 -0.00022225 -0.0062490813
0.00015618124 0.00015875 -0.0042356756
0.00015618125 0.00015875 -0.0047075674
-0.00015618125 0.00015875 -0.0047075674
-0.0023817639 0.0001190625 -0.0062805414
-0.002655081 0.00015875 -0.0067524319
-0.002655081 0.00015875 -0.0062805414
-0.0012494499 0.001190625 -0.0025054056
-0.0007028156 0.001190625 -0.0025054056
-0.0007028156 0.00079374999 -0.0025054056
-0.0012494499 0.00079374999 -0.0025054053
-0.0007028156 0.0011906251 -0.0021908109
-0.0026550808 -0.00023812499 -0.0062805414
-0.0026550808 -0.00023812499 -0.0058086496
0.0026160355 -0.00019843751 -0.0080501363
-0.00015618122 0.00015875 -0.0058086496
0.010198635 -0.00022224999 -0.0047075674
0.010198635 -0.00022225 -0.005258108
0.010198635 -0.00022224999 -0.0037637837
0.010776506 -0.001190625 -0.0025054056
0.011219018 -0.0011641667 -0.0025054056
0.010185248 -0.00020410714 -0.0080557531
0.010698413 -0.001190625 -0.001718919
0.011245049 -0.001190625 -0.0012470273
0.010698414 -0.0011906251 -0.0012470271
0.012728767 -0.00023812501 -0.0067524319
-0.0049197082 0.00015875 -0.0076962165
0.0026550812 0.00015875 -0.0072243232
0.002655081 0.00015875 -0.0067524319
0.0049197082 0.00015875 -0.0072243246
0.0049197082 -0.00023812499 -0.0067524328
0.0049197082 0.00015875 -0.0067524323
-0.00015618125 -0.00023812499 -0.0067524319
-0.00015618125 -0.00023812499 -0.0062805414
-0.0023427187 -0.00023812499 -0.0072243237
0.0023427184 0.00015875 -0.006280541
0.002655081 0.00015875 -0.0058086496
0.0026550812 0.00015875 -0.0062805414
-0.00023427187 0.001190625 -0.0025054056
-0.00023427184 0.0011906251 -0.0021908109
0.00023427187 0.001190625 -0.0025054056
0.00023427187 0.0011906251 -0.0021908106
0.0007028156 0.001190625 -0.0025054056
0.00070281548 0.00079374999 -0.0025054056
0.0012494499 0.00079374999 -0.0025054053
0.0012494499 0.001190625 -0.0025054056
0.00015618124 0.00015875 -0.0032918917
0.00124945 0.00023812499 -0.0025054056
-0.0049197082 0.00015875 -0.0037637837
-0.0049197082 0.00015875 -0.0042356756
0.00015618124 -0.00023812499 -0.0076962169
0.00015618124 -0.00023812499 -0.006280541
-0.00015618125 -0.00023812499 -0.0058086491
0.00023427184 -0.0011906251 -0.0021908106
0.00023427187 -0.001190625 -0.0025054056
0.00070281548 -0.001190625 -0.0025054056
-0.00023427187 -0.001190625 -0.0025054056
0.00015618124 -0.00023812499 -0.004235676
-0.00015618125 -0.00023812499 -0.0047075674
-0.00015618122 -0.00023812499 -0.004235676
0.00015618122 -0.00023812499 -0.0047075679
-0.00015618125 -0.00023812499 -0.0052581076
0.0024208091 -0.00023812499 -0.0072243251
0.0024208091 -0.00023812499 -0.0067524328
0.0037483496 -0.0011906251 -0.0021908109
0.0032017154 -0.001190625 -0.0025054056
0.0037483498 -0.001190625 -0.0025054056
0.004294984 -0.001190625 -0.0025054056
0.0027331717 -0.0011906251 -0.0021908109
0.0027331717 -0.001190625 -0.0025054056
0.005153981 -0.00023812499 -0.005258108
0.0049197082 -0.00023812499 -0.0058086491
0.0051720021 -0.00023201923 -0.0058207489
0.0049197082 -0.00023812499 -0.0052581085
-0.016789483 0.001190625 -0.0021908106
-0.017258026 0.001190625 -0.0021908106
-0.016789483 -0.0003175 -0.0021908106
-0.010229871 0.001190625 -0.0021908111
0.0052049095 0.00013804347 -0.007696216
0.0077114496 0.00013890625 -0.0076962155
0.0076709013 -0.00023201923 -0.0076962179
0.007699735 -0.00022224999 -0.0072243232
0.0099175088 0.00015875 -0.0072243246
0.0067418236 0.0011641667 -0.0025054056
0.0074186092 0.00015875 -0.0037637837
0.0067001753 0.0008255 -0.0025054056
0.0062472494 0.001190625 -0.0025054056
0.006247249 0.00079374999 -0.0025054053
0.0067938841 0.0011906251 -0.00077513524
0.0062472485 0.0011906251 -0.0003032434
0.0067938841 0.001190625 -0.0003032434
0.0051874467 0.00013607142 -0.0052581085
0.0051965755 0.00013710227 -0.0058157998
0.020537833 7.9375e-05 -0.0062805414
0.020244993 0.00013890625 -0.0062805414
0.022802463 -0.00015875 -0.0067524319
0.020694012 -0.0011906251 -0.0012470272
0.020694012 -0.0011906251 -0.0017189191
0.019366473 0.00083343749 -0.0025054056
0.019288383 0.0003175 -0.0025054056
0.020244995 0.00013890625 -0.0037637844
0.020252634 0.00013804347 -0.003285053
0.016242847 -0.0011906251 -0.0021908109
-0.021240644 0.00021647732 -0.00031754316
-0.02124065 0.0008135938 -0.00032290549
-0.022724371 0.0011906251 -0.002171149
-0.022255827 0.001190625 -0.0017189191
-0.022724371 0.001190625 -0.0012470271
-0.019288382 0.00023812505 -0.0021908111
0.022802459 -0.00015875 0.0017416216
-0.023059044 6.8035712e-05 0.0022135135
-0.022809559 -0.00023090909 0.0021992135
-0.022802459 -0.00023812499 -0.0032918921
-0.02124065 -0.001190625 -0.0021908109
-0.02178728 -0.0011906251 -0.0021908109
-0.021240652 -0.001190625 -0.0017189193
-0.020537833 -0.00015875 -0.006280541
-0.02178728 -0.0011906251 -0.0017189189
-0.020694014 -0.0011906251 -0.0017189191
-0.022255829 -0.0011906251 -0.0021908109
-0.022802459 -0.00023812499 -0.005258108
-0.020537833 7.9375e-05 -0.0052581085
-0.020256706 -0.00022224999 -0.0047075679
-0.020244995 0.00013890625 -0.0047075674
0.015258908 -0.00022224999 -0.006280541
0.015540033 1.8189894e-12 -0.006280541
0.015227669 0.00015875 -0.0058086505
0.02029646 -0.0002453409 -0.0032918921
0.020273527 -0.00023201923 -0.0037637837
0.019756926 -0.00117475 -0.0021593517
0.020214314 -0.0011792859 -0.0021458685
0.020537833 7.9374993e-05 -0.0042356756
-0.014290582 -0.00079375011 -0.0021908109
-0.014290584 -0.0011906251 -0.0021908109
-0.014290583 -0.00029765625 -0.0003229056
0.015236856 -0.0002334559 0.0022042608
0.018741749 -0.0008135938 -0.00032290549
0.018195113 -0.00081359386 -0.00032290549
0.016789483 -0.0011906251 -0.0017189191
0.016789483 -0.001190625 -0.0012470272
0.017258026 -0.001190625 -0.0021908106
0.01772657 -0.0011906251 -0.0012470272
0.01772657 -0.001190625 -0.00030324329
0.017726569 -0.0011906251 -0.00077513524
0.018195111 -0.0011906251 -0.0003032434
0.014759127 -0.001190625 -0.0021908106
0.014759127 -0.0011906251 -0.0017189191
0.015227671 -0.001190625 -0.0017189191
0.014290584 -0.001190625 -0.0021908109
0.013743945 -0.001190625 -0.0021908109
0.013743949 -0.0011906251 -0.0017189193
0.012728769 -0.0011906251 -0.0021908109
0.012260227 -0.001190625 -0.0017189191
0.013197314 -0.0008135938 -0.0003229056
0.013197316 -0.001190625 -0.00030324329
0.015227671 -0.0011906251 -0.0003032434
0.014759127 -0.001190625 -0.00077513524
0.015227671 -0.001190625 -0.00077513524
0.02124065 -0.001190625 -0.0012470271
0.020694014 -0.0011906251 -0.00077513524
0.021787284 -0.0008135938 -0.00032290549
0.021240646 -0.00031750009 -0.0003032434
0.0097613269 -0.0011906251 -0.00077513524
0.017726569 -0.00023812501 -0.0037637842
0.0097613269 -0.001190625 -0.001718919
0.0067938841 -0.001190625 -0.00077513524
0.0062472499 -0.0011906251 -0.0003032434
0.0057006148 -0.001190625 -0.00077513524
0.0057006152 -0.0011906251 -0.0003032434
0.0067938841 -0.0011906251 -0.0003032434
0.0062472494 -0.001190625 -0.0025054056
0.006247249 -0.0011906251 -0.0021908106
0.0057006157 -0.001190625 -0.0025054056
0.0067938841 -0.0011906251 -0.0021908109
0.0067626475 -0.00117475 -0.0025054056
0.0057201381 -0.00077390624 -0.0025054056
0.0067938841 -0.0011906251 -0.001718919
0.0081995139 -0.001190625 -0.0021908109
0.0081995148 -0.001190625 -0.0025054056
0.0077309706 -0.0011906251 -0.0021908106
-0.011245048 -0.00079375005 -0.0021908111
-0.012728768 -0.001190625 -0.0012470271
-0.012728769 -0.001190625 -0.00077513524
-0.013197316 -0.001190625 -0.00077513524
-0.012260228 -0.0011906251 -0.0003032434
-0.012260228 -0.00081359386 -0.00032290549
-0.018741746 -0.00029765628 -0.00032290549
0.0077114501 0.00013890625 0.0012697296
0.0076863477 -0.00023812499 0.0012697296
0.012416408 7.9375e-05 0.00079783774
0.012728769 -0.00023812501 0.0012697296
0.011791684 -0.001190625 -0.0003032434
0.018741747 0.00021647732 -0.00031754316
0.019288378 0.00021647727 -0.00031754316
0.020244995 0.00013890625 0.00079783774
-0.020225473 -0.001190625 -0.0012470273
-0.020225471 -0.0011906251 -0.00077513524
-0.018195113 -0.001190625 -0.001718919
-0.018741749 -0.001190625 -0.0003032434
-0.019756924 -0.0011906251 -0.00077513524
-0.019756926 -0.001190625 -0.0003032434
-0.015696215 -0.001190625 -0.0021908109
-0.015227671 -0.0011906251 -0.0021908106
-0.020225473 -0.0011906251 -0.0003032434
-0.020694012 -0.001190625 -0.00077513524
-0.022255825 -0.001190625 -0.0012470272
-0.020537833 7.9375e-05 0.0022135135
-0.020537833 -0.00015875 0.0017416216
-0.020537833 -0.00015875 0.00079783774
-0.020256707 -0.00022224999 0.00079783774
-0.017414209 -0.00015875 1.1351309e-05
-0.016789483 0.00021647727 -0.00031754305
-0.016789485 -0.00029765625 -0.00032290549
-0.017757805 -0.00022224999 0.00079783774
-0.0087461499 0.0011906251 -0.0017189191
-0.010229871 -0.001190625 -0.0017189191
-0.0097613288 -0.001190625 -0.001718919
-0.0092927841 -0.0011906251 -0.0021908109
-0.0099175088 -0.00023812499 -0.0032918919
-0.0087461509 -0.001190625 -0.0012470271
-0.0077309711 -0.0011906251 -0.00077513524
-0.0072624269 -0.0011906251 -0.00077513524
-0.0077309711 -0.0011906251 -0.0012470273
-0.0067938841 -0.0011906251 -0.00077513524
-0.0072624278 -0.001190625 -0.0003032434
0.020694014 -0.0011906251 -0.0003032434
0.0024208091 -0.00023812499 0.0017416216
0.0026550808 -0.00023812499 0.0017416214
-0.0022646277 -0.001190625 -0.0021908106
-0.00070281548 -0.0011906251 -0.0021908106
-0.0007028156 -0.001190625 -0.0025054056
0.001796084 -0.0011906251 -0.0017189191
0.00124945 -0.001190625 -0.0021908109
0.0017960841 -0.001190625 -0.0021908109
0.0012494498 -0.001190625 -0.0025054056
0.0017960843 -0.001190625 -0.0025054056
-0.0026550808 -0.00023812499 0.00079783774
-0.0027331719 -0.001190625 -0.00030324329
-0.0032017154 -0.0008135938 -0.00032290549
-0.0023427184 -0.00023812499 0.00079783774
-0.0022646277 -0.0011906251 -0.0003032434
0.00015618122 0.00015875 0.0017416219
0.00015618124 0.00015875 0.0012697296
0.00015618122 -0.00023812499 0.0017416216
-0.00015618125 0.00015875 0.0017416216
-0.001796084 -0.0011906251 -0.00077513536
-0.00015618122 -0.00023812499 0.0017416216
-0.0001490821 -0.00023090909 0.002199214
0.00023427187 -0.0011906251 -0.0003032434
0.00015618122 -0.00023812499 0.00079783774
-0.00011713593 -0.0001984375 0.0025674324
-0.0007028156 -0.0011906251 -0.0012470272
-0.0012494501 -0.001190625 -0.00077513536
-0.00124945 -0.001190625 -0.0003032434
-0.00023427187 -0.001190625 -0.00077513524
0.00070281548 -0.001190625 -0.0012470272
0.0052320715 -0.001190625 -0.0003032434
0.0042949836 -0.001190625 -0.0003032434
0.005232071 -0.001190625 -0.0021908109
0.0052320715 -0.001190625 -0.0025054056
0.0047635273 -0.001190625 -0.0025054056
0.004294984 -0.0011906251 -0.0021908106
-0.0074186088 -0.000635 -0.0025054056
-0.0074186088 -0.00023812499 -0.0032918919
-0.0072624269 -0.001190625 -0.001718919
-0.0057006148 -0.0012170834 -0.0025054056
-0.007730972 -0.001190625 -0.0017189191
-0.0049197082 0.00015875 -0.0032918921
-0.0074186088 -0.00023812499 -0.0076962165
-0.0077114496 0.00013890625 -0.0076962155
-0.0051539806 0.00015875 -0.0067524319
-0.0076997345 -0.00022224999 -0.0067524319
-0.0067938841 0.00089958333 -0.0025054056
-0.0074186092 0.00015875 -0.0037637842
-0.0076997345 -0.00022224999 -0.0058086496
-0.012260228 -0.001190625 -0.00077513524
-0.0076138349 -0.0001984375 0.0025674324
-0.0076528811 0.00012700001 0.0025910269
-0.0074186088 1.8189894e-12 0.0025281082
-0.0074186088 -0.00015875 0.0025281082
-0.0049197087 0 0.0025281082
-0.0026216134 0.00011339286 0.0025730501
-0.016789483 -0.0011906251 -0.0003032434
-0.01772657 -0.001190625 -0.00077513512
-0.017258028 -0.001190625 -0.0012470272
-0.015540034 -1.8189894e-12 0.0022135135
-0.017778629 -0.00021166667 0.0025281082
-0.017757805 -0.00022224999 0.002213513
-0.017746093 0.00013890625 0.0022135135
-0.0049197082 -0.00023812499 0.0012697296
-0.0052320715 -0.001190625 -0.00030324329
-0.0047635278 -0.0011906251 -0.00030324329
-0.0051539806 -0.00023812499 0.0017416216
-0.0051663108 0.00015039474 0.0017499004
-0.0051774075 0.000142875 0.001261865
-0.0023817639 0.0001190625 0.0017416216
-0.0023817639 0.0001190625 0.0012697296
-0.002655081 0.00015875 0.0012697298
0.0049197087 7.9374993e-05 0.0025281082
0.0049197082 0.00015875 0.0022135135
0.002655081 0.00015875 0.0012697296
0.0032017149 0.0011906251 -0.00030324329
0.0049197082 0.00015875 0.0017416216
0.0049197082 -0.00023812499 0.0017416214
0.0051965755 0.00013710227 0.0012697298
0.0051874481 0.00013607142 0.0017416216
-0.0074186088 -0.00023812499 -0.0047075674
-0.0076997345 -0.00022224999 -0.0047075674
-0.0080953939 -0.00021166667 -0.0025054056
-0.0099175088 7.9375e-05 -0.0058086482
-0.01022987 0.00015875 -0.0058086505
-0.0077114506 0.00013890625 -0.0062805414
-0.0077114496 0.00013890625 -0.0058086501
-0.010229871 0.001190625 -0.0012470271
-0.0097613269 0.001190625 -0.001247027
-0.0092927841 0.0011906251 -0.0012470272
-0.0092927832 0.0011906251 -0.001718919
-0.0087461499 0.0011906251 -0.0012470272
-0.0049197082 -0.00023812499 -0.003763784
-0.0038654855 -0.00043656249 -0.0025054056
-0.0052320715 0.0011906251 -0.0021908111
-0.005232071 0.0011906251 -0.0017189193
-0.0074186092 0.00015875 -0.0047075674
-0.0077114496 0.00013890625 -0.004235677
-0.0077114496 0.00013890625 -0.0047075674
-0.0074186092 -0.00023812499 -0.0052581085
-0.005153981 0.00015875 -0.0058086496
-0.0026550808 0.00015875 -0.0058086496
-0.0023817639 0.0001190625 -0.0058086491
-0.020694012 0.001190625 -0.001718919
-0.020694012 0.0011906251 -0.00077513524
-0.019756926 0.0011906251 -0.00077513524
-0.018195115 0.0011906251 -0.0012470272
-0.018741749 0.0011906251 -0.0012470271
-0.018741747 0.001190625 -0.0017189191
-0.015696213 0.0011906251 -0.0017189191
-0.016242849 0.001190625 -0.0021908109
-0.015696213 0.001190625 -0.0021908109
-0.017258026 0.0011906251 -0.0003032434
-0.016789483 0.0011906251 -0.00077513524
-0.016242847 0.0011906251 -0.0003032434
-0.016242849 0.0008135938 -0.0003229056
-0.015247192 0.00013890625 0.0012697296
-0.014290584 0.001190625 -0.0003032434
-0.015247192 0.00013890625 0.0022135135
-0.015290143 0.00012700001 0.0025281082
-0.018038932 5.4569682e-12 0.0017416216
-0.019756926 0.0011906251 -0.0003032434
-0.021787278 0.0011906251 -0.00077513512
-0.02178728 0.0008135938 -0.00032290549
-0.012728769 -0.00023812501 0.0012697296
-0.012728769 0.00015875 0.00079783774
-0.013743949 0.00081359386 -0.00032290549
-0.013743948 0.0011906251 -0.00030324329
-0.011791681 -0.00029765625 -0.00032290549
-0.011791683 0.00021647727 -0.00031754316
-0.011245049 0.001190625 -0.00077513536
-0.01124505 0.001190625 -0.0012470272
-0.010698414 0.001190625 -0.0012470271
-0.010698415 0.0011906251 -0.0017189189
-0.0097613279 0.001190625 -0.00077513524
-0.0092927841 0.0011906251 -0.0003032434
-0.010698415 0.0008135938 -0.00032290549
-0.0062472485 0.0011906251 -0.00077513524
-0.0062472485 0.0011906251 -0.0003032434
-0.0057006152 0.0011906251 -0.0003032434
-0.007730972 0.001190625 -0.0012470271
-0.0081995139 0.001190625 -0.0012470274
-0.008746149 0.001190625 -0.00077513536
-0.007730972 0.0011906251 -0.00077513524
-0.007262426 0.001190625 -0.0003032434
-0.0077309711 0.001190625 -0.00030324329
-0.007262426 0.001190625 -0.00077513524
-0.007262426 0.0011906251 -0.0012470272
-0.0052320715 0.0011906251 -0.0003032434
-0.0049197082 0.00015875 0.0012697296
-0.0047635273 0.0011906251 -0.00077513524
-0.0047635278 0.0011906251 -0.0003032434
-0.004294984 0.001190625 -0.0003032434
0.019288383 0.001190625 -0.0003032434
0.020244995 0.00013890625 0.0017416214
0.020694012 0.001190625 -0.0003032434
0.019756926 0.0008135938 -0.00032290549
0.019756926 0.0011906251 -0.0003032434
0.012260227 0.0011906251 -0.00077513536
0.012728769 0.0011906251 -0.0003032434
0.012260228 0.001190625 -0.00030324329
0.014290584 0.001190625 -0.0017189191
0.014759128 0.00081359386 -0.00032290549
0.014759127 0.001190625 -0.00030324329
0.014290583 0.0008135938 -0.00032290549
0.015227669 0.00015875 0.00079783774
0.015258908 -0.00022224999 0.0012697296
0.01522767 0.00015875 0.0012697296
0.011791682 0.0011906251 -0.0003032434
0.015227671 0.0011906251 -0.0003032434
0.015696215 0.0011906251 -0.0003032434
0.015540033 -5.4569682e-12 0.0012697296
0.016242845 0.001190625 -0.0003032434
0.018195113 0.0011906251 -0.00030324329
-0.0067938841 0.001190625 -0.0021908106
-0.006247248 0.0011906251 -0.0021908109
-0.006247249 0.0011906251 -0.0012470272
-0.0067938841 0.001190625 -0.0012470272
-0.0057006148 0.0011906251 -0.0021908106
-0.00124945 0.0002164773 -0.00031754305
-0.001796084 0.0008135938 -0.00032290549
-0.0012494499 0.001190625 -0.00077513524
-0.00124945 0.001190625 -0.0021908109
-0.0012494501 0.0011906251 -0.0017189194
-0.00070281548 0.001190625 -0.0012470273
-0.0032017152 0.001190625 -0.001718919
-0.0022646282 0.0011906251 -0.0003032434
-0.0023817639 0.0001190625 0.0022135135
-0.0023817639 3.9687504e-05 0.0025674324
0.0087461499 0.0011906251 -0.0003032434
0.0072624269 0.001190625 -0.0003032434
0.0077309716 0.001190625 -0.0003032434
0.0074186092 0.00015875 0.00079783774
0.002264628 0.001190625 -0.001718919
0.002264628 0.001190625 -0.0012470271
0.001796084 0.0011906251 -0.00030324329
0.0012494501 0.0011906251 -0.0003032434
0.00070281536 0.0011906251 -0.0003032434
0.00070281548 0.00081359391 -0.0003229056
0.0037483498 0.0011906251 -0.0021908109
0.0037483496 0.001190625 -0.0025054056
0.0027331719 0.001190625 -0.00077513524
0.0037483501 0.0011906251 -0.00030324329
0.0032017152 0.001190625 -0.00077513524
0.0074186088 7.9374993e-05 0.0025281082
0.0074186088 -0.00023812499 0.0022135135
0.0051965755 0.00013710227 0.0022063632
0.0074186092 0.00015875 0.0017416216
0.008746149 -0.001190625 -0.0025054056
0.0082385596 -0.00091281248 -0.0025054056
0.020256706 -0.00022224999 0.002213513
0.020256706 -0.00022224999 0.0017416216
0.023036731 0.00015875 0.0012697296
0.023036731 0.00011339286 0.00082030892
0.022802459 -0.00015875 -0.0037637837
0.021787278 -0.00079374999 -0.0021908109
0.021240648 0.0008135938 -0.0003229056
0.022802459 -0.00015875 -0.0047075679
0.02178728 0.001190625 -0.0012470272
0.014290583 -0.0008135938 -0.0003229056
0.014290584 -0.001190625 -0.0003032434
-0.010229872 0.00015875 0.0012697296
-0.012728769 0.00015875 0.0017416216
-0.012728768 0.00015875 0.0022135135
-0.012728769 -0.00023812501 0.0022135135
-0.012728769 -0.00023812501 0.0017416214
-0.015227671 -0.00023812501 0.0017416216
-0.017785138 5.9531252e-05 0.0025870944
-0.0099175088 0.00015875 0.00079783774
-0.014915307 3.6379788e-12 -0.0037637837
-0.015227671 -0.00023812501 -0.0037637842
-0.014915307 -3.6379788e-12 -0.004235676
-0.015227671 -0.00023812501 -0.0032918926
-0.014759125 -0.001190625 -0.0021908111
-0.017746093 0.00013890625 -0.003763784
-0.018038932 0 -0.004235676
-0.018038932 1.8189894e-12 -0.003763784
-0.017746093 0.00013890625 -0.004235677
-0.0099175088 -0.00023812499 -0.0047075674
-0.0099175088 -0.00023812499 -0.0052581076
-0.010198635 -0.00022224999 -0.0047075679
-0.010229871 0.00015875 -0.0052581108
-0.0099175088 7.9375e-05 -0.0052581085
-0.010198635 -0.00022224999 -0.0037637837
-0.019756926 -0.00079374999 -0.0025054056
-0.019288383 -0.001190625 -0.0021908106
-0.019288382 -0.0003175 -0.0021908106
-0.020694014 0.00079375011 -0.0021908106
-0.013743945 -0.0011906251 -0.00077513536
-0.014290582 0.00023812505 -0.0021908111
-0.014290583 0.00079375011 -0.0021908109
-0.013743951 0.00023812505 -0.0021908118
-0.013743949 0.00079375005 -0.0021908113
-0.013041133 -0.00023812501 -0.0025054056
-0.013743949 -0.0011906251 -0.0017189193
-0.014290584 -0.001190625 -0.001718919
-0.014290584 -0.0011906251 -0.0012470273
-0.012728769 -0.00023812501 -0.0042356756
-0.010229872 0.00015875 -0.0072243223
-0.010223864 0.00015264424 -0.0076901657
-0.0099175079 0.00011339286 -0.0072467956
-0.0099175088 -0.00015875 -0.0080108112
-0.0099175088 7.9375e-05 -0.004235676
-0.012728768 0.00015875 -0.0042356765
-0.010217376 0.00014604999 -0.0032918914
-0.012385172 -0.00022225 -0.0025683246
0.020537833 -0.00015875 -0.0067524328
0.012416408 7.9375e-05 -0.0076962165
0.010210347 0.00013890625 -0.0058086501
0.010198635 -0.00022224999 -0.006280541
0.017735755 0.00014941176 -0.0052534826
0.018038932 -1.8189894e-12 -0.0052581085
0.020537833 -0.00015875 -0.005258108
0.016242847 -0.0008135938 -0.00032290549
0.016789487 -0.0008135938 -0.00032290549
0.016789483 -0.00031750003 -0.0003032434
0.017739065 0.00014604999 -0.0062742494
0.017739063 0.00014604999 -0.0067524319
0.01772657 -0.00023812501 -0.0067524319
0.018038932 -3.6379788e-12 -0.0067524328
0.015540033 -3.6379788e-12 -0.0067524328
0.015247194 -0.00022820312 -0.0067524319
0.020537833 7.9375e-05 -0.0072243251
0.020537833 7.9375e-05 -0.0067524319
0.015540033 -5.4569682e-12 -0.003763784
0.017726572 0.00015875 -0.0072243223
0.013743949 0.001190625 -0.0025054056
0.013228551 0.00117475 -0.0025054056
0.012416408 7.9375008e-05 -0.004235676
0.01272877 0.00015875 -0.0037637847
0.012728769 -0.00023812501 -0.0032918919
0.013041133 -0.00015875 -0.0025054056
0.012728768 0.0011906251 -0.0017189193
0.012728769 0.001190625 -0.0012470272
0.017258026 0.001190625 -0.0021908109
0.016789483 0.001190625 -0.0021908109
0.017258026 0.001190625 -0.0017189191
0.017726569 0.001190625 -0.0017189193
0.01124505 0.001190625 -0.0021908106
0.01124505 0.001190625 -0.0025054056
0.010760887 0.00085725001 -0.0025054056
0.0099175088 0.00015875 -0.0076962165
0.0093448432 0.0012170834 -0.0025054056
0.0097613269 0.001190625 -0.0021908109
0.010229871 0.000635 -0.0025054056
0.0087305317 -0.0008255 -0.0025054056
0.0077217836 -0.0002334559 -0.0047075674
0.0076898704 -0.00023394737 -0.0052539683
0.0077114496 0.00013890625 -0.0047075674
0.0074186092 0.00015875 -0.004235676
0.0077114501 0.00013890625 -0.0032918921
0.0081995148 0.00079374999 -0.0025054056
0.0074186088 -0.0001984375 -0.0076962165
0.0074186088 -0.0001905 -0.0052738385
0.0074186088 -0.00022225 -0.0058086487
0.0074186092 0.00015875 -0.0058086487
0.0077114482 -0.00023812499 -0.0058086496
0.0077114496 0.00013890625 -0.0058086496
0.0077114492 0.00013890625 -0.0067524319
0.0049197082 0.00015875 -0.0058086487
0.0049197082 0.00015875 -0.005258108
0.0051720021 -0.00023201923 -0.0072364234
0.0051720017 -0.00023201923 -0.0067403321
-0.0023817639 0.0001190625 -0.0067524319
-0.0023427187 -0.00023812499 -0.0067524319
-0.0026550808 -0.00023812499 -0.0067524319
-0.0023427187 -0.00023812499 -0.0058086496
-0.0023427187 -0.00023812499 -0.0062805414
0.0049197087 -0.00015875 -0.0080108112
-0.00015618125 0.00015875 -0.006280541
0.012221182 0.00083343749 -0.0025054056
0.012416408 7.9375e-05 -0.0032918921
0.010210349 0.00013890625 -0.0032918917
0.010198634 -0.00022224999 -0.0058086491
0.011760447 -0.0008255 -0.0025054056
0.010198635 -0.00022224999 -0.0076962174
0.010698414 -0.0011906251 -0.0021908106
0.01124505 -0.0011906251 -0.0021908109
0.01124505 -0.001190625 -0.0017189193
0.011791683 -0.001190625 -0.0017189191
0.012728769 -0.00023812501 -0.0072243232
0.010198635 -0.00022224999 -0.0067524319
0.012416408 7.9375e-05 -0.0067524328
-0.0023817639 0.0001190625 -0.0072243237
0.0023427184 0.00015875 -0.0067524319
0.0024208091 -0.00023812499 -0.0062805414
0.0023427184 0.00015875 -0.0058086501
0.0026550812 0.00015875 -0.005258109
-0.002264628 -0.0011906251 -0.0017189191
-0.0032017152 -0.0011906251 -0.00077513524
-0.0027331719 -0.0011906251 -0.0012470271
-0.0032017152 -0.0011906251 -0.0012470273
-0.0037483496 -0.0011906251 -0.0012470272
-0.0042949836 -0.001190625 -0.0012470271
-0.004294984 -0.001190625 -0.00077513524
-0.0052320715 -0.001190625 -0.0021908109
-0.0057006148 -0.001190625 -0.0021908109
-0.0057006152 -0.0011906251 -0.0017189193
-0.0047635282 -0.001190625 -0.0021908106
-0.006247249 -0.001190625 -0.0012470271
-0.0067938836 -0.001190625 -0.0012470271
-0.0032329515 0.00117475 -0.0025054056
-0.0037483496 0.00079374999 -0.0025054053
-0.0032017154 0.00079374999 -0.0025054056
-0.0037483498 -0.00079374999 -0.0025054053
-0.0037483498 -0.001190625 -0.0025054056
-0.0026550805 0.00015875 -0.0042356765
-0.0026550808 -0.00023812499 -0.0042356756
-0.00015618125 -0.00023812499 -0.0032918926
-0.0049197082 0.00015875 -0.0047075679
-0.0049197082 -0.00023812499 -0.0047075674
-0.0051539806 0.00015875 -0.0047075674
-0.0051539815 0.00015875 -0.004235676
-0.0051539815 -0.00023812499 -0.0037637837
0.00015618124 -0.00023812499 -0.0072243237
0.00070281548 -0.0011906251 -0.0021908106
-0.00023427187 -0.001190625 -0.0021908109
0.0017960841 -0.00079374999 -0.0025054056
0.0012494499 -0.00079374999 -0.0025054053
0.00015618124 0.00015875 -0.0037637837
0.00015618124 -0.00023812499 -0.005258108
0.0024208091 -0.00023812499 -0.0076962155
0.0026550808 -0.00023812499 -0.0072243237
0.0037483498 -0.0011906251 -0.0017189193
0.0022646277 -0.0011906251 -0.0012470272
0.0027331719 -0.0011906251 -0.0012470271
0.0027331719 -0.0011906251 -0.0017189191
0.0032017152 -0.0011906251 -0.0012470271
0.0032017152 -0.001190625 -0.0021908109
0.0049197082 -0.00023812499 -0.006280541
0.0051720021 -0.00023201923 -0.0062805414
-0.017258028 0.0011906251 -0.0017189189
-0.017414209 -0.00015875 -0.0025054056
-0.016242849 -0.00029765631 -0.00032290549
-0.016242849 -0.00081359391 -0.00032290549
-0.014290584 0.0011906251 -0.00077513524
-0.013197316 0.0011906251 -0.00077513524
-0.011791684 0.0011906251 -0.0021908106
-0.017746095 0.00013890625 -0.0076962155
0.0032017154 0.00079374999 -0.0025054056
0.002655081 0.00015875 -0.0032918917
0.0051774075 0.000142875 -0.0032840271
0.0057006152 0.00079374999 -0.0025054056
0.0061691585 0.0003175 -0.0025054056
0.006247248 0.0011906251 -0.00077513524
0.0058047362 0.0011641667 -0.0025054056
0.0052320715 0.000714375 -0.0025054056
0.0046854368 0.001190625 -0.0025054056
0.004294984 0.001190625 -0.0025054056
0.0042949836 0.0011906251 -0.00077513524
0.004294984 0.0011906251 -0.0003032434
0.020537833 -0.00015875 -0.006280541
0.020850195 -0.000635 -0.0025054056
-0.022776432 0.00010583333 -0.0058086496
-0.021787282 0.001190625 -0.0017189193
-0.019288383 -0.0011906251 -0.0017189191
-0.019756926 -0.001190625 -0.001718919
0.022802463 -0.00015875 0.0012697296
-0.020256706 -0.00022224999 -0.006280541
-0.021787282 0.00023812502 -0.0021908116
-0.016789483 -0.0011906251 -0.0012470272
-0.015696213 -0.0011906251 -0.00077513524
-0.016242849 -0.0011906251 -0.00077513524
-0.020244995 0.00013890625 -0.004235677
-0.017746095 0.00013890625 -0.0047075674
0.015227668 0.00015875 -0.0067524319
0.020537833 7.9374993e-05 -0.0047075674
0.018038932 0 -0.003763784
-0.014290583 0.0008135938 -0.00032290549
-0.014915307 -0.0003175 -0.0025054056
-0.013743949 -0.00029765631 -0.00032290549
-0.013743948 -0.00081359386 -0.00032290549
-0.010698414 -0.0008135938 -0.0003229056
0.01522767 0.00015875 0.0017416216
0.019288382 -0.001190625 -0.0012470272
0.019288383 -0.001190625 -0.0017189193
0.018741747 -0.0011906251 -0.0012470273
0.018741749 -0.0011906251 -0.00077513524
0.018741749 -0.0011906251 -0.0017189193
0.019756926 -0.0011906251 -0.001718919
0.018741744 -0.00031750009 -0.0003032434
0.019288382 -0.00081359386 -0.00032290549
0.019288383 -0.001190625 -0.0003032434
0.020225473 -0.0011906251 -0.00077513536
0.019756924 -0.0011906251 -0.0003032434
0.020225471 -0.0011906251 -0.0003032434
0.020244993 0.00013890625 0.0012697298
0.017258026 -0.0011906251 -0.0012470272
0.016789483 -0.0011906251 -0.0003032434
0.016242847 -0.0011906251 -0.00077513524
0.016242849 -0.001190625 -0.00030324329
0.015227671 -0.001190625 -0.0012470271
0.013197317 -0.001190625 -0.0021908106
0.014759125 -0.0011906251 -0.0003032434
0.015696215 -0.0011906251 -0.00077513512
0.02124065 -0.001190625 -0.00077513524
0.021781033 -0.00030479999 -0.0003158272
0.01124505 -0.0011906251 -0.00030324329
0.011791681 -0.001190625 -0.00077513524
0.011245051 -0.0008135938 -0.00032290549
0.010698414 -0.0011906251 -0.00077513524
0.010229871 -0.0011906251 -0.00077513512
0.010698414 -0.001190625 -0.0003032434
0.011791683 -0.0008135938 -0.00032290549
0.012260228 -0.0008135938 -0.0003229056
0.011791683 -0.001190625 -0.0021908106
0.011791684 -0.0011906251 -0.0012470272
0.01772657 -0.00023812501 -0.0047075679
0.017746091 -0.00022820312 -0.0032820613
0.017375164 -0.0003571875 -0.0025054056
0.0097613279 -0.001190625 -0.0012470271
0.0097613288 -0.0011906251 -0.0021908109
0.0077309716 -0.0011906251 -0.0003032434
0.0081995139 -0.001190625 -0.0003032434
0.0072624269 -0.0011906251 -0.00077513524
0.0081995139 -0.0011906251 -0.00077513524
0.008746149 -0.00081359386 -0.00032290549
0.0081995139 -0.0008135938 -0.00032290549
0.006247249 -0.001190625 -0.0017189193
0.0072624269 -0.0011906251 -0.0021908109
-0.011791683 -0.001190625 -0.0003032434
-0.012728769 -0.001190625 -0.00030324329
0.0099175088 0.00015875 0.0012697296
0.0099175088 0.00015875 0.0017416216
0.010210348 0.00013890625 0.00079783797
0.010698414 0.0008135938 -0.00032290549
0.01772657 -0.0002334559 0.0012789825
0.017736332 -0.00022820312 0.00080766878
0.017258028 -0.0008135938 -0.0003229056
-0.018195113 -0.001190625 -0.0012470272
-0.015227669 -0.0011906251 -0.001718919
-0.02178728 -0.0011906251 -0.0003032434
-0.020694012 -0.0011906251 -0.0012470273
-0.02124065 -0.001190625 -0.0012470271
-0.020244995 0.00013890625 0.0022135135
-0.020256706 -0.00022224999 0.0017416214
-0.017757805 -0.00022224999 0.0017416216
-0.021240652 -0.00029765631 -0.00032290549
-0.020256706 -0.00022224999 0.0012697296
-0.015540034 1.8189894e-12 0.00079783774
-0.016242843 0.00021647733 -0.00031754305
-0.015696215 0.0008135938 -0.00032290549
-0.010698416 -0.0011906251 -0.0017189191
-0.010229871 -0.001190625 -0.001247027
-0.007730972 -0.0011906251 -0.0003032434
-0.0074186088 -0.00023812499 0.0012697296
-0.0067938836 -0.001190625 -0.0003032434
-0.006247249 -0.0011906251 -0.0003032434
0.020256707 -0.00022224999 0.0012697296
0.00015618124 0.00015875 0.00079783774
0.00015618122 -0.00023812499 0.0012697296
-0.0012494499 -0.001190625 -0.0021908109
0.002264628 -0.0011906251 -0.0021908106
0.002264628 -0.001190625 -0.0025054056
-0.002655081 0.00015875 0.00079783774
-0.0037483498 0.00021647732 -0.00031754316
-0.0032017149 0.001190625 -0.0003032434
-0.0037483496 0.001190625 -0.0003032434
-0.0032017156 0.0008135938 -0.00032290549
-0.0017960841 -0.0011906251 -0.0003032434
-0.0027331719 -0.001190625 -0.00077513524
-0.002264628 -0.001190625 -0.00077513524
-0.0007028156 -0.00081359386 -0.00032290549
-0.00015618125 0.00015875 0.0012697298
-0.0023817639 -0.0001984375 0.0025674324
0.00011713593 -0.0001984375 0.0025674324
-0.00070281548 -0.0011906251 -0.0017189189
-0.001796084 -0.0008135938 -0.00032290549
0.0012494503 -0.0008135938 -0.00032290549
0.0052320715 -0.0011906251 -0.00077513524
0.005153981 -0.00023812499 0.0017416214
0.0042949836 -0.0008135938 -0.00032290549
0.0042949836 -0.0011906251 -0.0012470272
0.0047635273 -0.001190625 -0.0012470273
0.0047635278 -0.0011906251 -0.0017189191
0.0057006157 -0.0011906251 -0.0012470272
0.0047635278 -0.001190625 -0.0021908106
