# .PCD v0.7 - Point Cloud Data file format
VERSION 0.7
FIELDS x y z
SIZE 4 4 4
TYPE F F F
COUNT 1 1 1
WIDTH 1162
HEIGHT 1
VIEWPOINT 0 0 0 1 0 0 0
POINTS 1162
DATA ascii
-0.0097491154 0.0011545455 -0.0012530766
-0.0090767657 -0.00017318182 0.0022725
-0.0090767657 -0.00017318182 0.0017688461
-0.0090767639 0.0001731818 0.0017688461
-0.014698379 0.0010775758 -0.00074942317
-0.014211094 0.0011125621 -0.00030173094
-0.014698379 0.001077576 -0.00030173094
-0.015063902 0.00072571432 -0.0012530771
0.01384727 0.00014844157 0.0012651922
-0.011349957 0.00014844157 0.0022485165
-0.011385175 -0.00016163636 0.0025746922
-0.011396383 9.2363633e-05 0.0026194614
-0.011542059 9.2363647e-05 0.0025970771
-0.01132832 0.0001539394 0.00076361117
-0.013727204 0.0011545456 -0.00030173094
-0.014087399 9.8961042e-05 -0.0032676917
-0.013850471 9.2363654e-05 -0.0032676917
-0.013727203 0.0011545456 -0.0022044242
-0.013846572 -0.00019577077 -0.0057348688
0.013278965 0.0011545456 -0.0012530766
0.013727198 0.0011545455 -0.0012530766
0.013278965 0.0011545456 -0.0007494234
0.013727202 0.0011545456 -0.00074942329
0.013278966 0.0011462988 -0.00026175845
0.0092448564 0.0011545456 -0.00074942317
0.0092448564 0.0011545455 -0.00024576939
0.0087405927 0.0011545451 -0.0012530764
0.0092448564 0.0011545456 -0.0012530766
0.01176618 0.0011545453 -0.0017567304
0.011772584 0.0011479482 -0.0022443968
0.011766179 0.0011545455 -0.00074942352
0.011261913 0.0011545456 -0.0007494234
0.0097491154 -0.0011545456 -0.0017567308
0.0097491154 -0.0011440498 -0.0021891622
0.0082353009 -0.0011461488 -0.0022400359
-0.014210124 0.001107814 -0.0021964293
-0.015015882 0.0010390909 -0.0012530771
-0.014701049 0.0010775758 -0.0021804397
-0.015015882 0.0010390909 -0.0017567308
-0.014087399 9.8961056e-05 -0.0047786538
-0.01410134 -0.00018621702 -0.0042822217
-0.014087399 9.8961056e-05 -0.0042750002
-0.014087399 9.8961042e-05 -0.0052263467
0.014231461 0.0011545456 -0.00074942352
0.013847272 0.00014844154 -0.0057300017
0.014108201 0.00013854547 -0.0057300013
0.014108206 0.00013854548 -0.0052263481
0.013847271 0.00014844157 -0.0052263462
0.011590081 0.00014844157 -0.0072409613
0.011590079 0.00014844157 -0.007744614
0.011325943 0.00014844157 -0.0072436268
0.011322515 0.00013430428 -0.007740045
0.01384727 0.00014844157 -0.0072409613
0.013278964 0.0011462987 -0.0022443968
0.013895294 -0.00011545455 -0.0081363469
0.01156696 8.979797e-05 -0.0081425644
0.011542059 -0.0001539394 -0.0081176925
0.011381974 -0.00014844156 -0.0081443414
0.011317939 0.00015812255 -0.0037786441
0.010757642 0.0011462986 -0.0022443968
0.011328132 0.00015743801 -0.0032676912
0.01159008 0.00014844157 -0.0032676917
0.011385175 8.0818179e-05 -0.008136346
-0.0097491192 0.00021083004 -0.00026036799
-0.0097491145 0.00077931857 -0.00028774061
-0.0090767639 0.00017318183 0.00076153851
-0.0082363207 -0.0011545456 -0.002204424
-0.0087522967 -0.0011545453 -0.0022336578
-0.0092448546 -0.0011545456 -0.001756731
-0.0092448564 -0.0011545452 -0.0012530768
-0.0092519857 -0.0011524465 -0.0022400361
0.0015688235 0.00011545455 -0.0052263462
0.0012326476 0.0001731818 -0.0052263467
0.001232647 0.00017318179 -0.0047786543
0.0013447058 0.00057727273 -0.0025961539
0.0015688236 0.00011545455 -0.0032676922
0.0012372212 0.00016964748 -0.0032699776
0.0012326475 0.0001731818 -0.0067373114
0.0012486554 -0.00022266229 -0.0067373114
0.0015688235 0.00011545455 -0.0072409613
-0.0012419855 -0.00022609842 -0.0077430634
-0.0015688234 -0.00017318182 -0.0072409622
-0.0015688234 5.7727273e-05 -0.0062336549
-0.0015688234 5.7727273e-05 -0.0067373076
0.0015688235 -0.00011545454 -0.0076886546
-0.01385047 9.2363647e-05 -0.0062336549
-0.013850471 9.2363647e-05 -0.0057300017
-0.014087399 9.8961049e-05 -0.0057300022
-0.01385047 9.236364e-05 -0.0052263453
-0.013850468 9.236364e-05 -0.0047786538
0.0072277929 -0.0011545457 -0.001756731
0.0072354851 -0.0011522818 -0.0022208837
0.011328126 0.00015743803 -0.0052263481
0.0097491154 0.0011545452 -0.0012530768
0.010253375 0.0011545457 -0.0012530766
0.0097491154 0.0011545453 -0.00074942329
0.010757644 0.0011545458 -0.00074942352
0.010253375 0.0011545457 -0.00024576939
0.010253377 0.0011545456 -0.001756731
0.015071906 -0.00028863639 -0.00074942329
0.015071907 -0.00027214288 -0.00032571447
-0.0062752953 -0.0011545457 -0.0017567306
-0.0040341173 -0.00023090908 -0.0032676929
-0.0052759326 0.00024140494 -0.0022298619
-0.005263994 -0.00029077442 -0.002207879
-0.0047560972 -0.00029523374 -0.0022284081
-0.0040341173 -0.00017318182 -0.0080803847
-0.006611472 0.00011545455 -0.0067373076
-0.0066114715 0.00011545455 -0.0072409622
-0.0066114706 -0.00017318182 -0.0072409622
-0.0062919841 -0.00021862668 -0.0072421515
-0.0088118967 -0.00022041319 -0.0067373104
-0.0090767657 -0.00017318182 -0.0067373076
-0.0088118995 -0.00022041322 -0.006233654
-0.0088254819 0.00014519283 -0.0067339186
-0.0034738237 -0.0001539394 -0.0072036553
0.00072838221 -0.0011545453 -0.002260386
-0.0012326472 -0.001154545 -0.0022603862
-0.0012419854 -0.00022609842 -0.0032661366
-0.0017369115 -0.0011545457 -0.0022603858
-0.0012403753 -0.00022692789 -0.0037713451
-0.0037539715 -0.00023090905 -0.0052263481
-0.0037539708 -0.00023090906 -0.0042749974
-0.0063243201 0.00015153408 -0.0067373123
-0.0040341173 -0.00023090908 -0.0067373076
-0.0040341173 0.00017318182 -0.0062336549
-0.0047625001 -0.0011545455 -0.0022603858
-0.0042612655 -0.0011545455 -0.0022573611
-0.0047646831 -0.00075570267 -0.0022516649
-0.0052580452 -0.00075302023 -0.0022355143
-0.0077320575 -0.0011545453 -0.0012530766
-0.0062980871 -0.00022112479 -0.0077408208
-0.0088267857 0.00014209792 -0.0072409622
-0.0090767657 -0.00017318182 -0.0072409622
-0.0090767657 -0.00017318182 -0.0052263467
-0.0088161631 -0.00022016912 -0.0047825607
-0.0088118995 -0.00022041322 -0.0052263481
-0.0066114711 -0.00017318182 -0.0057299999
-0.006291985 -0.00021862668 -0.0052275388
-0.010248282 0.00075395318 -0.0022129035
-0.010253377 0.0011545456 -0.0022044245
-0.0034738234 3.6379788e-12 -0.0037713465
-0.0034738234 -4.5474735e-12 -0.0042750007
-0.0022458455 0.0011545452 -0.002251059
-0.0022366031 0.00075281062 -0.0022558181
-0.0027454395 0.0011545453 -0.0022603858
-0.0063243201 0.00015153407 -0.0032676917
-0.0052667609 0.0011545452 -0.0022603862
-0.0063243201 0.00015153407 -0.0042749983
-0.0063243206 0.00015153406 -0.0037713449
-0.006290752 -0.00021697491 -0.0042769271
-0.0082363216 -0.00077931827 -0.00028774049
-0.0088118995 -0.00022041319 0.00076153851
-0.0062752953 -0.0011545455 -0.00024576939
-0.0040341173 -0.00022041322 0.0022572374
-0.0037539706 -0.00017318183 0.0025896158
-0.0037875883 8.0818187e-05 0.0026250577
-0.0040341173 0.00014209791 0.002242367
-0.0063097742 -0.00023090909 0.0012651922
-0.0097491154 -0.0011545452 -0.0012530766
-0.0097491154 -0.0011545457 -0.00074942352
-0.010253375 -0.0011545455 -0.0012530766
-0.0092448546 -0.0011545456 -0.0007494234
-0.0092448574 -0.0011545453 -0.00024576939
-0.010254083 -0.00075264706 -0.0022575525
-0.0090767657 -0.00017318182 -0.0032676929
-0.0052667633 0.0011545455 -0.00074942352
-0.0052667619 0.001154545 -0.00024576939
-0.011342842 -0.00021380471 0.0022455554
-0.011589241 -0.00020052632 0.0022636636
-0.011586882 -0.00020781817 0.0017688461
-0.014100738 -0.00018280304 -0.0072502876
-0.0088251624 0.00014595198 -0.0062325969
-0.0090767639 0.00017318182 -0.0067373076
-0.011591495 0.00014262031 -0.0077380305
-0.013895294 -0.00011545455 -0.0081363469
0.0037692524 -0.00022251238 -0.0077405451
0.0037692527 -0.00022041319 -0.0072409613
0.0040341173 -0.00017318182 -0.0072409622
0.0022457822 -0.0011513821 -0.0022542535
0.0022411782 -0.00075045443 -0.0022603862
0.0027454398 -0.0011545455 -0.002260386
0.0034738232 -0.00011545455 -0.0037526924
0.0034738234 -0.00011545455 -0.0041630771
0.0034738232 -0.00011545455 -0.0032303848
0.002241177 -0.0011545453 -0.0017567307
0.0062870909 0.00016406697 -0.0067373132
0.0040527936 0.00014431817 -0.0067466348
0.0037539694 0.00018692639 -0.0067346469
0.0040465682 0.0001539394 -0.0062460909
0.0062870909 0.00016406697 -0.0072409641
0.0066114706 -0.00011545455 -0.0072409622
0.0090767648 0.00011545455 -0.0067373076
0.014108206 0.00013854544 -0.0037713465
0.014097002 -0.00016163637 -0.0032676919
0.013839262 -0.00017318182 -0.0047786534
0.013839262 -0.00017318182 -0.0052263457
0.014097002 -0.00016163637 -0.0047786538
0.013847271 0.00014844154 -0.0047786538
0.014097004 -0.00016163636 -0.0057300017
0.013895293 7.69697e-05 0.0025896153
0.014082061 -0.00016676768 0.002260064
0.013847267 -0.00016493509 0.002256511
0.012270446 0.0011462988 -0.00026175845
0.011333947 -0.00019792211 0.00076153851
0.011328127 0.000157438 0.0012651922
0.011333948 -0.0001979221 0.0012651924
0.0057710311 -0.0011545456 -0.00024576939
0.0062752957 -0.0011545451 -0.00024576939
0.0062752953 -0.0011545456 -0.0007494234
0.0032497048 -0.0011545453 -0.0017567306
0.0032497055 -0.0011545452 -0.0012530766
0.0037539704 -0.0011545458 -0.0012530771
0.0082363207 0.0011545455 -0.0012530768
0.012774706 -0.0011545456 -0.00074942352
0.014220797 -0.0011050651 -0.0017514012
0.015015882 -0.0010390909 -0.001756731
-0.0032466766 0.0011529851 -0.0022573611
-0.001242477 -0.0002248325 0.0022656282
-0.0012787888 8.1497317e-05 0.0026049775
0.0012774706 -0.00016163636 0.0025858849
0.0012416121 0.00016163636 0.0022702606
0.0012646638 0.00012370131 0.0026482416
-0.0015688234 -0.00017318182 0.0012651922
-0.0034738237 -0.00016493506 0.0012571977
-0.001240375 -0.00022692786 -0.0062336521
-0.0012513236 0.00015393937 -0.0042749993
-0.0012513236 0.00015393937 -0.0037713444
-0.001232647 0.0011545453 -0.002260386
-0.00072838244 0.0011545453 -0.002260386
-0.0057710283 0.0011545456 -0.0017567311
-0.0063243201 0.00015153407 -0.0052263457
-0.00028014692 0.0011545457 -0.0022603858
-0.00072838232 0.0011545456 -0.0017567306
-0.00028014701 0.0011545456 -0.0017567311
-0.0067795562 0.0011545456 -0.0012530766
-0.0067795571 0.0011545456 -0.0017567308
-0.0062752953 0.0011545455 -0.0012530768
0.00022411758 -0.00077519508 -0.00031772
-0.0037539704 0.0011545456 -0.0017567308
-0.0042582345 0.0011545455 -0.0017567301
-0.0042619086 0.0011564383 -0.0022090117
-0.0032497058 0.0011545456 -0.0007494234
-0.0027454409 0.0011545456 -0.0007494234
-0.0027454416 0.0011545455 -0.00024576939
-0.0042582336 0.0011545455 -0.0007494234
-0.0047625005 0.0011545456 -0.00024576939
-0.0042582355 0.0011545452 -0.00024576939
-0.0047625005 0.0011545456 -0.0022603862
-0.0015688234 5.772728e-05 0.0017688461
-0.0034738237 5.1313131e-05 0.0017688461
-0.0034738234 4.5474735e-12 0.0012651922
-0.0037539713 -0.00023090909 0.0012651924
-0.0022411763 0.0011545453 -0.0007494234
-0.0017369118 0.0011545456 -0.00074942329
0.0012419855 0.00016596587 0.0017700109
0.0012595413 -0.00021474547 0.002254593
0.0015688235 -0.00011545455 0.0022165382
0.0015688235 -0.00011545454 0.0017688461
0.0015688234 0.00011545455 0.0022165386
0.0015688236 0.00011545455 0.00076153828
0.0015688235 0.00011545455 0.0012651924
-0.002241177 -0.00026939396 -0.00026442332
0.00072838232 0.0011545455 -0.002260386
0.0012326475 0.0011545453 -0.0022603862
0.00072838215 0.00075045472 -0.0022603862
0.00022411761 0.0011545452 -0.0022603862
0.00022411747 0.00075045443 -0.0022603865
0.00022411757 0.0011545456 -0.0017567306
0.0002241175 -0.00026939387 -0.0002644232
0.00022411741 0.00023090911 -0.00024576951
-0.00089647056 -0.00017318182 8.9999987e-05
-0.00089647056 5.7727273e-05 8.9999987e-05
0.00022411757 0.00077519513 -0.00031772
-0.013727203 -0.0011545456 -0.0017567306
-0.013278965 -0.0011545453 -0.0012530766
-0.013278965 -0.0011545456 -0.00074942329
-0.012774706 -0.0011545456 -0.0007494234
-0.014231464 -0.0011545457 -0.0007494234
-0.014231465 -0.0011462989 -0.00026175845
-0.010253377 -0.0011545456 -0.00074942317
-0.010757641 -0.0011545455 -0.0012530764
-0.010256224 -0.0011525886 -0.00024956337
-0.010754612 -0.0011529853 -0.00024879433
-0.010253377 -0.0011545456 -0.0017567306
-0.01074406 -0.0011510467 -0.0022298617
0.0012486557 -0.00022266232 -0.0032676912
0.00072838215 -0.00075045472 -0.0022603862
0.00022411745 -0.00075045443 -0.0022603862
0.0037539715 0.0001731818 -0.0062336531
0.0062870914 0.00016406699 -0.0052263471
0.0062870914 0.00016406697 -0.0047786552
0.0063466043 -0.00022041322 -0.0047786566
0.0037692522 -0.00022041322 -0.0067373114
0.0034738234 -0.00011545455 -0.0072409622
0.0034738232 0.00011545455 -0.0037713461
0.0032497058 0.0011545451 -0.0022603862
0.013278966 -0.0011545456 -0.001756731
0.012774706 -0.0011545457 -0.0017567307
0.0062752948 -0.0011545455 -0.0012530766
0.0057710311 -0.0011545455 -0.0012530766
0.0067795566 -0.0011545456 -0.0017567308
0.012774707 -0.0011440498 -0.0003169931
0.013727206 -0.0011440498 -0.00031699322
0.0082363207 -0.0011545456 -0.001756731
0.0077320584 -0.0011462985 -0.0022443968
0.0087405862 -0.0011545455 -0.0017567307
0.0090767657 0.00011545455 -0.0062336549
0.0090767648 0.00011545455 -0.0057300013
0.0088078249 0.00016163633 -0.0062336531
0.0088302363 -0.00021936363 -0.0052263481
0.0088302363 -0.0002193636 -0.0042749979
0.0088302363 -0.00021936368 -0.0062336549
0.0088354079 -0.000222028 -0.0037727803
0.011598089 -0.00017318182 -0.0057300008
0.013278965 -0.0011440498 -0.002189162
0.0090767648 -0.00011545455 -0.0080803847
0.0091026258 -0.00015986015 -0.0077446168
0.00910878 9.8961042e-05 -0.0077446159
0.0090767657 -0.00017318182 -0.0072409622
0.010253378 -0.0011440498 -0.0021891615
0.010754211 -0.00074692012 -0.0022558179
0.010258468 -0.00075570267 -0.0022516649
0.010757647 -0.0011440498 -0.0021891622
0.011324944 -0.00018400568 -0.0077341208
0.0040565291 0.00013854547 -0.0072409613
0.0034738237 7.6969693e-05 -0.0072596157
0.0040341173 -0.00017318182 -0.0032676929
0.0047602132 0.00023562154 -0.0022558179
0.0040341173 -0.00017318182 -0.0037713463
0.0052652266 -0.0011513825 -0.0022542533
0.0022411777 -0.00028863639 -0.0022603862
0.0027454409 -0.00028863637 -0.002260386
0.0027454421 0.00023090911 -0.00024576951
0.003473823 0.00011545455 0.00076153851
0.0022411766 0.00023090911 -0.00024576939
0.0062870909 0.00016406694 -0.0057300003
0.0063466043 -0.00022041322 -0.0057299994
0.0066114715 0.00011545455 -0.0052263462
-0.013850471 9.2363647e-05 -0.0042750011
-0.013278966 0.0011545457 -0.0022044242
-0.013278964 0.00075045461 -0.0022044242
-0.012774706 0.0011545455 -0.0007494234
-0.012774706 0.00076694821 -0.00032571447
-0.013727204 0.0011545456 -0.0007494234
-0.010757645 0.0011545456 -0.0017567313
-0.010757646 0.0011545456 -0.0022044245
-0.011766182 0.0011545455 -0.0012530766
-0.011762505 0.0011526528 -0.00029714394
-0.011261911 0.0011545456 -0.0007494234
-0.012774706 -0.0011545452 -0.0012530766
-0.012270447 -0.0011545456 -0.0012530766
-0.011324731 -0.00021691459 -0.0052314345
-0.011586882 -0.0002078182 -0.0052263453
-0.011586882 -0.00020781816 -0.0057300017
-0.01158688 -0.0002078182 -0.0062336549
-0.011331946 -0.00021647729 -0.0062336549
-0.014102437 -0.00019242427 0.0017688461
-0.014087399 9.8961063e-05 0.0017688461
-0.0077320612 0.0011545455 -0.00074942329
-0.0066114715 9.7692304e-05 0.00077014789
-0.0072277947 0.00077931845 -0.00028774049
-0.0063243201 0.00015153407 0.00076153851
-0.0092448564 0.0011462988 -0.00026175845
-0.0092448574 0.0011545455 -0.0012530771
-0.0092448555 0.0011545457 -0.0017567308
-0.0088225799 -0.00021964527 0.0022602163
-0.0088526467 -0.0001539394 0.0025896153
-0.0090767648 -0.00011545455 0.0025523074
-0.014102437 -0.00019242425 0.00074797217
-0.013848603 -0.0002020455 0.00075221155
-0.015015882 0.0010390909 -0.00074942317
-0.015015882 0.0010390909 -0.00030173094
-0.014735742 0.0007637763 -0.00034047349
-0.015055102 0.00073890918 -0.00035209639
-0.015063903 0.00072571432 -0.00074942317
0.013847273 0.00014844157 0.00076153828
0.014097002 -0.00016163636 0.00076153851
0.0097491154 0.0011545452 -0.00024576939
0.0090767657 0.00011545455 0.0012651922
0.010253377 0.0011545456 -0.00074942329
0.011590083 0.00014844156 0.0012651924
0.011328132 0.000157438 0.0017688458
0.01159008 0.00014844157 0.0017688461
-0.011590081 0.00014844154 0.0012651924
-0.011328364 0.00015304441 0.0012664939
-0.011590079 0.00014844157 0.00076153828
-0.011590079 0.00014844157 0.0017688461
-0.011586881 -0.0002078182 0.0012651924
-0.010253375 0.00077931839 -0.00028774049
-0.013278966 0.00076694821 -0.00032571447
-0.014105968 -0.00018472728 -0.0037825392
-0.014101342 -0.00018621702 -0.0032604712
-0.011331947 -0.00021647727 -0.0057300022
-0.01158688 -0.0002078182 -0.0047786534
-0.012774706 0.00075045472 -0.0022044247
-0.012270447 0.00075045461 -0.0022044242
-0.012270448 0.00023090905 -0.0022044247
0.013278966 0.0011545456 -0.0017567305
0.012774706 0.0011545453 -0.0012530764
0.013727201 0.0011462988 -0.00026175845
0.008740589 0.0011545457 -0.0017567308
0.0090767648 0.00011545455 -0.0032676929
0.0090767657 0.00011545455 -0.0037713463
0.010757644 -0.0011545455 -0.0017567306
0.011319911 0.00015799041 -0.0042749974
0.01159008 0.00014844157 -0.0042750002
0.011333947 -0.00019792211 -0.0042750002
-0.014211094 0.0011125623 -0.0017567307
-0.01469838 0.001077576 -0.0017567311
-0.014100738 -0.00018280302 -0.0047786538
0.014231461 0.0011545456 -0.0012530766
0.012270448 0.00075045478 -0.002260386
0.013847271 0.00014844154 -0.0062336549
0.011328132 0.000157438 -0.0067373095
0.011590083 0.00014844157 -0.0062336549
0.011598089 -0.0001731818 -0.0067373076
0.011590079 0.00014844157 -0.0067373076
0.013839263 -0.00017318183 -0.0072409613
0.013842769 0.00012988638 -0.0077341208
0.010757642 0.00075045432 -0.0022603862
-0.0077320617 -0.0011545453 -0.0017567308
-0.0077205249 -0.0011494517 -0.002237343
-0.0072277887 -0.00075045472 -0.0022603862
-0.0077216299 -0.00075716717 -0.0022239464
-0.0082363216 -0.00075045467 -0.0022044245
0.0015688235 0.00011545455 -0.0047786538
0.0012354839 0.00017098962 -0.0037734697
0.0012326476 0.00017318176 -0.0057299985
0.0015688236 0.00011545455 -0.0057300013
0.0012326473 0.0001731818 -0.0062336503
0.0012486555 -0.0002226623 -0.0052263476
0.0015688235 -0.00011545454 -0.0057300003
0.0015688235 -0.00011545454 -0.0052263467
0.0015688235 0.00011545455 -0.0062336549
-0.0015688234 5.772728e-05 -0.0072409622
-0.0034738237 -0.00015875 -0.006751298
-0.0015688234 -0.00017318182 -0.0077446159
-0.0015688234 -0.00017318182 -0.0067373076
-0.0015688234 -0.00017318182 -0.0062336549
0.0015688236 0.00011545455 -0.0077446168
0.0015688235 -0.00011545455 -0.0072409622
0.0015688235 -0.00011545455 -0.0067373086
0.0082363272 -0.00075045472 -0.0022603862
0.011590083 0.00014844157 -0.0047786534
0.011328132 0.000157438 -0.0057300003
0.0090767657 -0.00018892562 -0.0057300003
0.012270446 -0.0011545456 -0.0017567311
0.012270447 -0.0011545453 -0.0012530768
0.012270445 -0.0011440498 -0.0021891617
0.011766178 -0.0011440498 -0.0021891622
0.011766178 -0.0011545455 -0.0017567306
0.01075764 0.0011545455 -0.0012530766
0.010250427 0.0011484689 -0.0022486043
-0.013727202 -0.0011545457 -0.0007494234
-0.0137272 -0.0011462989 -0.00026175845
-0.010757639 0.00075045484 -0.0022044245
-0.0032430151 -0.0011562688 -0.002233658
-0.0034738234 -0.00017318182 -0.0032676924
-0.0038099999 -0.00057727273 -0.0025961539
-0.0037539713 -0.00023090903 -0.0032676912
-0.0066114711 -0.00017318182 -0.0077446159
-0.0063528735 -0.00015097903 -0.0081492607
-0.0066114715 8.6590902e-05 -0.0077166362
-0.0088119004 -0.00022041322 -0.0072409613
-0.0088224132 0.0001356133 -0.007739285
0.00022411758 -0.0011545451 -0.002260386
0.00022411766 -0.0011545453 -0.0017567301
-0.00028014695 -0.0011545456 -0.002260386
-0.00072838232 -0.0011545455 -0.002260386
-0.0017369116 -0.0011545457 -0.001756731
-0.006328451 0.000150979 -0.0077388762
-0.0062854821 -0.00020991734 -0.0067373104
-0.0063051772 -0.00021551516 -0.0037800511
-0.0066114706 -0.00017318182 -0.0037713461
-0.0062919855 -0.00021862668 -0.0047798469
-0.0057710316 -0.00075045484 -0.0022044245
-0.004762501 -0.0011545456 -0.0017567304
-0.0037539697 -0.0011545456 -0.001756731
-0.0037511222 -0.0011525886 -0.002256592
-0.0027454412 -0.0011545455 -0.0022603858
-0.0027461501 -0.00075264706 -0.0022575525
-0.0022411782 -0.00075045443 -0.0022603862
-0.0022411768 -0.0011545453 -0.0022603862
-0.0027454405 -0.0011545456 -0.001756731
-0.0032497055 -0.0011545455 -0.00175673
-0.0037539713 -0.0011545457 -0.0012530766
-0.0022411766 -0.0011545456 -0.00175673
-0.0072277943 -0.0011545456 -0.0012530768
-0.0082363207 -0.0011545455 -0.0012530771
-0.0063243206 0.00015153408 -0.0072409641
-0.0090767648 0.00017318182 -0.0072409604
-0.0090767657 -0.00017318182 -0.0057300003
-0.0088118985 -0.00022041319 -0.0057300017
-0.0066114706 -0.00017318182 -0.0052263462
-0.0066114715 0.00011545455 -0.0062336549
-0.0088267885 0.0001420979 -0.0032676912
-0.0082363272 0.00075045478 -0.0022603862
-0.0077415896 0.00075659575 -0.0022460981
-0.0077374913 0.00023651369 -0.0022125747
-0.0072277919 0.00075045461 -0.0022044242
-0.0090767657 -0.00017318182 -0.0047786538
-0.0088152932 -0.0002202188 -0.0042749979
-0.0090767657 -0.00017318182 -0.0042750002
-0.013846572 -0.00019577077 -0.003262826
-0.013845488 -0.00019242424 -0.0037837815
-0.0037651772 0.00016163637 -0.0037713451
-0.0034738234 -6.3664629e-12 -0.0032676924
-0.0022411775 -0.00028863639 -0.0022603862
-0.0037651774 0.00016163637 -0.0052263485
-0.0034738234 9.094947e-13 -0.0052263462
-0.0090767648 0.00017318182 -0.0047786538
-0.0066114711 -0.00017318182 -0.0032676924
-0.0077320561 -0.00028863634 -0.0022044245
-0.0063873529 0.00057727273 -0.0025961539
-0.0066114711 -0.00017318182 -0.0042750002
-0.0087405918 -0.0011545453 -0.00024576939
-0.0034738237 -0.00016676768 0.0017812818
-0.0034738234 2.8863637e-05 0.0022165382
-0.0037575469 -0.0002284526 0.0022689288
-0.0034738234 -0.00016163636 0.0021941538
-0.0087405881 -0.0011545457 -0.00074942352
-0.0057710311 0.0011545456 -0.0012530771
-0.0052667619 0.0011545452 -0.0012530766
-0.011542059 -0.0001539394 0.0025896153
-0.011586882 -0.00020781819 0.00076153828
-0.012273395 -0.001148469 -0.00025755074
-0.012270448 -0.00077354559 -0.0003054617
-0.011331948 -0.00021647729 0.0017688456
-0.0052667614 -0.00077931851 -0.00028774061
-0.0057710325 -0.00077931839 -0.00028774061
-0.0040341173 -0.00023090908 0.0017688461
-0.0040341173 0.00017318182 0.0017688461
-0.0047625005 -0.0011545455 -0.0012530766
-0.0042582368 -0.0011545453 -0.0012530768
-0.0088251596 0.00014595198 -0.0052252924
-0.0090767648 0.0001731818 -0.0052263457
-0.011334284 0.0001443182 -0.0077236295
-0.011328718 0.00014653848 -0.0067330049
-0.011328363 0.00015304443 -0.0062375581
-0.0090767639 0.00017318183 -0.0057300017
-0.011590083 0.00014844157 -0.0062336549
-0.0082363198 0.0011545456 -0.0012530766
0.0015688235 -0.00011545455 -0.0042750002
0.0034738234 -0.00011545455 -0.0046667308
0.0037539694 0.0001731818 -0.0042749983
0.0040518106 0.00014583733 -0.0047757085
0.0037539699 0.00017318182 -0.0047786552
0.0040565287 0.00013854545 -0.0042750007
0.0017369116 -0.0011545455 -0.0012530768
0.002241177 -0.0011545452 -0.0012530766
0.006611472 0.00011545455 -0.0067373076
0.0066114715 0.00011545455 -0.0062336549
0.013839264 -0.00017318182 -0.0032676929
0.013278963 -0.00075045472 -0.0022044245
0.012774706 0.00075045438 -0.0022603862
0.012771972 0.00023466373 -0.0022567462
0.013847272 0.00014844157 -0.0032676917
0.01384727 0.00014844154 -0.0037713461
0.013839263 -0.00017318183 -0.0042750007
0.013847272 0.00014844157 -0.0042749997
0.014097002 -0.00016163639 -0.0052263457
0.013895294 -0.00011545455 0.0025523074
0.014108201 0.00013854547 0.0017688461
0.0090767648 -0.00011545454 0.0025523074
0.0088606505 7.4220778e-05 0.0026242582
0.0090767657 0.00011545455 0.0022725
0.010754612 0.0011529851 -0.00024879444
0.012270448 0.00023090905 -0.00024576939
0.010253375 0.00077931851 -0.00028774049
0.01075764 0.00077931851 -0.00028774061
0.011328132 0.00015743803 0.00076153828
0.0052667623 -0.0011545456 -0.0007494234
0.0047625001 -0.0011545457 -0.00024576939
0.0047625005 -0.0011545456 -0.00074942329
0.0027454402 -0.0011545456 -0.0017567306
0.004258235 -0.0011545456 -0.00074942352
0.0042582368 -0.0011545451 -0.00024576939
0.0032497055 -0.0011545456 -0.00074942352
0.0012326472 -0.001154545 -0.00024576939
0.001232647 -0.0011545453 -0.0007494234
0.0022411763 -0.0011545456 -0.0007494234
0.0022411763 -0.0011545455 -0.00024576939
0.0027454412 -0.0011545457 -0.00024576939
0.0066114706 -0.00011545455 0.0022165382
0.0063761463 -0.00016163636 0.0026082692
0.0063430509 -0.00021748412 0.0022685963
0.0062870914 0.00016406697 0.0012651917
0.0062752953 0.0011545452 -0.00024576939
0.0057710311 0.0011545457 -0.00024576939
0.0066114715 0.00011545455 0.0012651922
0.0067795566 0.0011545455 -0.00024576939
0.0062870909 0.00016406697 0.0017688449
0.011333947 -0.00019792211 0.0017688461
0.011261908 -0.0011545455 -0.0012530768
0.010757641 -0.0011545455 -0.0012530766
0.01126191 -0.0011545456 -0.00074942329
0.011766179 -0.0011545456 -0.00074942352
0.011766183 -0.0011545457 -0.0012530766
0.012774706 -0.0011545451 -0.0012530766
0.01423147 -0.0010968184 -0.00030173094
0.014226004 -0.0011010424 -0.00074805832
0.015063903 -0.00072571432 -0.00074942329
0.014222844 -0.0011034793 -0.0012509245
0.014698379 -0.001077576 -0.00074942317
0.014699192 -0.0010742294 -0.00030903029
-0.0032497058 0.0011545456 -0.0017567312
-0.0027454405 0.0011545456 -0.0017567306
0.0017369115 -0.0011545456 -0.0017567305
0.0012326475 -0.0011545457 -0.0017567303
0.0012326475 -0.0011545453 -0.0012530771
-0.0012680339 -0.0001762201 0.002634777
-0.0022411768 -0.0011545452 -0.00024576939
-0.0022411763 -0.0011545456 -0.00074942329
-0.0017369115 -0.0011545453 -0.00024576939
-0.0027454409 -0.0011545456 -0.0007494234
-0.0022411766 -0.00077519513 -0.00031772
-0.0015688234 -0.00017318182 0.0017688461
-0.0015688234 -0.00017318182 0.00076153828
-0.001244443 -0.00022483253 0.0012642101
0.00022411747 -0.00028863639 -0.002260386
-0.00028014684 0.00075045478 -0.0022603862
-0.00072838215 0.00075045472 -0.0022603858
-0.0012513238 0.00015393941 -0.0062336531
-0.0012513237 0.00015393939 -0.005729998
-0.0015688234 5.7727273e-05 -0.0057299999
-0.0034738237 -0.00017318182 -0.0037713463
-0.0052667614 0.00075045443 -0.0022603865
-0.0027454407 -0.0011545455 -0.0012530766
-0.0022411773 -0.0011545452 -0.0012530768
-0.0072277933 0.0011545456 -0.0017567311
-0.0057710316 0.00077931827 -0.00028774061
-0.0063243201 0.00015153407 0.0017688454
-0.006611472 0.00011545455 0.0017688463
-0.0066114706 0.00010102273 0.0022025479
-0.00028014675 0.00023090911 -0.00024576939
-0.0012419854 -0.00022609842 0.0007599839
-0.00028014695 -0.0011545456 -0.00024576939
-0.00028014701 -0.00077519484 -0.00031772
-0.0012387878 -0.00022774596 0.0017703786
-0.00028014684 -0.00026939393 -0.0002644232
-0.0037539706 0.0011545456 -0.00074942329
-0.0042582359 0.0011545453 -0.0012530766
-0.0047625001 0.0011545456 -0.00074942329
-0.0052667633 0.0011545456 -0.0017567308
-0.0047625005 0.0011545456 -0.0017567311
-0.00072838215 0.0011545455 -0.0012530764
-0.0034738234 -4.5474735e-12 0.00076153828
-0.0017369118 -0.0011545456 -0.00074942317
-0.0012326471 -0.0011545455 -0.0007494234
0.0015688236 0.00011545455 0.0017688461
0.0037559008 0.00019640542 0.00075896573
0.0032497058 0.0011545451 -0.00024576939
0.0007283825 0.0011545456 -0.0017567306
0.00022411754 0.0011545456 -0.0012530766
0.00072838244 0.0011545455 -0.0012530768
0.0012326475 0.0011545453 -0.0012530766
0.0012326476 0.0011545455 -0.0017567307
-0.013278966 -0.0011545456 -0.0017567306
-0.012270447 -0.0011545456 -0.00074942329
-0.012266444 -0.001158669 -0.0022443968
-0.011766179 -0.0011545456 -0.0007494234
-0.01126191 -0.0011545457 -0.00074942329
-0.0097491154 -0.00077931851 -0.00028774061
-0.0090767657 -0.00017318182 0.00076153828
-0.0097491154 -0.00026939393 -0.0002644232
-0.010253374 -0.0002693939 -0.00026442332
-0.010757644 -0.0011545456 -0.0017567304
-0.011261913 -0.0011545456 -0.002204424
0.0047625005 -0.0011462988 -0.0022443973
0.0063466053 -0.00022041322 -0.0052263481
0.0066114706 -0.00011545454 -0.0052263462
0.0040341173 -0.00017318182 -0.0062336549
0.0040565287 0.00013854545 -0.0057300013
0.0040341173 -0.00017318182 -0.0057300003
0.0040341173 -0.00017318182 -0.0052263462
0.0037692518 -0.00022041319 -0.0057300017
0.0037692518 -0.0002204132 -0.0042749979
0.0040341173 -0.00017318182 -0.0047786543
0.0040518106 0.00014583732 -0.005229291
0.0037692522 -0.00022041323 -0.0062336549
0.0034738232 -0.00011545455 -0.0062150005
0.002241178 0.00075045432 -0.0022603862
0.0022411768 0.00023090908 -0.002260386
0.003473823 0.00011545455 -0.0032676926
0.0037539718 0.00018192835 -0.0052314335
0.0037539711 0.0011545455 -0.0022603858
0.0042582345 0.0011545457 -0.0017567307
0.011766179 -0.0011440498 -0.0003169931
0.011595419 -0.00018142858 0.00076153851
0.0067795562 -0.0011545456 -0.00024576939
0.013278965 -0.0011440498 -0.00031699322
0.010757645 -0.0011545456 -0.0007494234
0.010253378 -0.0011440498 -0.00031699322
0.010253377 -0.0011545456 -0.0007494234
0.010253377 -0.0011545456 -0.0017567305
0.0087327259 -0.0011444179 -0.0021975518
0.0088302344 -0.0002193636 -0.0057300027
0.0097491154 -0.00075045484 -0.0022044247
0.013839264 -0.00017318185 -0.0057300017
0.011333948 -0.00019792208 -0.0037713461
0.011261911 -0.0011440498 -0.0021891615
0.01126191 -0.0011545456 -0.0017567306
0.0088302344 -0.00021936365 -0.0072409604
0.011591863 -0.00019242425 -0.0072471797
0.0034738232 8.659091e-05 -0.0067466348
0.0047625005 0.00075045472 -0.0022603862
0.0063466053 -0.00022041322 -0.003267691
0.0057710335 -0.00075045472 -0.002260386
0.0063466043 -0.00022041322 -0.0037713451
0.0066114711 -0.00011545455 -0.0032676924
0.0032497053 0.0011545457 -0.0017567304
0.0037539704 0.0011545456 -0.0017567306
0.0037539708 0.0011545457 -0.0012530768
0.0022411766 0.0011545457 -0.00074942352
0.0027454405 0.0011545455 -0.0012530766
0.0027454402 0.0011545456 -0.00074942329
0.002241177 0.0011545452 -0.0012530766
0.002241177 0.0011545455 -0.00024576939
0.0027454407 -0.00075045478 -0.002260386
0.0052667619 0.00075045438 -0.0022603862
0.0072277919 -0.00075045467 -0.0022044245
0.00274544 -0.00077519502 -0.00031772
0.0034738232 -0.00011545455 0.00072423066
0.0072277929 0.0011545456 -0.0017567308
0.0077288575 0.0011495972 -0.0022443968
0.0072277933 0.0011462988 -0.0022443968
0.0072277919 0.00075045478 -0.002260386
0.0077216309 0.00075716717 -0.0022239462
0.0082363216 0.00075045467 -0.0022044242
0.0082363198 0.0011545456 -0.002204424
0.006611472 0.00011545455 -0.0057300013
0.0067795562 0.0011545453 -0.0022603858
-0.012774705 0.0011545453 -0.0012530766
-0.008736914 0.0011564383 -0.0022090115
-0.011261911 0.0011545456 -0.0017567304
-0.011766179 0.0011545455 -0.00074942363
-0.01159186 0.00014111113 0.002266282
-0.011766179 -0.0011545456 -0.0017567307
-0.011778988 -0.001152896 -0.0022443968
-0.012270446 -0.0011545456 -0.0017567305
-0.012774706 -0.0011545453 -0.00024576939
-0.012270447 -0.0002693939 -0.00026442308
-0.012774706 -0.0002693939 -0.0002644232
-0.012774705 0.00021083004 -0.00026036799
-0.012270448 0.00021083001 -0.00026036811
-0.014102175 -0.00019094409 0.0012522782
-0.015088567 -0.00028083535 -0.00029719353
-0.0088267894 0.00014209792 0.00076153851
-0.0077320491 0.00021083007 -0.00026036799
-0.0082363216 0.00077931839 -0.00028774049
-0.0066114711 -0.00017318182 0.00076153828
-0.0097491154 0.0011456645 -0.00028020737
-0.0087374318 0.0011480405 -0.00025838043
-0.0090767648 5.7727273e-05 0.0025523074
-0.015071908 0.00021875599 -0.00031056697
-0.015071909 0.00023090905 -0.00074942317
-0.015105528 -0.00031172723 -0.00074942329
0.014097002 -0.00016163637 0.0012651922
-0.011328132 0.00015743803 0.0017688458
-0.010253374 0.00021083003 -0.00026036811
-0.013850468 9.236364e-05 -0.0037713461
-0.014087399 9.8961034e-05 -0.0037713465
-0.011590081 0.00014844156 -0.0037713461
-0.01159008 0.00014844157 -0.0042749997
-0.011328132 0.000157438 -0.0042749979
-0.011328363 0.0001530444 -0.0037726462
-0.01158688 -0.00020781819 -0.0042750007
-0.011310299 -0.0002125413 -0.0042699114
0.010253374 -0.0011545458 -0.0012530768
0.0097491154 -0.0011545456 -0.00074942352
0.0092448555 -0.0011545456 -0.0017567305
0.0092448564 -0.0011545453 -0.0012530768
0.0092448564 -0.0011545456 -0.0007494234
0.0087405872 -0.0011545458 -0.0007494234
0.0077320575 -0.001154545 -0.00024576939
0.0082363207 -0.0011462988 -0.00026175845
0.0097491154 -0.0011545452 -0.0012530766
0.0090767657 -0.00019242424 -0.0037651281
0.0090767657 0.00011545455 -0.0052263462
0.0088078259 0.00016163636 -0.003771344
0.010255962 -0.00029130065 -0.0022087293
0.010255449 0.00023375983 -0.0022078792
0.0097389314 0.000241405 -0.0022298619
0.0090767648 0.00011545455 -0.0042750011
0.014713328 0.0011314548 -0.0012530768
0.013847272 0.00014844157 -0.0067373076
0.011598089 -0.00017318182 -0.0062336549
0.013845487 -0.00016676768 -0.0077259624
-0.0088118985 -0.00022041322 -0.0037713454
0.0034738232 -0.00011545455 -0.0056926925
0.0034738232 0.00010720779 -0.0042590112
0.0012486555 -0.00022266229 -0.0057299999
0.0037539694 0.0001731818 -0.0057299985
0.0015688236 0.00011545455 -0.0067373076
0.01159008 0.00014844158 -0.0057300017
0.0097491145 0.00075045438 -0.0022603862
0.010757644 0.0011545456 -0.0017567307
0.011261912 0.0011545453 -0.0012530766
0.010256248 0.00075489539 -0.0022546463
-0.0097491154 0.00075045478 -0.0022044245
-0.0097467564 -0.00075835403 -0.0022486048
0.0012486555 -0.00022266232 -0.0047786566
-0.00072838215 -0.00075045478 -0.0022603862
-0.0007283825 -0.0011545457 -0.0017567314
-0.0034738234 -5.4569682e-12 -0.0057300003
-0.0034738237 -0.00015875 -0.0057160095
-0.0034738234 -0.00017318182 -0.0042750002
-0.004258235 -0.0011545456 -0.00175673
-0.0063528726 0.00010213286 -0.0081578679
-0.0088267885 0.0001420979 -0.0057300017
-0.011317939 -0.0002139305 -0.004775363
-0.011328126 0.00015743801 -0.0052263476
-0.012774706 0.00023090911 -0.0022044247
-0.0032497051 0.00075045443 -0.0022603862
-0.0015688234 5.7727273e-05 -0.0037713463
-0.0027454405 0.00075045472 -0.002260386
-0.0027454412 0.0011545455 -0.0012530768
-0.0032497053 0.0011545451 -0.0012530764
-0.0088267876 0.00014209791 -0.0037713449
-0.0090767639 0.00017318185 -0.0042750011
-0.006611472 0.00011545455 -0.0032676926
-0.0067795571 0.0011545456 -0.002204424
-0.0077320561 -0.00077931845 -0.00028774061
-0.0037539718 -0.00023090909 0.0017688461
-0.0032497055 -0.0011545452 -0.00024576939
-0.0037539708 -0.0011545456 -0.00024576939
-0.0037682164 0.00016046225 0.0022696548
-0.003765177 0.00016163633 0.0017688454
0.0034738234 9.2363633e-05 0.002171769
-0.01158688 -0.0002078182 -0.0037713461
-0.011324731 -0.00021341599 -0.0037696508
-0.0057710283 0.0011545457 -0.0007494234
-0.013848603 -0.00020204548 0.0017688461
-0.013850471 9.2363654e-05 0.00076153851
-0.013850468 9.236364e-05 0.0012651922
-0.01176618 -0.0011462985 -0.00026175845
-0.011331948 -0.00021647727 0.00076153828
-0.010757639 -0.00077931851 -0.00028774061
-0.0052667605 -0.0011545452 -0.00024576939
-0.0040341173 -0.00023090909 0.0012651922
-0.0042582359 -0.0011545451 -0.00024576939
-0.0047625005 -0.0011545455 -0.00024576939
-0.0047625001 -0.0011545456 -0.0007494234
-0.0042582355 -0.0011545455 -0.00074942352
-0.0088267894 0.00014209792 -0.0047786566
-0.006611472 0.00011545455 -0.0057300008
-0.0090767648 0.00017318182 -0.0062336549
-0.011328126 0.00015743803 -0.0047786557
-0.011590084 0.0001484416 -0.0052263467
-0.011328132 0.000157438 -0.0057300017
0.0015688235 0.00011545455 -0.0037713461
0.0088127414 0.00015973845 -0.0067388443
0.0066114715 0.00011545455 -0.0072409622
0.014108206 0.00013854545 -0.0047786557
0.014108201 0.00013854547 -0.0042749983
0.012774706 -0.00029167469 -0.002248605
0.012774706 -0.00075045472 -0.0022044247
0.013278963 0.00075045484 -0.0022603862
0.011590081 0.00014844156 -0.0037713461
0.011598088 -0.00017318182 -0.0037713461
0.011598087 -0.00017318183 -0.0042750007
0.011542059 -0.00011545454 0.0026082692
0.011381974 -0.00014844156 0.0026162637
0.011380195 7.69697e-05 0.0026020512
0.011579412 7.6969693e-05 0.0025709614
0.011594354 -0.00016933333 0.0022613078
0.011335179 0.00015097905 0.0022509766
0.0088152951 0.00016001594 0.0022636645
0.0062929047 0.00015833767 0.0022597082
0.0063499999 0.00010775758 0.0025896153
0.0090767657 -0.00022041323 0.0022572379
0.0088495351 -0.00022449497 0.0022693912
0.0088343518 -0.00022148421 0.0017688468
0.0090899477 0.0001086631 0.0017951808
0.0090842359 -0.00021551516 0.0017912309
0.0088846637 -0.00014844156 0.0025842858
0.0097491154 0.00077931851 -0.00028774061
0.0037539713 -0.0011545456 -0.00024576939
0.0037692524 -0.0002204132 0.00076153851
0.0037692522 -0.00022041319 0.0012651924
0.0057710283 -0.0011545456 -0.00074942317
0.0052667609 -0.001154545 -0.00024576939
0.0057710297 -0.0011545456 -0.0017567306
0.0052667642 -0.0011545456 -0.0017567304
0.0047625005 -0.0011545456 -0.0012530771
0.0052667614 -0.0011545455 -0.0012530766
0.0027454407 -0.0011545455 -0.0012530771
0.0017369119 -0.0011545456 -0.0007494234
0.0040341173 -0.00017318182 0.00076153828
0.0072277919 0.0011545456 -0.00024576939
0.006611472 0.00011545455 0.0017688461
0.0066114706 -0.00011545455 0.0012651922
0.0090767657 -0.00022041326 0.0012601048
0.007732057 0.00077931851 -0.00028774049
0.0082363216 0.00077931845 -0.00028774061
0.0088078277 0.00016163636 0.00076153851
0.0088140042 0.00015924766 0.0012651919
0.0077320486 0.00023090908 -0.00024576951
0.0077320538 -0.0002693939 -0.0002644232
0.0063466053 -0.00022041319 0.0017688458
0.0072277947 0.00077931851 -0.00028774049
0.0072277933 0.0011545457 -0.0007494234
0.0067795576 0.0011545456 -0.0007494234
0.0062870919 0.00016406697 0.00076153851
0.012270446 -0.0011545457 -0.00074942329
0.014735742 -0.0007637763 -0.00034047361
0.015015882 -0.0010390909 -0.00074942317
0.00072838215 -0.0011545457 -0.0012530768
-0.0015688235 -0.00017318182 0.0022165382
0.00022411742 0.00023090914 -0.0022603855
-0.00028014672 0.00023090914 -0.0022603862
-0.0017340627 0.0011565023 -0.002256592
0.0002241176 0.0011545453 -0.00074942352
-0.00028014698 0.0011545456 -0.0007494234
0.0017369118 0.0011545456 -0.0017567313
0.0022411759 0.0011545455 -0.0017567306
0.0032497058 0.0011545456 -0.00074942352
0.0052667637 0.0011545457 -0.00074942352
0.0047625001 0.0011545456 -0.0012530768
0.0052667614 0.0011545457 -0.0012530766
0.0057710283 0.0011545456 -0.0007494234
0.0062752953 0.0011545456 -0.0007494234
0.0077320575 0.001154545 -0.0012530766
-0.0034738234 -2.7284841e-12 -0.0047786543
-0.0034738237 -0.00016493506 -0.0052183522
-0.0015688234 -0.00017318182 -0.0052263467
-0.0015688234 -0.00017318182 -0.0057300003
-0.0015688234 5.772728e-05 -0.0052263471
-0.0012513238 0.00015393939 -0.0052263471
-0.0015688234 -0.00017318182 -0.0032676929
-0.003753972 -0.00023090905 -0.0037713454
-0.0047671692 0.00075847242 -0.0022355141
-0.0057710335 0.00075045478 -0.002260386
-0.0027454414 0.00023090911 -0.00024576939
-0.0032497055 -0.0011545453 -0.0012530768
-0.0072277943 0.0011545455 -0.0012530766
-0.0066114715 0.00011545455 0.0012651922
-0.0066114706 -0.00017318182 0.0022165382
-0.0012326473 -0.0011545452 -0.00024576939
-0.0037539708 0.0011545456 -0.00024576939
-0.0037539713 0.0011545455 -0.0012530766
-0.0047625001 0.0011545456 -0.0012530768
-0.0037539713 -0.00023090908 0.00076153851
-0.003765177 0.00016163633 0.0012651924
-0.0017369116 -0.0011545453 -0.0012530766
0.0007283825 0.0011545456 -0.00074942329
-0.00028014698 0.0007751949 -0.00031772
-0.010757644 -0.0011545456 -0.00074942352
-0.0097491145 -0.0011462987 -0.00026175834
0.0037692518 -0.00022041319 -0.0052263481
0.0034738232 -0.00011545454 -0.0052076927
0.0040341173 -0.00017318182 -0.0067373086
0.0037692518 -0.00022041323 -0.0037713451
0.0040341173 -0.00017318182 -0.0042750007
0.0037692524 -0.00022041322 -0.0047786562
0.0047625005 0.0011545456 -0.0022603858
0.0027454414 0.00023090905 -0.0022603862
0.0027454412 0.00075045472 -0.002260386
0.0067795566 -0.0011545456 -0.0012530768
0.0072277943 -0.0011545457 -0.0012530768
0.0077320617 -0.0011545456 -0.0017567311
0.011261911 -0.0011440498 -0.00031699322
0.013278966 -0.00076377642 -0.00034047349
0.012774706 -0.00076377642 -0.00034047349
0.0077320612 -0.0011545456 -0.00074942363
0.0072277933 -0.0011545452 -0.00024576939
0.0063466043 -0.00022041319 -0.0042749979
0.0066114711 -0.00011545454 -0.0042750002
0.0066114706 -0.00011545455 -0.0037713463
0.0066114706 -0.00011545455 -0.0047786543
0.0066114715 0.00011545455 -0.0047786538
0.008807824 0.00016163633 -0.0057299989
0.0088140061 0.00015924763 -0.0052263471
0.0066114711 -0.00011545455 -0.0057300003
0.011598088 -0.00017318185 -0.0032676929
0.012269584 -0.00074779044 -0.0022087293
0.011333948 -0.00019792211 -0.0032676917
0.011590085 -0.00018692647 -0.007728627
0.011333948 -0.00019792208 -0.0072409604
0.012774706 -0.0011440498 -0.002189162
0.0034738234 -0.00011545454 -0.0067373086
0.0022411777 0.0007751949 -0.00031772
0.0062870909 0.00016406695 -0.0032676922
0.0057681599 0.00075489545 -0.0022546465
0.0057710302 0.0011462988 -0.0022443968
0.0052657812 0.0002369857 -0.002238787
0.0077361558 -0.00029286032 -0.0022112492
0.0077320514 0.00023090911 -0.0022044249
0.00774159 -0.00075659569 -0.0022460981
0.0022411775 -0.00077519508 -0.00031772
0.002241178 -0.00026939396 -0.00026442332
0.0027454409 0.0007751949 -0.00031772
0.0082363207 0.0011545456 -0.0017567308
0.006278452 0.0011480413 -0.002247775
-0.011261912 0.0011545456 -0.0012530771
-0.011261913 0.0011545456 -0.002204424
-0.0087405872 0.0011545455 -0.0017567312
-0.012266583 0.00077235128 -0.00031523884
-0.011261912 -0.0011545453 -0.0012530768
-0.014087399 9.8961034e-05 0.0012651922
-0.014087399 9.8961056e-05 0.00076153828
-0.0077320561 0.00077931851 -0.00028774061
-0.0088118985 -0.00022041322 0.0012651924
-0.0063010138 -0.00022333828 0.00076520815
-0.0090767648 0.00017318182 0.0012651924
0.013839263 -0.0001731818 0.0017688461
0.013839262 -0.00017318183 0.0012651924
0.014097002 -0.00016163637 0.0017688461
-0.013846573 -0.00019577077 -0.0042798673
0.012270448 -0.00028255978 -0.0022486045
0.0087405918 -0.0011545451 -0.0012530766
0.0088078259 0.00016163633 -0.003267691
0.0090767657 0.00011545455 -0.0047786538
-0.0088119013 -0.00022041323 -0.003267691
0.0034738234 0.00010495869 -0.0047735665
0.0012486555 -0.00022266233 -0.0062336549
0.0034738234 0.00010495868 -0.0052314345
0.011590081 0.00014844154 -0.0052263467
-0.012777654 -0.0007777994 -0.00030173082
-0.0047625001 -0.00077931851 -0.00028774061
-0.00526676 -0.00026939396 -0.0002644232
-0.0047624996 -0.00026939402 -0.0002644232
-0.01074991 -0.00075509929 -0.002226938
0.0015688235 -0.00011545455 -0.0047786538
-0.0007283825 -0.0011545456 -0.00074942329
-0.00072838232 -0.0011545455 -0.0012530766
-0.00028014687 -0.00028863642 -0.002260386
-0.0088650975 8.9797977e-05 -0.008148782
-0.0090767657 -0.00017318182 -0.0062336549
-0.0090767648 0.00017318182 -0.0037713461
-0.0066114715 0.00011545455 -0.0037713461
0.0034738232 -0.00011545455 0.0017315382
0.0037692518 -0.00022041323 0.0017688458
0.0034738232 0.00011545455 0.0012651924
0.0034738234 -0.00011545455 0.0021605769
0.0037758953 0.0001104348 0.0026204346
0.0038099999 -0.00014431818 0.0026082692
0.0040341173 -0.00017318182 0.0017688461
0.0040341173 -0.00016493506 0.0022485165
0.0040527931 0.0001443182 0.0017688461
-0.012273561 -0.00076167961 -0.0022355141
-0.012774706 -0.00028863639 -0.0022044247
-0.013850472 9.236364e-05 0.0017688461
-0.01384811 -0.00020052635 0.0012563562
-0.011261912 -0.0011462988 -0.00026175845
-0.0090767657 -0.00017318182 0.0012651922
-0.011331947 -0.00021647726 0.0012651926
-0.010253375 -0.00077931839 -0.00028774061
-0.0052667619 -0.0011545452 -0.0012530766
-0.0052667637 -0.0011545453 -0.00074942352
-0.0037539697 -0.0011545456 -0.0007494234
-0.0088267876 0.0001420979 -0.0042749979
-0.0066114715 0.00011545455 -0.0052263462
-0.011590081 0.00014844154 -0.0047786538
-0.011590079 0.00014844157 -0.0057300017
-0.010253375 -0.00028863631 -0.0022044245
-0.010253374 0.00023090908 -0.0022044247
0.0017369114 0.0011545455 -0.002260386
0.0015688236 0.00011545455 -0.0042750007
0.006611472 0.00011545455 -0.0077446168
0.011591859 0.00014111113 0.002266282
0.011598087 -0.00017318182 0.0012651924
0.011336617 -0.00018761365 0.0022491824
0.010253374 -0.00077931839 -0.00028774061
0.0032497055 -0.0011545455 -0.00024576939
0.0037539697 -0.0011545456 -0.00074942329
0.0047625005 -0.00077931839 -0.00028774061
0.0042582364 -0.0011545457 -0.0012530766
0.0027454402 -0.0011545457 -0.00074942317
0.0017369114 -0.0011545455 -0.00024576939
0.0037539704 0.0011545456 -0.00074942329
0.0027454402 -0.00026939393 -0.0002644232
0.0066114706 0.00011545455 0.0022165382
0.0088302363 -0.00021936363 0.0012651926
0.0066114711 -0.00011545455 0.0017688461
0.0063384552 -0.00021621487 0.00075746863
0.0090767648 0.00011545455 0.00076153828
0.006611472 0.00011545455 0.00076153828
0.013839263 -0.00017318185 0.00076153851
0.012778526 -0.00026764453 -0.00026993465
0.012270445 -0.0011440498 -0.00031699322
0.015015882 -0.0010390909 -0.00035769248
0.00072838232 -0.0011545456 -0.0017567305
0.00072838226 -0.0011545456 -0.0007494234
-0.001232647 0.0011545455 -0.00175673
-0.0017369115 0.0011545456 -0.0017567305
-0.0022411763 0.0011545456 -0.0017567306
-0.00028014692 0.0011545457 -0.0012530766
0.00022411757 0.0011545452 -0.00024576939
0.0032497048 0.0011545452 -0.0012530764
0.0047625005 0.0011545456 -0.00074942329
0.004762501 0.0011545456 -0.00024576939
0.0072277933 0.0011545453 -0.0012530768
0.0052667609 0.0011545451 -0.00024576939
-0.0015688234 -0.00017318182 -0.0047786538
-0.0015688234 -0.00017318182 -0.0042750007
-0.0012403752 -0.00022692788 -0.0047747972
-0.0012452737 -0.00022440456 -0.0057300008
-0.0015688234 5.7727273e-05 -0.0047786538
-0.0012452735 -0.00022440459 -0.0042749993
-0.0015688234 -0.00017318182 -0.0037713461
-0.0027454407 0.00077519502 -0.00031772
-0.0077320575 0.001154545 -0.0012530766
-0.0063243206 0.0001515341 0.0012651922
-0.0088267867 0.00014209791 0.0012651922
-0.0066114711 -0.00018892564 0.0017484964
-0.0032497055 0.0011545455 -0.00024576939
-0.0047625005 0.00077931839 -0.00028774049
-0.0052667609 0.00077931857 -0.00028774061
-0.0040341173 0.00017318185 0.0012651924
-0.0012326472 -0.0011545452 -0.0012530768
0.0017369115 0.0011545456 -0.00074942329
0.0027454412 0.0011545456 -0.0022603858
0.010757647 -0.0011440498 -0.0003169931
0.012270447 -0.00026939396 -0.00026442332
0.0082363207 -0.0011545456 -0.0012530768
0.0077320575 -0.0011545453 -0.0012530766
0.0072277952 -0.0011545456 -0.00074942329
0.006611472 0.00011545455 -0.0032676922
0.006611472 0.00011545455 -0.0042750007
0.0034738237 5.7727266e-05 -0.0062336549
0.0052667605 0.00077931839 -0.00028774061
0.0052667665 0.00023090911 -0.00024576951
0.0047625005 0.00023090905 -0.00024576939
0.0040487335 0.0001505929 0.00075667235
0.00526676 -0.00026939387 -0.0002644232
0.0027454414 0.0011545455 -0.00024576939
0.0077320621 0.0011545453 -0.0017567311
-0.011766183 -0.0011545451 -0.0012530764
-0.011261911 -0.0011545456 -0.001756731
-0.0077320565 0.001154545 -0.00024576939
-0.0066114706 -0.00017318182 0.0012651922
-0.011266394 0.0011499275 -0.00029053865
-0.010753331 0.00077561807 -0.00029455638
0.011598086 -0.00017318182 0.0017688463
-0.011590081 0.00014844157 -0.0032676917
0.0088078231 0.00016163637 -0.0047786557
0.0015688235 -0.00011545455 -0.0062336549
0.0034738232 8.659091e-05 -0.0057206736
-0.013276015 -0.0011484689 -0.00025755086
-0.00072838238 -0.0011545455 -0.00024576939
-0.00028014681 -0.00075045484 -0.002260386
0.00022411758 -0.0011545453 -0.0012530766
0.00022411763 -0.0011545453 -0.00074942329
-0.0022356666 0.00022807006 -0.0022548812
-0.0027472104 0.00023820096 -0.002248605
-0.0015688234 5.7727273e-05 -0.0032676924
-0.0090767657 -0.00017318182 -0.0037713463
-0.0077320538 -0.0002693939 -0.0002644232
0.0034738232 -0.00011545455 0.0012465385
0.0037539718 0.0001731818 0.0012651917
0.0040407088 0.00016299463 0.0012684842
0.0034738232 0.00010720779 0.0017528571
0.0040341173 0.00017318182 0.0022725
0.0037590652 0.00018367768 0.0022674126
0.0040341173 -0.00017318182 0.0012651922
-0.0047625005 0.00021083001 -0.00026036811
-0.0052667647 0.00021083003 -0.00026036811
-0.003249706 -0.0011545456 -0.0007494234
0.0097491154 -0.0011440498 -0.00031699322
0.0092368517 -0.0011380522 -0.00028688402
