# .PCD v0.7 - Point Cloud Data file format
VERSION 0.7
FIELDS x y z
SIZE 4 4 4
TYPE F F F
COUNT 1 1 1
WIDTH 1253
HEIGHT 1
VIEWPOINT 0 0 0 1 0 0 0
POINTS 1253
DATA ascii
-0.022257846 -0.00127 -0.00015000005
-0.022257846 -0.0010583333 -0.00015000005
-0.022257846 -0.00084666669 -0.00015000005
-0.022257846 -0.00021166667 -0.00015000005
-0.022257846 0 -0.00015000005
-0.022257846 0.00021166667 -0.00015000005
0.014769224 0.00021166667 -0.00015000005
-0.022257846 0.00084666669 -0.00015000005
-0.022257846 0.0010583333 -0.00015000005
-0.022049828 -0.00127 -0.00015000005
-0.022049828 -0.0010583333 -0.00015000005
-0.022049828 -0.00084666669 -0.00015000005
0.0076966383 -0.00021166667 -0.00288
-0.024130002 0 -0.00015000005
-0.024130002 -0.00021166667 -0.00015000005
-0.019969655 -0.00127 -0.00015000005
-0.019969655 -0.0010583333 -0.00015000005
0.013937156 -0.0010583333 -0.00015000005
0.013937156 -0.00127 -0.00015000005
-0.019969655 -0.00084666669 -0.00015000005
-0.019969655 -0.00021166667 -0.00015000005
-0.019969655 0 -0.00015000005
-0.024130002 -0.00084666669 -0.00015000005
-0.019969655 0.00021166667 -0.00015000005
0.013937156 -0.00084666669 -0.00015000005
0.015601293 -0.00084666669 -0.00015000005
0.0076966383 0.00021166667 -0.00288
-0.019969655 0.00084666669 -0.00015000005
-0.019969655 0.0010583333 -0.00015000005
-0.019761639 -0.00127 -0.00015000005
0.0089447415 0.00127 -0.0018300001
0.024130002 0.00084666669 -0.00036000006
-0.019761639 -0.0010583333 -0.00015000005
0.013937156 -0.00021166667 -0.00015000005
-0.020177674 -0.00021166667 -0.00015000005
0.0074886209 -0.00021166667 -0.00288
0.015393277 0.0010583333 -0.00015000005
0.0074886209 0 -0.00288
0.013937156 0.00021166667 -0.00015000005
-0.023921983 0.00021166667 -0.00015000005
-0.023921983 0 -0.00015000005
0.013937156 0 -0.00015000005
-0.023921983 -0.00021166667 -0.00015000005
0.024130002 0.000635 -0.00036000006
0.015393277 0.00127 -0.00015000005
-0.023921983 -0.00084666669 -0.00015000005
-0.023921983 -0.0010583333 -0.00015000005
0.015601293 -0.00127 -0.00015000005
-0.020177674 0.00084666669 -0.00015000005
-0.020177674 0.0010583333 -0.00015000005
0.015601293 -0.0010583333 -0.00015000005
0.0074886209 0.00021166667 -0.00288
-0.012481035 0.00021166667 0.00089999998
0.0079046553 -0.00127 -0.0018300001
0.013729138 -0.00084666669 -0.00015000005
0.0076966383 0.00127 -0.0018300001
-0.019553622 0.00084666669 -0.00015000005
-0.023089914 0 -0.00666
-0.019553622 0.0010583333 -0.00015000005
0.015601293 -0.00021166667 -0.00015000005
0.013729138 -0.0010583333 -0.00015000005
0.013729138 -0.00127 -0.00015000005
0.015601293 0 -0.00015000005
0.015601293 0.00021166667 -0.00015000005
0.023921983 0.0010583333 -0.00036000006
-0.019553622 -0.00127 -0.00015000005
-0.019761639 -0.00084666669 -0.00015000005
-0.019761639 -0.00021166667 -0.00015000005
-0.019761639 0 -0.00015000005
-0.019761639 0.00021166667 -0.00015000005
0.013729138 0.00127 -0.00015000005
0.013729138 0.0010583333 -0.00015000005
-0.019761639 0.00084666669 -0.00015000005
0.024130002 0.00042333335 -0.00036000006
0.024130002 0.00021166667 -0.00036000006
0.013729138 0.00084666669 -0.00015000005
-0.019761639 0.0010583333 -0.00015000005
0.024130002 0 -0.00036000006
0.013729138 0.00021166667 -0.00015000005
-0.019553622 -0.0010583333 -0.00015000005
-0.019553622 -0.00084666669 -0.00015000005
-0.019553622 -0.00021166667 -0.00015000005
0.013729138 0 -0.00015000005
-0.019553622 0 -0.00015000005
0.013729138 -0.00021166667 -0.00015000005
0.0091527589 -0.00127 -0.0018300001
-0.019553622 0.00021166667 -0.00015000005
-0.023089914 -0.00021166667 -0.00666
-0.023505948 -0.00084666669 -0.00015000005
-0.023505948 -0.0010583333 -0.00015000005
0.0083206901 -0.00127 -0.0018300001
-0.020593708 -0.00021166667 -0.00015000005
0.0081126727 0.00127 -0.0018300001
-0.020593708 0.00084666669 -0.00015000005
-0.020593708 0.0010583333 -0.00015000005
-0.02038569 -0.00127 -0.00015000005
-0.02038569 -0.0010583333 -0.00015000005
-0.02038569 -0.00084666669 -0.00015000005
0.014353191 0.00021166667 -0.00015000005
-0.023713967 0.0010583333 -0.00015000005
-0.023713967 0.00084666669 -0.00015000005
0.008736724 0.00127 -0.0018300001
-0.020801725 0.00084666669 -0.00015000005
-0.020801725 -0.00021166667 -0.00015000005
0.015393277 -0.00021166667 -0.00015000005
-0.020801725 0 -0.00015000005
-0.020801725 0.00021166667 -0.00015000005
0.0081126727 -0.00127 -0.0018300001
-0.020801725 0.0010583333 -0.00015000005
0.020593708 0 -0.0072900001
-0.020593708 -0.00127 -0.00015000005
-0.020593708 -0.0010583333 -0.00015000005
0.014353191 0.00127 -0.00015000005
0.014353191 0.0010583333 -0.00015000005
-0.020593708 -0.00084666669 -0.00015000005
0.014353191 0.00084666669 -0.00015000005
0.013937156 0.00127 -0.00015000005
0.014145173 0.00084666669 -0.00015000005
0.014145173 0.00021166667 -0.00015000005
0.014145173 0 -0.00015000005
0.014145173 -0.00021166667 -0.00015000005
-0.023713967 0 -0.00015000005
-0.023713967 -0.00021166667 -0.00015000005
-0.023713967 -0.00084666669 -0.00015000005
-0.023713967 -0.0010583333 -0.00015000005
0.014145173 -0.00084666669 -0.00015000005
0.014145173 -0.0010583333 -0.00015000005
-0.02038569 0.00084666669 -0.00015000005
-0.02038569 0.0010583333 -0.00015000005
0.014145173 -0.00127 -0.00015000005
0.014145173 0.0010583333 -0.00015000005
0.010400862 0.00021166667 0.0023699999
-0.020177674 -0.00127 -0.00015000005
-0.020177674 -0.0010583333 -0.00015000005
0.013937156 0.0010583333 -0.00015000005
0.013937156 0.00084666669 -0.00015000005
-0.023921983 0.0010583333 -0.00015000005
-0.023921983 0.00084666669 -0.00015000005
-0.020177674 -0.00084666669 -0.00015000005
0.0022881897 0 0.00174
0.015393277 0.00084666669 -0.00015000005
-0.023713967 0.00021166667 -0.00015000005
0.010192845 0.00021166667 -0.0026700001
0.0089447415 -0.00127 -0.0018300001
0.0079046553 0.00127 -0.0018300001
-0.02038569 -0.00021166667 -0.00015000005
0.017889483 0.00021166667 -0.0068700002
0.017889483 0 -0.0068700002
0.017889483 -0.00021166667 -0.0068700002
0.014353191 0 -0.00015000005
0.014353191 -0.00021166667 -0.00015000005
0.017681466 0.00021166667 -0.0068700002
0.014353191 -0.00084666669 -0.00015000005
0.017681466 0 -0.0068700002
0.014353191 -0.0010583333 -0.00015000005
0.014353191 -0.00127 -0.00015000005
0.014145173 0.00127 -0.00015000005
0.015393277 0 -0.00288
-0.02038569 -0.00021166667 -0.00666
0.022257846 0.00127 -0.00036000006
0.022465862 -0.000635 -0.00036000006
-0.015185259 0.00021166667 0.00174
-0.01664138 -0.00021166667 -0.00015000005
0.0060325004 -0.00127 -0.0018300001
-0.017057415 -0.00127 -0.00015000005
-0.017265432 -0.0010583333 -0.00015000005
-0.020177674 0.00021166667 -0.00666
0.022049828 0.00127 -0.00036000006
0.012065001 -0.00127 -0.00015000005
0.011856983 -0.00084666669 -0.00015000005
-0.017057415 -0.00084666669 -0.00015000005
-0.017473448 0.00021166667 -0.00015000005
0.015185259 -0.00021166667 -0.00288
0.0062405174 0.00127 -0.0018300001
-0.022673881 0 -0.0070800004
-0.017265432 -0.00084666669 -0.00015000005
-0.01664138 0 -0.00015000005
-0.017473448 -0.0010583333 -0.00015000005
0.012065001 0.00127 -0.00015000005
-0.017473448 -0.00084666669 -0.00015000005
0.022465862 -0.00042333335 -0.00036000006
0.015393277 0.00021166667 -0.00288
-0.016849397 0.00021166667 -0.00015000005
0.022257846 -0.00042333335 -0.00036000006
-0.016849397 0 -0.00015000005
-0.022673881 0.00021166667 -0.0070800004
0.015393277 -0.00021166667 -0.00288
-0.017473448 0.00084666669 -0.00015000005
0.0060325004 0.00127 -0.0018300001
0.0064485348 -0.00127 -0.0018300001
0.0062405174 -0.00127 -0.0018300001
-0.017265432 0.0010583333 -0.00015000005
-0.017473448 0.0010583333 -0.00015000005
-0.020177674 -0.00021166667 -0.00666
-0.017265432 0.00084666669 -0.00015000005
-0.015185259 -0.00021166667 0.00174
0.015809311 -0.00127 -0.00015000005
0.0076966383 -0.00021166667 -0.0068700002
0.012065001 0.00021166667 -0.00015000005
0.012065001 0.0010583333 -0.00015000005
0.022257846 -0.000635 -0.00036000006
-0.020177674 0 -0.00666
-0.017057415 -0.0010583333 -0.00015000005
-0.020593708 0 -0.00666
0.012273017 -0.0010583333 -0.00015000005
0.0076966383 0.00021166667 -0.0068700002
0.011856983 -0.00021166667 -0.00015000005
-0.023089914 0 -0.0070800004
0.022257846 -0.00127 -0.00036000006
-0.02038569 0.00021166667 -0.00666
0.012065001 -0.00084666669 -0.00015000005
0.015185259 0.00021166667 -0.00288
0.012065001 -0.0010583333 -0.00015000005
-0.01664138 -0.00127 -0.00015000005
-0.016849397 -0.00021166667 -0.00015000005
0.015809311 -0.0010583333 -0.00015000005
-0.016849397 0.0010583333 -0.00015000005
0.011856983 0 -0.00015000005
0.012065001 0.00084666669 -0.00015000005
0.012273017 -0.00127 -0.00015000005
0.0074886209 0 -0.0068700002
0.022257846 0.000635 -0.00036000006
-0.022881897 -0.00021166667 -0.0070800004
0.0093607763 0.00127 -0.0018300001
-0.016849397 -0.00084666669 -0.00015000005
-0.01664138 -0.0010583333 -0.00015000005
0.0074886209 -0.00021166667 -0.0068700002
-0.017057415 0.00084666669 -0.00015000005
-0.017265432 -0.00021166667 -0.00015000005
-0.017057415 0.0010583333 -0.00015000005
-0.016849397 -0.0010583333 -0.00015000005
0.0074886209 0.00021166667 -0.0068700002
-0.017265432 0 -0.00015000005
0.0095687937 -0.00127 -0.0018300001
-0.017265432 0.00021166667 -0.00015000005
0.022049828 0.000635 -0.00036000006
-0.016849397 0.00084666669 -0.00015000005
-0.016849397 -0.00127 -0.00015000005
-0.01664138 0.00021166667 -0.00015000005
0.011856983 0.00084666669 -0.00015000005
-0.01664138 0.0010583333 -0.00015000005
-0.022673881 -0.00021166667 -0.0070800004
-0.023089914 -0.00021166667 -0.0070800004
0.012273017 -0.00084666669 -0.00015000005
0.005824483 0.00127 -0.0018300001
-0.01664138 -0.00084666669 -0.00015000005
0.022465862 -0.00127 -0.00036000006
0.011856983 0.00021166667 -0.00015000005
0.012065001 -0.00021166667 -0.00015000005
0.011856983 0.0010583333 -0.00015000005
0.011856983 -0.0010583333 -0.00015000005
-0.017473448 -0.00021166667 -0.00015000005
-0.01664138 0.00084666669 -0.00015000005
-0.017057415 0.00021166667 -0.00015000005
0.011856983 0.00127 -0.00015000005
0.012065001 0 -0.00015000005
-0.017057415 0 -0.00015000005
-0.017057415 -0.00021166667 -0.00015000005
-0.017265432 -0.00127 -0.00015000005
-0.0074886209 -0.00042333335 -0.0026700001
-0.01289707 0 -0.0043500001
-0.017889483 0.00042333335 -0.0026700001
-0.01289707 -0.00021166667 -0.0043500001
0.017681466 -0.00021166667 0.0019499999
-0.012481035 -0.00021166667 -0.0043500001
0.020177674 -0.00021166667 0.0021599999
-0.01289707 0.00021166667 -0.0043500001
0.01289707 0 -0.00309
-0.017889483 0 -0.0079199998
0.01289707 -0.00021166667 -0.00309
0.01289707 0.00021166667 -0.00309
0.017681466 -0.00021166667 -0.0056100003
-0.017681466 0 -0.0079199998
-0.010400862 0.00021166667 0.0013199999
0.017889483 0.00021166667 -0.0056100003
-0.014977242 0 0.0019499999
0.012689052 0.00042333335 -0.00309
-0.0037443105 0.00042333335 -0.0024600001
-0.0074886209 0.00042333335 -0.00015000005
-0.0037443105 -0.00021166667 -0.0024600001
-0.0037443105 0.0010583333 -0.0024600001
0.01664138 0.00042333335 -0.00015000005
0.0047843968 0.00021166667 0.00068999996
-0.020177674 -0.000635 -0.00036000006
-0.0076966383 0.00127 -0.00015000005
-0.014977242 0 -0.0075000003
-0.02038569 0.00127 -0.00015000005
0 0.00042333335 -0.00288
0.017473448 0 0.0019499999
0.017681466 -0.00021166667 -0.0049800002
-0.015601293 0.00127 -0.00015000005
0.022673881 0.00021166667 -0.0041400003
-0.0041603451 -0.0010583333 -0.0024600001
-0.0081126727 0.00127 -0.00015000005
0.012689052 0.00042333335 0.00068999996
-0.0047843968 -0.00021166667 0.00111
0.023297932 0.00127 -0.0018300001
-0.0041603451 -0.00042333335 -0.0024600001
-0.0041603451 -0.00021166667 -0.0024600001
-0.02121776 -0.0010583333 -0.0024600001
-0.0041603451 0.00021166667 -0.0024600001
0.022673881 0.00021166667 0.00026999996
-0.020593708 -0.00021166667 0.00111
-0.0041603451 0.000635 -0.0024600001
-0.0074886209 0.00042333335 5.9999948e-05
-0.024130002 -0.00042333335 -0.00141
-0.024130002 -0.00021166667 -0.00141
0.013937156 0.00042333335 -0.00015000005
-0.020593708 -0.000635 -0.00036000006
-0.0039523277 -0.00127 -0.0024600001
-0.004368362 0.00021166667 -0.0024600001
0.024130002 0.00021166667 -0.0016200001
-0.004368362 -0.00084666669 -0.0024600001
0.0014561207 0.00042333335 -0.00015000005
0.018097501 0.0010583333 -0.0024600001
0.0045763794 0.00042333335 -0.00015000005
-0.020177674 0.00042333335 -0.00015000005
0.0097768111 0.000635 -0.0024600001
-0.004368362 -0.00021166667 -0.0024600001
-0.004368362 0 -0.0024600001
-0.0039523277 -0.0010583333 -0.0024600001
-0.004368362 0.00042333335 -0.0024600001
-0.004368362 0.000635 -0.0024600001
-0.004368362 0.00084666669 -0.0024600001
0.0079046553 0 -0.0039300001
0.0079046553 0.00021166667 -0.0039300001
-0.0076966383 0.00042333335 5.9999948e-05
-0.0081126727 0.00042333335 -0.00015000005
-0.010400862 0.00021166667 -0.0072900001
-0.0037443105 -0.000635 -0.0024600001
0.0095687937 0.00084666669 -0.0024600001
0.023505948 0.00127 -0.0018300001
0.0079046553 0.00021166667 0.00047999996
0.01289707 -0.00021166667 0.00068999996
0.017889483 0.00021166667 -0.00288
0.0022881897 0.00021166667 0.00174
-0.015393277 0.00042333335 0.0019499999
-0.02038569 0 0.0027900001
-0.0076966383 0.00042333335 -0.00015000005
0.01289707 -0.00021166667 -0.0035100002
-0.023921983 0.00042333335 -0.00015000005
-0.0037443105 -0.00042333335 -0.0024600001
0.01289707 0 0.00068999996
-0.0079046553 -0.00021166667 -0.0035100002
-0.0079046553 0 -0.0035100002
-0.010400862 0.00021166667 -0.0058200001
0.020593708 0 0.00111
-0.02038569 -0.000635 -0.00036000006
0.020593708 0.00021166667 0.0021599999
0.0079046553 0 0.00047999996
-0.0079046553 0.00042333335 -0.00015000005
0.0095687937 0.0010583333 -0.0024600001
0.0079046553 0.00021166667 -0.0075000003
0.0079046553 0 -0.0075000003
0.019761639 0.00042333335 -0.00015000005
-0.0072806035 -0.00021166667 -0.0026700001
-0.0079046553 0.00127 -0.00015000005
0.020593708 -0.00021166667 0.0021599999
0.01289707 0.00021166667 0.00068999996
0.005824483 0.00042333335 -0.00015000005
0.0012481035 0.00042333335 -0.00015000005
-0.0039523277 0.00042333335 -0.0024600001
-0.0039523277 0.000635 -0.0024600001
-0.024130002 0 -0.00141
0.01289707 0.00021166667 -0.0035100002
-0.0039523277 0.00084666669 -0.0024600001
0.01289707 0 -0.0035100002
-0.02038569 0.00042333335 -0.00015000005
-0.024130002 -0.00021166667 -0.0016200001
-0.023089914 -0.00021166667 -0.0035100002
-0.024130002 0.00021166667 -0.00078000006
-0.0070725866 0.00127 -0.00015000005
0.019345604 0.00042333335 -0.00015000005
0.0089447415 0.00042333335 -0.0024600001
-0.024130002 0 -0.0016200001
-0.0047843968 -0.00021166667 -0.00309
-0.0047843968 0 -0.00309
0.0089447415 -0.00042333335 -0.0024600001
-0.024130002 -0.00042333335 -0.0016200001
0.0089447415 -0.000635 -0.0024600001
-0.024130002 -0.000635 -0.00078000006
0.01289707 -0.00021166667 -0.0039300001
0.01289707 0 -0.0039300001
0.020177674 -0.00021166667 -0.00624
-0.0022881897 0.000635 -0.0024600001
0.01289707 0.00021166667 -0.0039300001
-0.0068645691 0.00042333335 -0.00015000005
-0.024130002 -0.00084666669 -0.00078000006
0.024130002 0.00084666669 -0.00099000009
0.01289707 0.00021166667 0.00153
0.014977242 0 0.0019499999
0.0091527589 -0.000635 -0.0024600001
0.0091527589 -0.00084666669 -0.0024600001
0.024130002 0.00084666669 -0.0018300001
0.01289707 0.00021166667 -0.0049800002
0.01289707 0 -0.0049800002
0.01289707 -0.00021166667 -0.0049800002
-0.0024962069 0.00084666669 -0.0024600001
0.0091527589 -0.00127 -0.0024600001
0.011024914 0.00042333335 -0.00015000005
0.008736724 0.00021166667 -0.0024600001
0.01289707 0 0.00153
0.01289707 -0.00021166667 0.00153
-0.019969655 -0.000635 -0.00036000006
0.012481035 0 -0.0039300001
0.012481035 0 -0.0049800002
0.0089447415 0.0010583333 -0.0024600001
-0.0070725866 0.00042333335 -0.00015000005
-0.012481035 -0.00021166667 -0.0056100003
-0.0022881897 -0.00127 -0.0024600001
-0.0022881897 -0.0010583333 -0.0024600001
-0.019761639 -0.000635 -0.00036000006
-0.0066565517 0.00127 -0.00015000005
-0.0018721552 -0.00127 -0.0024600001
-0.01289707 0 -0.0070800004
-0.01289707 0.00021166667 -0.0070800004
0.017889483 0.00021166667 0.00026999996
0.0085287075 -0.00042333335 -0.0024600001
0.0085287075 -0.000635 -0.0024600001
-0.010400862 0.00021166667 0.00174
-0.0018721552 0.00021166667 -0.0024600001
0.0010400863 0.00042333335 -0.00015000005
-0.01289707 -0.00021166667 -0.0070800004
0.0074886209 0.00042333335 -0.00015000005
0.019137587 0.00042333335 -0.00015000005
-0.010400862 0.00021166667 -0.0043500001
-0.017057415 0.00127 -0.00015000005
-0.012689052 -0.00021166667 -0.0079199998
-0.023713967 -0.00127 -0.0016200001
0.022673881 0.00021166667 -0.0033000002
-0.012689052 0.00021166667 -0.0079199998
0.0022881897 0.00021166667 -0.0060300003
0.020177674 -0.00021166667 0.00089999998
0.008736724 -0.00084666669 -0.0024600001
0.008736724 0 -0.0024600001
-0.021425776 -0.00127 -0.0024600001
-0.0020801725 -0.00127 -0.0024600001
-0.0020801725 -0.0010583333 -0.0024600001
-0.023089914 0 -0.0035100002
-0.0068645691 0.00127 -0.00015000005
-0.017473448 0 -0.0026700001
-0.023713967 0.00042333335 -0.00015000005
-0.023089914 0.00021166667 0.00174
0.0047843968 0.00021166667 -0.0075000003
-0.01289707 0.00021166667 -0.0056100003
0.008736724 -0.0010583333 -0.0024600001
0.008736724 -0.00127 -0.0024600001
0.020593708 -0.00021166667 0.00153
-0.017057415 0.00042333335 -0.00015000005
-0.0066565517 0.00042333335 -0.00015000005
0.020593708 0.00021166667 0.00153
-0.0020801725 0.00042333335 -0.0024600001
0.024130002 -0.00021166667 -0.00099000009
0.017681466 -0.00021166667 -0.00288
-0.010400862 0.00021166667 -0.0045600003
-0.0033282759 0.0010583333 -0.0024600001
-0.0033282759 -0.00042333335 -0.0024600001
-0.0033282759 -0.00021166667 -0.0024600001
-0.0052004312 0.00042333335 -0.00309
-0.022881897 0.00021166667 -0.00771
-0.0033282759 0 -0.0024600001
0.0093607763 0.00127 -0.0024600001
-0.0033282759 0.00042333335 -0.0024600001
0.0093607763 0.0010583333 -0.0024600001
-0.0033282759 0.00084666669 -0.0024600001
-0.01289707 0.00021166667 -0.00624
-0.0033282759 -0.000635 -0.0024600001
-0.01289707 0 -0.00624
-0.023505948 -0.00127 -0.00078000006
0.0093607763 0.00084666669 -0.0024600001
-0.01289707 -0.00021166667 -0.00624
0.0093607763 0.000635 -0.0024600001
0.023921983 -0.0010583333 -0.0018300001
0.0093607763 0.00042333335 -0.0024600001
0.0093607763 0.00021166667 -0.0024600001
-0.0031202587 -0.00084666669 -0.0024600001
-0.0031202587 -0.000635 -0.0024600001
0.0079046553 0.00021166667 -0.0070800004
-0.023297932 0.00127 -0.00078000006
0.0076966383 0.00042333335 -0.00015000005
-0.012481035 -0.00021166667 -0.00624
-0.0035362933 -0.00042333335 -0.0024600001
-0.0035362933 -0.00021166667 -0.0024600001
-0.0035362933 0.00021166667 -0.0024600001
-0.0047843968 -0.00021166667 -0.0041400003
-0.0035362933 0.00042333335 -0.0024600001
-0.0072806035 -0.00021166667 5.9999948e-05
0.0079046553 0 -0.0070800004
-0.020593708 -0.00021166667 -0.0068700002
-0.023297932 -0.00127 -0.00078000006
0.0047843968 0.00021166667 -0.0064500002
-0.0035362933 0.000635 -0.0024600001
-0.0035362933 0.00084666669 -0.0024600001
-0.022673881 0.00021166667 -0.00771
0.019553622 0.00042333335 -0.00015000005
0.023713967 0.00127 -0.0018300001
-0.023713967 -0.00127 -0.00015000005
0.020593708 0 0.00026999996
-0.017681466 0.00021166667 0.00068999996
0.024130002 0.000635 -0.0018300001
0.024130002 -0.00021166667 -0.0018300001
-0.023089914 0 0.00089999998
-0.021425776 0 -0.0024600001
0.014145173 0.00042333335 -0.00015000005
0.017681466 -0.00021166667 -0.0068700002
-0.017681466 0.00021166667 -0.0026700001
-0.0027042243 0.00127 -0.0024600001
-0.015393277 0 -0.0079199998
0.024130002 0.00021166667 -0.0018300001
0.024130002 0.00042333335 -0.0018300001
-0.0027042243 -0.000635 -0.0024600001
-0.0024962069 -0.00127 -0.0024600001
-0.0024962069 -0.0010583333 -0.0024600001
-0.0024962069 -0.00084666669 -0.0024600001
-0.017681466 0.00042333335 -0.0026700001
-0.021425776 -0.00021166667 -0.0024600001
-0.015601293 0.00042333335 -0.00015000005
-0.015185259 0.00021166667 -0.0079199998
0.0091527589 -0.00042333335 -0.0024600001
-0.01289707 -0.00021166667 -0.0056100003
-0.01289707 0 -0.0056100003
0.0022881897 0.00021166667 -0.0051899999
-0.0031202587 -0.00042333335 -0.0024600001
-0.0031202587 -0.00021166667 -0.0024600001
-0.0072806035 0.00042333335 -0.00015000005
0.0093607763 -0.000635 -0.0024600001
0.0093607763 -0.00084666669 -0.0024600001
-0.0031202587 0.00084666669 -0.0024600001
-0.023089914 0 -0.00771
-0.023713967 -0.00127 -0.00078000006
-0.0029122415 -0.0010583333 -0.0024600001
-0.0072806035 0.00127 -0.00015000005
-0.0074886209 0.00127 -0.00015000005
-0.0029122415 -0.00084666669 -0.0024600001
-0.0029122415 -0.000635 -0.0024600001
-0.0029122415 -0.00042333335 -0.0024600001
0.020177674 -0.00021166667 0.00026999996
0.020593708 0.00021166667 -0.00624
0.012481035 0.00021166667 -0.00771
-0.0029122415 0.00127 -0.0024600001
0.020593708 -0.00021166667 -0.00624
-0.0027042243 -0.0010583333 -0.0024600001
-0.0027042243 -0.00084666669 -0.0024600001
-0.0066565517 -0.0010583333 -0.0024600001
0.0074886209 0.00042333335 -0.0033000002
0.018513534 0.00021166667 -0.0024600001
0.018513534 0 -0.0024600001
-0.022881897 0.00021166667 -0.0056100003
-0.0079046553 -0.00021166667 -0.00288
0.012481035 -0.00021166667 -0.0075000003
-0.0079046553 0 -0.00288
-0.023505948 -0.00127 -0.00057000009
-0.023713967 -0.00127 -0.0020400002
-0.0093607763 0.00042333335 -0.00015000005
-0.0066565517 -0.00127 -0.0024600001
0.020177674 -0.00021166667 0.0023699999
0.011024914 0.0010583333 -0.0024600001
-0.0076966383 0.00042333335 0.00026999996
-0.0093607763 0.00127 -0.00015000005
-0.019553622 0.00042333335 -0.00015000005
0.01289707 -0.00021166667 -0.00666
0.011024914 0.00084666669 -0.0024600001
0.011024914 0.000635 -0.0024600001
-0.024130002 0.00021166667 -0.0020400002
-0.014977242 0.00021166667 -0.0045600003
0.01289707 0 -0.00666
-0.0068645691 -0.000635 -0.0024600001
-0.014977242 0.00021166667 -0.00666
-0.0068645691 -0.00127 -0.0024600001
0.020593708 0 0.0023699999
-0.023297932 0.00127 -0.00057000009
-0.014977242 0 0.0013199999
0.0022881897 0.00021166667 0.00111
-0.017889483 -0.00021166667 0.00047999996
-0.010400862 0.00021166667 -0.0051899999
-0.0068645691 -0.0010583333 -0.0024600001
0.0018721552 0.00042333335 -0.00015000005
-0.0068645691 -0.00084666669 -0.0024600001
-0.0066565517 0 -0.0024600001
-0.023505948 -0.00127 -0.0020400002
-0.023297932 -0.00127 -0.00057000009
-0.015393277 0.00042333335 -0.00015000005
-0.023089914 -0.00021166667 -0.0056100003
-0.023089914 0 -0.0056100003
-0.023089914 0.00021166667 -0.00666
0.019969655 0.00042333335 -0.00015000005
0.018513534 0.00127 -0.0024600001
0.020177674 0 0.0023699999
0.018513534 0.0010583333 -0.0024600001
-0.0079046553 0.00021166667 -0.0051899999
0.024130002 0.00084666669 -0.00078000006
0.024130002 0.000635 -0.00078000006
0.024130002 0.00042333335 -0.00078000006
0.024130002 0.00021166667 -0.00078000006
0.011024914 0.00042333335 -0.0024600001
0.024130002 -0.00021166667 -0.00078000006
-0.0079046553 0 0.0023699999
0.011024914 0 -0.0024600001
0.023921983 0.0010583333 -0.0022500001
0.011024914 -0.00021166667 -0.0024600001
0.011024914 -0.00042333335 -0.0024600001
0.024130002 -0.00021166667 -0.0022500001
0.018513534 -0.000635 -0.0024600001
-0.0091527589 0.00042333335 -0.00015000005
-0.0062405174 -0.0010583333 -0.0024600001
0.023921983 -0.0010583333 -0.0022500001
0.023921983 -0.0010583333 -0.00078000006
0.023713967 0.00127 -0.0022500001
0.023713967 0.00127 -0.00078000006
-0.021425776 -0.000635 -0.00036000006
-0.0076966383 0.00042333335 -0.00288
-0.0047843968 -0.00021166667 0.00089999998
-0.020177674 0.00021166667 -0.00477
-0.023713967 -0.00127 -0.00057000009
0.01289707 0.00021166667 -0.00666
-0.0066565517 0.00021166667 -0.0024600001
-0.0066565517 0.00042333335 -0.0024600001
0.0047843968 0.00021166667 -0.0072900001
-0.024130002 -0.000635 -0.0020400002
-0.024130002 -0.00084666669 -0.0020400002
0.024130002 0.00084666669 -0.0022500001
0.024130002 0.000635 -0.0022500001
0.024130002 0.00042333335 -0.0022500001
-0.0052004312 0.00042333335 -0.0072900001
-0.020177674 0 -0.00477
0.024130002 0.00021166667 -0.0022500001
-0.0074886209 0.00042333335 0.00026999996
-0.021633795 -0.000635 -0.00036000006
0.00020801724 -0.00042333335 -0.0026700001
-0.024130002 0.00021166667 -0.00057000009
0.0047843968 0.00021166667 -0.0037200002
-0.024130002 -0.000635 -0.00057000009
-0.024130002 -0.00084666669 -0.00057000009
-0.017681466 0.00021166667 -0.0058200001
-0.020593708 0.0010583333 -0.0024600001
0.023089914 0.00021166667 -0.0043500001
-0.022881897 0.00021166667 -0.00666
-0.010192845 0.00042333335 5.9999948e-05
0.0020801725 0.00042333335 -0.00015000005
0.015601293 0.00127 -0.0024600001
0.023089914 -0.00021166667 0.0023699999
0.017681466 -0.00021166667 -0.0060300003
0.0029122415 0.00021166667 5.9999948e-05
-0.02038569 -0.0010583333 -0.0024600001
-0.02038569 -0.00127 -0.0024600001
-0.020593708 -0.00021166667 -0.0043500001
-0.022049828 -0.000635 -0.00036000006
0.022881897 -0.00021166667 0.0023699999
0.020177674 0.00042333335 -0.00015000005
0.014977242 0 -0.0033000002
-0.020593708 0.00084666669 -0.0024600001
-0.0074886209 0.00084666669 -0.0024600001
-0.0074886209 0.0010583333 -0.0024600001
0.0083206901 0.00042333335 -0.00015000005
-0.0072806035 -0.00127 -0.0024600001
-0.023089914 0.00021166667 0.00068999996
0.017681466 -0.00021166667 -0.00309
0.0047843968 0.00021166667 0.00111
-0.02038569 0.0010583333 -0.0024600001
-0.02038569 0.00084666669 -0.0024600001
-0.010400862 0.00042333335 5.9999948e-05
-0.022257846 -0.000635 -0.00036000006
-0.014977242 0 0.00047999996
-0.02038569 0.000635 -0.0024600001
-0.0047843968 -0.00021166667 0.00174
0.0079046553 0 -0.0037200002
-0.020593708 0 -0.0026700001
-0.02038569 0.00042333335 -0.0024600001
0.011440949 0.00021166667 -0.0024600001
-0.014977242 0.00021166667 -0.00477
0.0047843968 0 0.00153
-0.01289707 -0.00021166667 -0.0051899999
0.023089914 0.00021166667 -0.0058200001
-0.01289707 0 -0.0051899999
-0.01289707 0.00021166667 -0.0051899999
-0.0074886209 -0.00127 -0.0024600001
0.0047843968 0.00021166667 0.00153
-0.0074886209 -0.0010583333 -0.0024600001
-0.012481035 -0.00021166667 -0.0051899999
0.020177674 -0.00021166667 -0.0026700001
-0.0070725866 -0.00021166667 -0.0024600001
-0.017889483 -0.00021166667 -0.0058200001
-0.020593708 -0.00042333335 -0.0024600001
-0.015393277 0.00127 -0.00015000005
0.011232931 0.0010583333 -0.0024600001
-0.023297932 0.00127 -0.0020400002
-0.020593708 -0.000635 -0.0024600001
-0.020593708 -0.00021166667 0.00153
-0.0095687937 0.00042333335 -0.00015000005
-0.017681466 0.00021166667 -0.00477
0.011232931 0.00042333335 -0.0024600001
0.023921983 -0.0010583333 -0.0016200001
0.023713967 0.00127 -0.0016200001
0.011232931 0.00021166667 -0.0024600001
0.020177674 -0.00084666669 -0.00015000005
-0.023297932 -0.00127 -0.0020400002
0.017473448 0 0.0013199999
-0.017681466 0.00021166667 0.00047999996
-0.0070725866 0 -0.0024600001
-0.010400862 0.00021166667 -0.0060300003
-0.0095687937 0.00127 -0.00015000005
-0.014977242 -0.00021166667 -0.00666
-0.019553622 0.00127 -0.00015000005
0.0027042243 0.00042333335 5.9999948e-05
-0.010400862 0.00021166667 0.00089999998
0.0079046553 0.00021166667 -0.0068700002
-0.0097768111 0.00127 -0.00015000005
0.0079046553 0.00021166667 0.00089999998
-0.020593708 0.00042333335 -0.0024600001
-0.021841811 -0.000635 -0.00036000006
0.015601293 0.00042333335 -0.00015000005
0.0022881897 0.00021166667 0.0021599999
-0.0099848276 0.00042333335 5.9999948e-05
-0.0072806035 0.00042333335 -0.0024600001
0.018513534 -0.00084666669 -0.0024600001
0.0079046553 0 -0.0068700002
-0.017681466 0.00021166667 -0.0060300003
-0.022881897 0.00021166667 0.00068999996
0.0022881897 0.00021166667 -0.0039300001
-0.020177674 0 -0.0043500001
-0.020177674 0.00021166667 -0.0043500001
-0.020177674 0.00042333335 -0.0026700001
0.011232931 0.00127 -0.0024600001
0.0047843968 0.00021166667 -0.0070800004
-0.012481035 -0.00021166667 0.00089999998
-0.0047843968 -0.00021166667 -0.0051899999
-0.02121776 0.00127 -0.0024600001
0.018305518 0 -0.0024600001
-0.023089914 0 0.00047999996
-0.019969655 0.00042333335 -0.00015000005
0.0022881897 0.00021166667 -0.0037200002
-0.0052004312 0.00042333335 0.00026999996
0.018305518 -0.00021166667 -0.0024600001
-0.023089914 0.00021166667 0.00153
-0.022881897 0 0.0027900001
0.014977242 0 -0.00309
0.020593708 0 0.00089999998
-0.019969655 0.00127 -0.00015000005
0.024130002 -0.00021166667 -0.0016200001
-0.0047843968 -0.000635 -0.0024600001
-0.008736724 0.00042333335 -0.00015000005
0.020593708 0 0.0019499999
-0.008736724 0.00127 -0.00015000005
0.010192845 0.00127 -0.0024600001
0.020177674 -0.00021166667 -0.00666
-0.0047843968 0.00042333335 -0.0024600001
-0.0047843968 0.000635 -0.0024600001
0.016017329 -0.000635 -0.0024600001
0.020177674 -0.00021166667 -0.0056100003
-0.017681466 0.00021166667 -0.00771
0.012689052 0.00042333335 -0.0026700001
0.01060888 0.00084666669 -0.0024600001
0.018305518 0.000635 -0.0024600001
-0.021009741 -0.00084666669 -0.0024600001
0.022465862 0.00127 -0.0022500001
0.01060888 0.000635 -0.0024600001
0.01060888 0.00042333335 -0.0024600001
0.0081126727 0.00042333335 -0.00015000005
0.0049924138 0.00042333335 -0.00015000005
-0.0049924138 -0.00084666669 -0.0024600001
-0.014977242 -0.00021166667 -0.0043500001
-0.017889483 -0.00021166667 -0.00771
-0.021009741 -0.000635 -0.00036000006
0.018305518 0.00042333335 -0.0024600001
0.0079046553 0.00021166667 -0.00288
0.0079046553 0 -0.00288
-0.017889483 -0.00021166667 -0.0068700002
-0.022881897 0.00021166667 0.00153
-0.022881897 0.00021166667 0.00047999996
-0.020177674 0.00021166667 0.00068999996
0.018305518 0.00021166667 -0.0024600001
0.023089914 0 -0.0041400003
-0.02038569 0 -0.0079199998
-0.0045763794 -0.00084666669 -0.0024600001
-0.0045763794 -0.000635 -0.0024600001
0.020593708 0.00021166667 -0.0049800002
-0.0083206901 0.00042333335 -0.00015000005
-0.020801725 -0.000635 -0.00036000006
0.0022881897 0.00021166667 0.0013199999
-0.017681466 0.00021166667 -0.0056100003
0.020593708 -0.00021166667 -0.0049800002
-0.0045763794 0 -0.0024600001
0.024130002 0.000635 -0.0016200001
-0.020177674 0.00127 -0.00015000005
-0.0045763794 0.00042333335 -0.0024600001
-0.0045763794 0.000635 -0.0024600001
-0.0083206901 0.00127 -0.00015000005
0.0079046553 0.00042333335 -0.00015000005
0.023089914 -0.00021166667 -0.0041400003
0.016433362 0.00042333335 -0.00015000005
-0.012481035 -0.00021166667 -0.0045600003
0.020177674 -0.00021166667 -0.0049800002
0.0097768111 0.00127 -0.0024600001
0 0.00042333335 0.00068999996
-0.0045763794 -0.00127 -0.0024600001
0.01289707 -0.00021166667 -0.0026700001
0.01289707 0 -0.0026700001
0.023089914 -0.00127 -0.0018300001
0.0056164656 0.00042333335 -0.00015000005
-0.014977242 0.00021166667 -0.0043500001
0.01289707 0.00021166667 -0.0026700001
-0.0085287075 0.00042333335 -0.00015000005
-0.0047843968 -0.00021166667 0.00026999996
0.018305518 -0.00084666669 -0.0024600001
-0.0085287075 0.00127 -0.00015000005
-0.0052004312 0.000635 -0.0024600001
-0.0045763794 -0.0010583333 -0.0024600001
-0.02121776 -0.00021166667 -0.0024600001
-0.021841811 0.0010583333 -0.0024600001
0.024130002 0.00042333335 -0.0016200001
0.0074886209 0.00042333335 -0.00288
-0.017889483 -0.00021166667 -0.0056100003
0.0099848276 0.00127 -0.0024600001
-0.024130002 0.00021166667 -0.00015000005
0.0022881897 0.00021166667 -0.0064500002
-0.010400862 0.00021166667 -0.00624
0.013729138 0.00042333335 -0.00015000005
-0.019761639 0.00127 -0.00015000005
-0.005824483 -0.0010583333 -0.0024600001
-0.005824483 -0.00084666669 -0.0024600001
-0.005824483 -0.00042333335 -0.0024600001
0.010816897 0.0010583333 -0.0024600001
-0.005824483 -0.00021166667 -0.0024600001
0.010816897 0.00084666669 -0.0024600001
0.023297932 0.00127 -0.0022500001
0.010816897 0.000635 -0.0024600001
0.014977242 -0.00021166667 -0.0072900001
0.024130002 -0.00021166667 -0.00036000006
0.015809311 0.0010583333 -0.0024600001
0.010816897 0.00042333335 -0.0024600001
0.015809311 0.00127 -0.0024600001
0.0047843968 0 -0.0039300001
-0.020593708 -0.00021166667 -0.0056100003
-0.020593708 -0.00021166667 0.00047999996
0.016017329 -0.00127 -0.0024600001
-0.0089447415 0.00127 -0.00015000005
0.0047843968 0.00021166667 -0.0039300001
-0.0076966383 0.00042333335 -0.00309
0.0022881897 0.00021166667 -0.0068700002
-0.0060325004 -0.000635 -0.0024600001
-0.0091527589 0.00127 -0.00015000005
-0.017889483 -0.00021166667 -0.0043500001
-0.0062405174 0.000635 -0.0024600001
-0.0062405174 0.00084666669 -0.0024600001
-0.0062405174 0.0010583333 -0.0024600001
0.022881897 -0.00021166667 0.0025800001
0.023505948 0.00127 -0.00078000006
-0.014977242 -0.00021166667 -0.0070800004
-0.0079046553 -0.00021166667 0.00153
0.023505948 0.00127 -0.0022500001
-0.0079046553 0 0.00153
0.023089914 0.00127 -0.0022500001
-0.0060325004 -0.00042333335 -0.0024600001
-0.020177674 0.00021166667 0.00047999996
-0.020177674 0 0.00047999996
-0.017681466 0.00021166667 -0.0043500001
0.0024962069 0.00042333335 5.9999948e-05
-0.0060325004 0.00021166667 -0.0024600001
-0.0060325004 0.00042333335 -0.0024600001
-0.0060325004 0.000635 -0.0024600001
0.023297932 0.00127 -0.00078000006
-0.0089447415 0.00042333335 -0.00015000005
-0.0074886209 0.00042333335 -0.00309
0.01289707 0 -0.0043500001
-0.019761639 0.00042333335 -0.00015000005
0.022881897 -0.00127 -0.0018300001
-0.0054084486 0 -0.0024600001
-0.0054084486 0.00021166667 -0.0024600001
0.022881897 0 0.0027900001
-0.017681466 0.00021166667 -0.0068700002
-0.0054084486 0.0010583333 -0.0024600001
0.022881897 -0.00127 -0.0022500001
0.022673881 0.00127 -0.0022500001
0.022881897 -0.00127 -0.00078000006
-0.023089914 0 -0.00477
-0.0052004312 -0.00127 -0.0024600001
-0.0052004312 -0.0010583333 -0.0024600001
0.016017329 -0.00084666669 -0.0024600001
-0.0052004312 -0.00084666669 -0.0024600001
-0.0052004312 -0.000635 -0.0024600001
0.01060888 0.00127 -0.0024600001
0.01060888 0.0010583333 -0.0024600001
-0.020593708 -0.00021166667 0.00068999996
0.0016641379 0.00042333335 -0.00015000005
0.01289707 -0.00021166667 -0.0043500001
-0.022881897 0.00021166667 -0.00477
0.020593708 0.00021166667 -0.0056100003
0.020593708 -0.00021166667 -0.0056100003
0.017681466 -0.00021166667 0.0023699999
0.016017329 -0.0010583333 -0.0024600001
-0.0056164656 0.00042333335 -0.0024600001
-0.0056164656 0.000635 -0.0024600001
0.020593708 0.00021166667 -0.00666
-0.0074886209 0.00042333335 -0.00288
-0.02121776 -0.000635 -0.00036000006
0.020593708 -0.00021166667 -0.00666
0.0097768111 0.0010583333 -0.0024600001
-0.0054084486 -0.00127 -0.0024600001
-0.0054084486 -0.0010583333 -0.0024600001
0.023089914 -0.00127 -0.00078000006
-0.0054084486 -0.00084666669 -0.0024600001
-0.0054084486 -0.000635 -0.0024600001
0.010816897 -0.0010583333 -0.0024600001
0.023089914 -0.00127 -0.0022500001
0.022881897 0.00127 -0.0022500001
0.019969655 -0.00084666669 -0.00015000005
0.01289707 0.00021166667 -0.0043500001
0.0056164656 -0.00127 -0.0024600001
0.0056164656 -0.000635 -0.0024600001
-0.0076966383 0.00042333335 -0.0072900001
-0.022049828 0.00042333335 -0.00015000005
0.023297932 -0.00021166667 -0.00015000005
0.017057415 -0.00084666669 -0.0024600001
0.0056164656 -0.00084666669 -0.0024600001
-0.010400862 0.00021166667 -0.0033000002
-0.012689052 -0.000635 -0.00036000006
-0.020593708 -0.00021166667 -0.00624
-0.017681466 0.00021166667 0.00174
0.0056164656 -0.0010583333 -0.0024600001
-0.01664138 -0.000635 -0.00036000006
0.015393277 0 -0.0079199998
0.023297932 0.00042333335 -0.00015000005
0.016225345 0.00084666669 -0.0024600001
-0.022257846 0.00127 -0.00015000005
0.016225345 0.0010583333 -0.0024600001
0.016849397 0.0010583333 -0.0024600001
0.0054084486 0.00127 -0.0024600001
-0.017681466 0.00021166667 0.00111
-0.023089914 -0.00021166667 -0.00309
0.0024962069 0.00127 -0.0024600001
-0.010400862 0.00021166667 -0.0026700001
0.0047843968 0.00021166667 -0.0068700002
0.020593708 -0.00021166667 -0.0068700002
-0.00041603448 0.00042333335 -0.00015000005
-0.012273017 -0.000635 -0.00036000006
0.0022881897 0.00021166667 0.0019499999
0.0079046553 0.00021166667 -0.0060300003
0.0079046553 0 -0.0060300003
0.017265432 0.00042333335 -0.00015000005
0.017057415 0 -0.0024600001
-0.0027042243 0.00042333335 -0.00015000005
0.020593708 0.00021166667 -0.0068700002
-0.023089914 0 -0.00309
-0.023297932 0.00042333335 -0.00015000005
0.011856983 0.00042333335 -0.00015000005
-0.022049828 0.00127 -0.00015000005
0.020177674 -0.00021166667 -0.0041400003
0.0056164656 -0.00021166667 -0.0024600001
0.017057415 -0.00021166667 -0.0024600001
-0.012481035 -0.000635 -0.00036000006
0.0047843968 0.00021166667 -0.0033000002
0.017057415 -0.00042333335 -0.0024600001
-0.0024962069 0.00042333335 -0.00015000005
-0.022465862 0.00127 -0.00015000005
0.020593708 0.00021166667 -0.0064500002
0.0079046553 0 0.00026999996
-0.012481035 -0.00021166667 -0.0037200002
-0.017889483 -0.00021166667 0.00111
-0.022881897 0.000635 -0.0024600001
0.016849397 0.000635 -0.0024600001
0.0049924138 0.00021166667 -0.0079199998
0.01289707 -0.00021166667 5.9999948e-05
0.016849397 0.00042333335 -0.0024600001
0.0052004312 0.000635 -0.0024600001
0.016849397 0.00021166667 -0.0024600001
-0.012481035 0.00021166667 -0.0037200002
-0.023505948 -0.00127 -0.00141
-0.016433362 -0.000635 -0.00036000006
0.018097501 -0.00127 -0.00015000005
0.0029122415 0.00084666669 -0.0024600001
0.0079046553 0 0.00111
0.016849397 0 -0.0024600001
0.0029122415 0.0010583333 -0.0024600001
-0.013313103 -0.000635 -0.00036000006
0.01289707 -0.00021166667 -0.00624
0.0074886209 0.00042333335 0.00026999996
0.015185259 0.00021166667 -0.0079199998
-0.022257846 0.00042333335 -0.00015000005
-0.01289707 -0.000635 -0.00036000006
0.020177674 -0.00021166667 -0.0064500002
-0.014977242 -0.00021166667 -0.0049800002
0.0054084486 0.00021166667 -0.0024600001
0.0022881897 0.00021166667 0.00026999996
0.0047843968 0 -0.0033000002
0.0027042243 0.0010583333 -0.0024600001
-0.0022881897 0.00042333335 -0.00015000005
0.0054084486 -0.000635 -0.0024600001
0.0054084486 -0.00084666669 -0.0024600001
0.011440949 0.00042333335 -0.00015000005
0.016849397 0.00084666669 -0.0024600001
0.023713967 0.00042333335 -0.00015000005
-0.013105087 -0.000635 -0.00036000006
0.0027042243 0.00127 -0.0024600001
0.0022881897 0.00021166667 -0.0035100002
0.0064485348 0.00042333335 -0.00015000005
0.015185259 0 -0.0079199998
0.015185259 -0.00021166667 -0.0079199998
0.020593708 -0.00021166667 -0.0064500002
0.0079046553 0.00021166667 0.00026999996
0.0060325004 -0.00127 -0.0024600001
-0.0033282759 0.00042333335 -0.00015000005
-0.010400862 0.00021166667 -0.0049800002
0.016225345 0.00042333335 -0.0024600001
0.017057415 0.00127 -0.0024600001
-0.010400862 0.00021166667 -0.0037200002
0.017889483 0.00021166667 -0.0064500002
0.0060325004 -0.0010583333 -0.0024600001
0.017057415 0.0010583333 -0.0024600001
0.0066565517 0.00042333335 -0.00015000005
-0.023297932 -0.00127 -0.0018300001
-0.021841811 0.00042333335 -0.00015000005
-0.00020801724 0.00042333335 -0.00015000005
-0.012481035 0.00021166667 0.0023699999
0.0022881897 0.00021166667 -0.0026700001
-0.017265432 -0.000635 -0.00036000006
0.012689052 0.00042333335 0.00047999996
-0.017473448 0 0.00111
-0.017889483 0.00042333335 -0.00288
0.017057415 0.00084666669 -0.0024600001
-0.016433362 0.00127 -0.00015000005
-0.017681466 0.00021166667 0.0023699999
-0.011648966 -0.000635 -0.00036000006
0.017265432 -0.00084666669 -0.0024600001
0.022673881 0.00021166667 -0.0043500001
0.017265432 -0.00021166667 -0.0024600001
-0.023713967 -0.00127 -0.0018300001
0.020177674 -0.00021166667 -0.0070800004
0.0062405174 -0.00127 -0.0024600001
0.0060325004 0.00127 -0.0024600001
0.01289707 0 -0.0033000002
-0.0035362933 0.00042333335 -0.00015000005
0.01289707 -0.00021166667 -0.0033000002
0.017265432 -0.00042333335 -0.0024600001
0.017265432 -0.000635 -0.0024600001
-0.0031202587 0.00042333335 -0.00015000005
-0.021841811 0.00127 -0.00015000005
-0.011440949 -0.000635 -0.00036000006
-0.017473448 -0.000635 -0.00036000006
-0.0072806035 -0.00021166667 -0.00666
-0.0072806035 -0.00021166667 -0.0060300003
0.017681466 -0.00021166667 -0.0064500002
-0.023505948 -0.00127 -0.0018300001
0.01289707 -0.00021166667 -0.0072900001
0.020177674 -0.00021166667 -0.0068700002
0.018097501 0.00042333335 -0.00015000005
-0.016849397 -0.000635 -0.00036000006
-0.01289707 -0.00021166667 -0.0041400003
-0.017889483 -0.00021166667 -0.00288
0.0024962069 0 -0.0079199998
-0.012481035 -0.00021166667 -0.0049800002
0.0022881897 0.00021166667 -0.00309
0.005824483 -0.000635 -0.0024600001
-0.0029122415 0.00042333335 -0.00015000005
0.014977242 0.00021166667 0.00068999996
-0.012065001 -0.000635 -0.00036000006
0.005824483 -0.00084666669 -0.0024600001
-0.0079046553 -0.00021166667 -0.00666
-0.01289707 0 -0.0041400003
-0.01289707 0.00021166667 -0.0049800002
-0.01289707 0 -0.0049800002
-0.01289707 -0.00021166667 -0.0049800002
0.005824483 -0.0010583333 -0.0024600001
-0.020177674 0 -0.0037200002
-0.020177674 0.00021166667 -0.0037200002
0.0022881897 0.00021166667 -0.0033000002
0.0079046553 0.00021166667 -0.0026700001
0.012689052 0.00042333335 5.9999948e-05
0.022673881 0.00021166667 0.00068999996
0.014977242 0 0.00068999996
-0.012481035 -0.00021166667 -0.0041400003
0.017057415 0.000635 -0.0024600001
-0.012481035 -0.00021166667 0.0023699999
-0.016849397 0.00127 -0.00015000005
-0.0079046553 -0.00021166667 -0.0072900001
-0.023297932 0.00127 -0.0018300001
-0.0079046553 0 -0.0072900001
-0.010192845 0 0.0027900001
0.017057415 0.00042333335 -0.0024600001
-0.0076966383 0.00042333335 0.0019499999
-0.011856983 -0.000635 -0.00036000006
0.0029122415 0.00127 -0.0024600001
-0.017057415 -0.000635 -0.00036000006
0.005824483 0.000635 -0.0024600001
0.012481035 -0.00021166667 -0.0070800004
0.016225345 0.000635 -0.0024600001
0.012689052 0.00042333335 -0.0033000002
-0.0074886209 0.00042333335 0.0019499999
-0.0079046553 0 -0.00666
0.017057415 0.00021166667 -0.0024600001
-0.01289707 0.00021166667 -0.0041400003
0.005824483 -0.00042333335 -0.0024600001
-0.015393277 -0.000635 -0.00036000006
0.016433362 0.00084666669 -0.0024600001
0.0047843968 -0.000635 -0.0024600001
0.0047843968 -0.0010583333 -0.0024600001
-0.014769224 -0.000635 -0.00036000006
0.0047843968 0.00021166667 -0.0056100003
-0.017681466 0.00021166667 0.00089999998
-0.022881897 0.00021166667 -0.0049800002
-0.023089914 0.00127 -0.00015000005
-0.023297932 -0.00127 -0.00141
0.016433362 0.000635 -0.0024600001
0.016433362 0.00042333335 -0.0024600001
-0.012481035 0.00021166667 -0.0026700001
-0.023089914 0 -0.0049800002
-0.023089914 -0.00021166667 -0.0049800002
0.0045763794 0.00084666669 -0.0024600001
-0.023089914 -0.000635 -0.0024600001
0.016433362 0.00021166667 -0.0024600001
0.0052004312 0.00042333335 0.00026999996
-0.0047843968 -0.00021166667 -0.0054000001
0.0039523277 0 -0.0024600001
-0.022881897 0.00021166667 -0.00624
0.017681466 -0.00127 -0.00015000005
-0.014977242 0 0.0023699999
-0.012689052 0.00042333335 -0.0026700001
0.0037443105 -0.00021166667 -0.0024600001
0.0037443105 0 -0.0024600001
0.017681466 0.00042333335 -0.00015000005
-0.023089914 0.00042333335 -0.00015000005
0.014977242 0 0.0023699999
0.0037443105 0.00021166667 -0.0024600001
-0.0014561207 0.00042333335 -0.00015000005
-0.014353191 -0.000635 -0.00036000006
-0.0047843968 -0.00021166667 0.0019499999
-0.0047843968 -0.00021166667 0.0013199999
0.010192845 -0.00021166667 -0.0079199998
0.0037443105 0.000635 -0.0024600001
0.0062405174 0.00042333335 -0.00015000005
0.016433362 0.0010583333 -0.0024600001
-0.023297932 0.00127 -0.00141
-0.01664138 0.00042333335 -0.00015000005
0.011648966 0.00042333335 -0.00015000005
-0.012481035 -0.00021166667 -0.0026700001
0.012689052 0.00021166667 -0.0079199998
0.014977242 0 -0.0026700001
-0.014561207 -0.000635 -0.00036000006
0.017473448 0.00042333335 -0.00015000005
0.0041603451 0.00021166667 -0.0024600001
0.0047843968 0.00021166667 -0.0043500001
0.004368362 0.00084666669 -0.0024600001
0.0047843968 0.00021166667 0.00026999996
0.004368362 0.000635 -0.0024600001
0 0.00042333335 -0.00309
-0.022881897 0.00042333335 -0.00015000005
0.023505948 0.00042333335 -0.00015000005
-0.023089914 -0.00021166667 -0.00624
-0.015185259 -0.000635 -0.00036000006
0.004368362 0.00021166667 -0.0024600001
-0.0047843968 -0.00021166667 0.00153
-0.010400862 0.00021166667 -0.00666
-0.01664138 0.00127 -0.00015000005
0.004368362 0 -0.0024600001
0.004368362 -0.00042333335 -0.0024600001
0.022673881 0.00021166667 -0.0051899999
-0.0047843968 -0.00021166667 -0.0045600003
0.014977242 0.00042333335 -0.00015000005
0.004368362 -0.00084666669 -0.0024600001
0.004368362 -0.000635 -0.0024600001
0.023505948 -0.00021166667 -0.00015000005
0.0079046553 0 0.00153
0.0039523277 0.00042333335 -0.0024600001
0.010192845 0 -0.0079199998
-0.0012481035 0.00042333335 -0.00015000005
0.010192845 0.00021166667 -0.0079199998
0.0045763794 -0.00042333335 -0.0024600001
-0.014977242 0 -0.0037200002
-0.022881897 0.00127 -0.00015000005
0.0049924138 0.00042333335 0.00026999996
0.0045763794 -0.00084666669 -0.0024600001
0.0076966383 0.00021166667 0.0025800001
0.0045763794 -0.0010583333 -0.0024600001
0.0049924138 0.00042333335 0.00068999996
-0.014977242 -0.000635 -0.00036000006
0.004368362 0.00127 -0.0024600001
0.0079046553 0.00021166667 0.00153
0.0041603451 -0.00127 -0.0024600001
0.0041603451 -0.0010583333 -0.0024600001
0.0041603451 -0.00084666669 -0.0024600001
-0.023089914 0.00021166667 -0.00624
0.0041603451 -0.000635 -0.0024600001
0.0041603451 -0.00042333335 -0.0024600001
0.0041603451 -0.00021166667 -0.0024600001
-0.014977242 0.00021166667 -0.0041400003
0.0031202587 0.000635 -0.0024600001
-0.0020801725 0.00042333335 -0.00015000005
0.0031202587 0.00084666669 -0.0024600001
0 0.00042333335 0.0019499999
-0.016017329 -0.000635 -0.00036000006
0.017889483 0.00042333335 -0.00015000005
-0.010400862 0.00021166667 0.00068999996
0.0031202587 0.00127 -0.0024600001
0.01664138 0.0010583333 -0.0024600001
-0.013729138 -0.000635 -0.00036000006
0.0047843968 0.00021166667 -0.0060300003
0.0022881897 0.00021166667 -0.0043500001
-0.022673881 0.00127 -0.00015000005
0.023713967 -0.00021166667 -0.00015000005
0.01664138 0.00084666669 -0.0024600001
0.01664138 0.000635 -0.0024600001
0.0079046553 0.00021166667 -0.0056100003
0.0079046553 0 -0.0056100003
0.0052004312 0.00042333335 -0.00288
0.01664138 0.00042333335 -0.0024600001
-0.017681466 0.00021166667 -0.0041400003
-0.0018721552 0.00042333335 -0.00015000005
-0.013521121 -0.000635 -0.00036000006
-0.022465862 0.00042333335 -0.00015000005
0.0031202587 -0.0010583333 -0.0024600001
0.0024962069 0.00042333335 0.00026999996
0.0079046553 0.00021166667 0.00111
0.0031202587 -0.00084666669 -0.0024600001
0.0031202587 -0.000635 -0.0024600001
0.016849397 -0.00021166667 -0.0024600001
-0.017889483 -0.00021166667 -0.0037200002
0.01289707 0 -0.00624
0.01289707 0 5.9999948e-05
0.01289707 0.00021166667 -0.00624
-0.0047843968 -0.00021166667 -0.0075000003
0.0022881897 0.00021166667 -0.0056100003
-0.016225345 -0.000635 -0.00036000006
-0.017681466 0.00021166667 -0.0037200002
-0.017681466 0.00021166667 -0.0049800002
-0.00062405173 0.00042333335 -0.00015000005
0.014769224 0.00042333335 -0.00015000005
-0.022881897 0.00021166667 -0.00309
0.01289707 0.00021166667 5.9999948e-05
0.012481035 -0.00021166667 -0.0072900001
0.023297932 0.00127 -0.00015000005
0.0035362933 0.00084666669 -0.0024600001
-0.01289707 0 -0.0026700001
-0.01289707 0.00021166667 -0.0026700001
-0.0016641379 0.00042333335 -0.00015000005
-0.0079046553 0 -0.0075000003
0.020593708 0.00021166667 -0.0051899999
-0.016433362 0.00042333335 -0.00015000005
-0.023089914 0.00042333335 -0.0024600001
0.0035362933 0.00021166667 -0.0024600001
0.017889483 -0.00127 -0.00015000005
0.0035362933 0.00042333335 -0.0024600001
-0.020593708 -0.00021166667 -0.0049800002
-0.01289707 -0.00021166667 -0.0026700001
0.0035362933 0.0010583333 -0.0024600001
-0.022673881 0.00042333335 -0.00015000005
-0.012689052 -0.00042333335 -0.0026700001
0.020593708 0 0.0013199999
-0.0027042243 0.00042333335 5.9999948e-05
0.0035362933 0.00127 -0.0024600001
0.0079046553 0 -0.0026700001
-0.015601293 -0.000635 -0.00036000006
-0.0010400863 0.00042333335 -0.00015000005
0.0037443105 -0.00084666669 -0.0024600001
0.020177674 -0.00021166667 -0.0051899999
