# .PCD v0.7 - Point Cloud Data file format
VERSION 0.7
FIELDS x y z
SIZE 4 4 4
TYPE F F F
COUNT 1 1 1
WIDTH 364
HEIGHT 1
VIEWPOINT 0 0 0 1 0 0 0
POINTS 364
DATA ascii
0.001570822 0.00014625244 -0.0076021096
0.0012457139 9.9166908e-05 -0.0080385227
0.0012723738 -3.3547174e-05 -0.0080173565
0.0012609211 0.00015277292 -0.0077194171
-0.00097327103 -0.00016773585 0.0025255231
-0.001257006 -0.00016705328 0.0022400499
-0.0012593148 -0.0001223696 0.0026307136
-0.0012569438 5.8108493e-05 0.0026138939
-0.00097327115 6.8052832e-05 0.0021801039
0.00097327109 0.00016773585 0.0025255231
0.0012430772 -6.3704574e-05 0.0025897499
0.0012588273 0.00012156685 0.00263536
0.00096408208 -7.4978685e-05 0.0021291056
0.0012509831 -6.7445901e-05 -0.0077156825
0.0015667292 -4.3132066e-05 -0.0075713471
0.0012581293 0.00016773546 -0.007248695
-0.0015638338 5.9028978e-05 0.0021656149
-0.0025400023 -0.00023962265 -0.00074836821
-0.00254 -0.00074283016 -0.00029761507
-0.0025400033 -0.00023962265 -0.0012465686
-0.0021698356 -0.0010980912 -0.002244198
-0.0017533617 -0.0011475368 -0.0022418736
-0.0021426028 -0.0010996019 -0.0025039325
0.00097327109 -4.3132066e-05 -0.007571348
-0.00096694048 -0.00016241091 -0.0076451553
0.00097327121 -6.7094326e-05 -0.007229724
0.0017521454 0.0011446206 -0.002229502
0.0012564241 0.0011472697 -0.0022362894
0.0012343926 0.0011095569 -0.002503932
0.00075307756 0.0011460572 -0.002503932
-0.001753014 -0.0011481594 -0.00025016698
-0.0015785965 -0.00014976412 0.0012444353
-0.0021688752 -0.0010967841 -0.00025419856
-0.0015662812 6.013169e-05 0.0017520357
-0.0012560483 0.00015204084 0.0017408291
-0.00026112172 0.0011501901 -0.0022429584
0.00026112143 0.00115019 -0.0022429591
0.00026112143 0.0011501902 -0.0017447646
-0.0015796885 -0.00014744881 0.0017456934
-0.0015619819 6.2301871e-05 0.0012444353
0.00254 0.00021566037 -0.0025039329
0.0021682081 0.001098134 -0.0022257946
0.0025400035 0.00023744423 -0.0022408145
0.0022359104 0.00073582184 -0.0022398776
0.0021127104 -0.0010303777 -0.0022192474
0.00254 -0.00050320756 -0.0025039329
0.0022191233 -0.00068278692 -0.0025039315
0.0025400007 -0.00062084058 -0.0022235608
0.0025400023 0.00023962263 -0.0017447695
0.0022387449 0.00073477672 -0.001744755
-0.0012465592 0.00012526885 0.0021996347
0.0025400033 -0.00023962265 -0.0022429714
-0.0017530156 -0.0011481596 -0.0017447667
-0.0017530158 -0.0011481594 -0.0012465705
-0.0012581312 -0.0011501902 -0.00025016733
-0.001753015 -0.0011481594 -0.00074836682
-0.0015785967 -0.00014976415 -0.0047577014
-0.001578596 -0.00014976416 -0.0052558957
-0.0015609065 6.8269845e-05 -0.0047590411
-0.0017566356 -0.0011416305 -0.002503932
0.0021661387 0.0010998206 -0.0017457375
-0.0012644716 -0.00015377266 -0.0077224299
-0.0015782592 -0.00013624258 -0.0076181218
-0.0012469941 -0.00011448638 -0.0080418466
-0.0012832657 4.087681e-05 -0.0080301957
0.0012269773 -7.3384464e-05 -0.007248695
0.0007512091 -0.0011439777 -0.002238069
0.00026112146 -0.0011501887 -0.002503932
0.00026112155 -0.0011501902 -0.0022429589
0.00072955765 -0.0011198363 -0.002503932
0.00026112152 -0.00074283034 -0.0025039315
0.0015820869 0.00014236409 -0.0072487053
-0.0015606943 6.9449918e-05 -0.0052591157
-0.0015619814 6.2301864e-05 -0.0057541011
-0.0012658255 0.00013071808 -0.0047560739
-0.0012564748 0.00012140341 -0.0052562384
-0.0012607455 0.00013036942 -0.0057606031
0.00026112146 0.0011501889 -0.002503932
-0.00254 0.00062842976 -0.00037184765
-0.0020905198 0.0010684043 -0.00029555208
-0.0015634712 6.1550119e-05 0.00074204779
-0.0025400019 0.00022352858 -0.00031708984
-0.0015766829 -0.00014531953 0.0021627776
0.00075307547 -0.0011460589 -0.0017447658
0.0012581293 0.00016773547 -0.0042595249
0.00096128578 0.00019006962 -0.0042645643
0.0012581318 0.00016773544 -0.0047577312
0.00097327121 -6.6561843e-05 -0.0057549803
0.00097327121 -6.3328829e-05 -0.0052508162
-0.00094697048 -0.00017911366 -0.0052528232
0.0012449791 -0.00010840074 -0.0057509267
-0.0012581291 -0.0001677354 0.0017426305
-0.0009307916 -0.00015512417 0.0017426363
-0.00092990272 -0.0001573676 0.0012396444
-0.0012531572 0.00014524575 0.0012530449
-0.00095984241 -0.00018516299 0.0022029753
-0.00095292332 8.5579552e-05 0.0017426361
0.0012305527 -7.2163821e-05 0.002237546
0.00096172257 -7.3182033e-05 0.0017163476
0.0012570432 0.00016484146 0.0022354547
0.001581348 0.00014393231 0.0021911899
0.00075962342 0.0011501901 -0.0017447653
0.0012547292 0.0011532506 -0.00025548809
0.0012581315 0.0011501901 -0.00074836647
0.000759624 0.0011501901 -0.00074836751
0.0012581302 0.0011501901 -0.0012465708
0.0012420201 -0.00010518293 0.0017114552
0.00026112137 -0.0011501902 -0.00074836763
0.00075307552 -0.0011460589 -0.00074836717
0.00026112146 -0.0011501901 -0.0002501671
0.00075307616 -0.0011460588 -0.0002501671
0.0022061961 0.00074678281 -0.0025039315
0.0015820869 0.00014236408 -0.0037375703
-0.00026112108 0.00078756223 -0.00030552351
-0.00025832016 0.0011473624 -0.0002548825
-0.00095292338 8.5579552e-05 0.00074623432
0.00095092849 0.00014706253 0.00073507032
-0.00026112096 0.00021002193 -0.00027110032
-0.0022378059 -0.00077900902 -0.00030828675
-0.002168216 -0.0010970752 -0.00074780511
-0.0021649036 -0.0010973461 -0.0012478266
-0.0022391938 -0.00073470559 -0.0012469057
-0.0022403682 -0.00073452189 -0.0017446782
-0.0021688952 -0.0010970198 -0.0017444895
-0.0025400023 -0.00023962265 -0.0017447696
-0.0022405675 -0.00073481834 -0.0022394645
0.0017570927 -0.00072946673 -0.0025039315
0.0011720795 -0.0010543396 -0.0025039329
-0.0002611216 -0.00074283034 -0.0025039315
-0.00026112149 -0.00023962262 -0.0025039315
-0.0012581323 -0.00016773544 -0.0047577275
-0.0012581317 -0.00016773547 -0.0052559129
-0.00075962371 -0.0011501902 -0.0017447625
-0.00075962447 -0.00115019 -0.0022429621
-0.00026112166 -0.0011501901 -0.0022429575
-0.00026112187 -0.0011501901 -0.0012465704
-0.000759624 -0.0011501901 -0.00074836798
-0.00075962424 -0.00115019 -0.00025016698
-0.001578965 -0.00014898273 0.00074490812
-0.00254 -0.00023962262 -0.0025039329
-0.0012581294 -0.0011501901 -0.0022429584
-0.001258131 -0.0011501901 -0.0017447638
-0.00075962604 -0.0011501887 -0.002503932
0.00096327579 0.00016521348 -0.0076220436
-0.0002611214 -0.0011501887 -0.002503932
-0.00092937739 -0.00015530261 -0.007246688
0.0012581307 0.0011501902 -0.0017447626
0.00026112123 0.0011501901 -0.0007483674
-0.00026112146 0.0011501901 -0.00124657
-0.00026112204 0.0011501901 -0.00074836833
0.0012512653 -0.00010986475 -0.0047519892
0.001248477 -0.00010222897 -0.0042595854
0.00097327121 -7.1886781e-05 -0.0042594988
0.0021364486 0.0010303772 -0.0025039329
-0.0015795907 -0.00014765575 -0.0072518885
-0.001563762 7.0389156e-05 -0.0072642704
-0.0015785962 -0.00014976418 -0.0062522944
-0.0012581317 -0.00016773544 -0.0057540997
-0.001258131 -0.00016773547 -0.0062523084
-0.00095827837 6.9364454e-05 -0.0057565989
-0.0012552328 0.00012986096 -0.0062571904
0.0012581312 0.00016773547 -0.0052559203
0.0015820874 0.00014236408 -0.0057541067
0.0015820866 0.00014236406 -0.0052558938
0.00096094457 0.00019261971 -0.0052490528
0.00095927721 0.00018438329 -0.0032281335
0.00096852251 0.00016593869 -0.0037488411
0.00097327121 -7.1886781e-05 -0.0032393723
-0.0025400023 0.00064115255 -0.0017370755
-0.0020941468 0.0010798384 -0.0017338205
-0.0025400021 0.00064489746 -0.0012496633
0.0025400019 -0.00062301877 -0.0017447692
0.0021302018 -0.0010303778 -0.001246985
0.0021267198 -0.0010303778 -0.0017377693
0.0025400012 -0.000623019 -0.0012465689
0.0015746419 -5.9905648e-05 -0.0032433262
0.0015724134 -6.5811837e-05 -0.0037335637
0.0012442083 -0.00010320934 -0.0032460126
0.00097327121 -7.1886781e-05 -0.0067505017
-0.00094407878 -0.00017485976 -0.0062776227
-0.00093397952 -0.00016002388 -0.0067504989
0.00097327121 -6.7094341e-05 -0.0062712803
0.0012581301 0.00016773549 -0.0062523345
0.0015820875 0.00014236404 -0.0067504961
0.0015820874 0.00014236404 -0.0062522953
-0.0017358226 0.0011199325 -0.00029538875
-0.0012581294 -0.00016773549 0.00124443
0.0015783221 -4.4023698e-05 0.0021856653
0.0015746419 -5.9905633e-05 0.001722866
0.0015820875 0.00014236405 0.0017426363
0.001258132 0.00016773543 0.0017426321
0.00075962482 0.00115019 -0.00025016721
0.0012581315 0.00016773544 0.00074623618
-0.00075746648 0.0011427837 -0.00026742066
-0.00095375942 8.5016829e-05 0.0012366357
0.0015741698 -6.1157392e-05 0.0012444353
0.0017254002 -0.00106569 -0.00026015623
0.0021127101 -0.0010303777 -0.00029761507
-0.0022286451 0.00075623614 -0.00033390708
-0.0025400028 -0.00020411231 -0.0002704612
0.00075898838 0.0011497893 -0.0022422485
0.001234394 -0.0011095594 -0.00124657
0.0007530757 -0.0011460589 -0.0012465705
0.0012343932 -0.0011095594 -0.0017447666
0.00026112128 0.0011501901 -0.0012465704
-0.0025400023 0.00023962265 -0.00074836856
-0.0025400023 0.00063910324 -0.00074576854
-0.00026112184 -0.0011501901 -0.00074836821
0.00095937517 -7.4224561e-05 0.00072366791
0.0012500315 -0.00011562744 0.00074369251
0.0012343946 -0.0011095592 -0.00025016686
-0.0017399683 0.0011211301 -0.0017447674
-0.001258132 0.00115019 -0.0012465708
-0.001739969 0.00112113 -0.0012465703
-0.0012581308 0.0011501901 -0.0017447636
-0.0012549435 0.0011436702 -0.00028168724
-0.00026112169 0.0011501901 -0.0017447608
-0.00075962383 0.0011501901 -0.001744763
-0.00075898919 0.0011497892 -0.0022422487
-0.00075962435 0.0011501901 -0.0012465701
0.00026112158 0.00021002193 -0.0002711002
0.00254 -0.00023962262 -0.0025039329
0.0017530159 0.0011481596 -0.0017447636
0.0021657171 0.0011004364 -0.00029980612
0.0017530149 0.0011481594 -0.00074836705
0.0021661392 0.0010998207 -0.0007490603
0.0022387484 0.00073477573 -0.0012465711
0.0025400023 -0.00023962259 -0.0017447693
-0.0012581332 -0.00115019 -0.0012465707
0.0012513241 -0.0001132922 -0.0037330361
0.0015746419 -5.9905633e-05 -0.0067465454
0.0015724133 -6.5811852e-05 -0.0062563093
0.00026112155 -0.0011501901 -0.0012465704
-0.00096377562 6.6409702e-05 -0.0052491217
-0.00095787301 6.5410488e-05 -0.004753211
-0.00094265153 -0.00017363958 -0.0047546057
0.00096489198 0.00018465039 -0.0047535123
-0.00075962424 -0.0011501901 -0.0012465705
0.00026112152 -0.0011501902 -0.001744765
-0.0012581317 -0.00016773543 0.00074623711
-0.0025400033 -0.00023962259 -0.0022429719
-0.00254 0.00023962263 -0.0025039329
-0.00254 0.00052716979 -0.0025039329
-0.00094324857 -0.00017337404 -0.0057603857
-0.0012581313 -0.0011501887 -0.002503932
-0.00097327109 3.7654987e-05 -0.0076079499
-0.00095265574 8.4498563e-05 -0.0072468277
-0.0012528222 8.639037e-05 -0.0076877512
0.00025932532 0.00078489428 -0.00031541567
0.00097327121 -7.1886781e-05 -0.0047576996
0.0017328974 0.0010663208 -0.0025039325
0.0012581317 0.00016773543 -0.0032393648
-0.0015619817 6.2301871e-05 -0.0062523009
-0.0017393557 0.001119056 -0.0022292596
-0.0020933396 0.0010756183 -0.0022184877
-0.0012492202 0.00013456256 -0.0072514676
-0.0015785964 -0.00014976415 -0.0057541053
-0.0015785961 -0.00014976418 -0.0067505054
-0.0015619814 6.2301871e-05 -0.0067505017
0.00096114853 0.00019220794 -0.0057571321
-0.0009603225 7.4065174e-05 -0.0062975911
0.0015726637 -6.5147411e-05 -0.0047510262
0.001573266 -6.3552085e-05 -0.0052572764
0.0012510777 -0.00010566492 -0.0052579227
0.0012581315 0.00016773552 -0.0037375749
0.0015820873 0.00014236406 -0.0042595048
0.00026112143 0.00074283028 -0.0025039315
-0.0002611216 0.00074283034 -0.0025039315
-0.00026112149 0.00023962268 -0.0025039315
0.00026112146 0.00023962266 -0.0025039315
0.00097327121 -7.1886796e-05 -0.003737574
-0.0025400033 0.00023962263 -0.0012465686
-0.0025400023 0.00023962265 -0.0017447695
0.0012442077 -0.00010320931 -0.0067447266
0.00095786102 0.0001929593 -0.0072449539
-0.0020931622 0.0010792421 -0.00074464746
0.0017483534 0.0011513046 -0.000277385
0.00095176382 0.00016118209 0.0012379468
0.0012320762 -0.0011075047 -0.0022280824
0.00254 -0.00062301883 -0.00036878663
-0.00026112125 -0.0011501901 -0.00025016745
-0.00026112128 -0.00078756193 -0.0003055234
0.0012343945 -0.0011095594 -0.00074836717
0.0017328956 -0.0010663209 -0.0012465692
0.0017328961 -0.0010663215 -0.0017447697
0.0021245794 -0.0010303778 -0.00075232226
0.0002611216 -0.00078756176 -0.00030552316
0.0025400019 -0.00062301889 -0.00074836798
0.0025400023 -0.00023962265 -0.00074836914
0.0025400033 0.00023962263 -0.0012465684
-0.0020959165 0.0010809103 -0.0012509262
-0.0012581323 0.00115019 -0.00074836693
-0.0012556757 0.0011474108 -0.0022355972
-0.00075307745 0.0011460572 -0.002503932
-0.0012225236 0.0011098885 -0.002503932
0.00026112169 -0.000210022 -0.0002711002
0.0015736209 -6.2611041e-05 -0.0057495097
-0.0012581322 -0.0011501901 -0.0007483674
0.0015809721 -4.3132059e-05 -0.0072487015
-0.00026112143 0.0011501887 -0.002503932
-0.00092873076 -0.0001553842 -0.0032393741
-0.0009336659 -0.00015954152 -0.0042535989
-0.0015613153 6.6001317e-05 -0.0042653256
-0.00026112102 -0.0011501902 -0.0017447615
-0.0012513704 0.00014104342 0.00074330717
-0.002241503 -0.00073824171 -0.0025039315
-0.0012581301 -0.00016773547 -0.0072487155
-0.0012581303 -0.00016773547 -0.0042595319
-0.00125813 -0.00016773552 -0.0037375591
0.00026112175 0.0011501901 -0.00025016698
0.0015820875 0.00014236405 -0.0032393741
0.001582087 0.00014236409 -0.0047577
-0.0015604823 5.1708055e-05 -0.0076133003
0.00096468406 0.0001830309 -0.006261888
0.0012581309 0.00016773543 -0.0057541016
0.0015741696 -6.1157392e-05 -0.0042594988
0.00026112155 -0.00023962268 -0.0025039315
-0.0025400033 0.00023962266 -0.0022429712
0.0012491524 -0.00011254189 -0.006260287
0.0012581301 0.00016773544 -0.0067505045
0.0012581297 0.00016773553 0.0012444304
0.0015820877 0.00014236405 0.00074623385
0.00075962429 0.0011501901 -0.0012465701
-0.00092627143 -0.00015569456 0.0007451619
-0.00026112105 -0.00021002199 -0.00027110009
0.0025400033 -0.00023962265 -0.0012465684
-0.0017399683 0.0011211301 -0.0007483674
0.0017530144 0.0011481594 -0.0012465699
0.0025400023 0.00023962266 -0.00074836891
0.0025400028 0.00020411231 -0.00027046108
0.0022387491 0.00073477678 -0.0007483674
0.0022379665 0.00074868475 -0.00035139499
-0.0015649032 6.0827279e-05 -0.0032320726
-0.0022150069 0.00070824561 -0.0025039315
-0.0009321571 -0.00015958377 -0.0037339041
-0.0012581312 -0.00016773543 -0.0067505147
-0.0015785962 -0.00014976415 -0.0042594941
-0.001578596 -0.00014976411 -0.0037375716
-0.00075962383 0.0011501901 -0.0007483681
0.00095744472 0.00015639888 0.0021852267
-0.00095427985 8.1471706e-05 -0.0067457575
-0.0012507731 0.00013402876 -0.0067421747
-0.0025400012 0.00062549772 -0.0022282454
-0.0020889719 0.0010303773 -0.0025039329
0.00096041197 0.0001902005 -0.0067470465
0.0012416391 -0.00010797457 0.0012463385
0.0015825093 0.00014053546 0.0012421261
0.00095407775 0.00014938178 0.0017295126
0.001732896 -0.0010663215 -0.00074836868
0.002540003 -0.00021002218 -0.00027109997
0.0017272704 -0.0010660369 -0.0022169987
0.0021647809 0.0010999466 -0.0012465696
0.0015717647 -6.7530011e-05 0.00074623432
0.0022298575 -0.00076300115 -0.00032375241
-0.0012575391 0.00014679767 -0.0037344205
-0.0012677864 0.00013424705 -0.0042537092
-0.0015619817 6.2301871e-05 -0.003737574
-0.0015793291 -0.00014821104 -0.0032370305
-0.00095190603 7.1886781e-05 -0.0042523816
-0.00095443067 8.0254584e-05 -0.0037210039
0.00096355955 -7.6243552e-05 0.0012412001
-0.00095292338 8.5579537e-05 -0.0032393723
-0.0017495139 0.0010806981 -0.0025039325
-0.0012581309 -0.00016773544 -0.0032393625
