# .PCD v0.7 - Point Cloud Data file format
VERSION 0.7
FIELDS x y z
SIZE 4 4 4
TYPE F F F
COUNT 1 1 1
WIDTH 1219
HEIGHT 1
VIEWPOINT 0 0 0 1 0 0 0
POINTS 1219
DATA ascii
-0.0023988888 9.7692311e-05 -0.007282
-0.0023988888 0.00029307691 -0.007282
0.0085400445 -0.00127 -0.0018500001
0.0083481334 0.00127 -0.0018500001
-0.0146812 -0.00127 -0.00010400008
-0.0146812 -0.0010746154 -0.00010400008
-0.0027827111 -9.7692311e-05 -0.007282
0.0087319557 -0.00127 -0.0018500001
0.0085400445 0.00127 -0.0018500001
-0.016216489 0.00127 -0.0016560002
-0.016024578 -0.00127 -0.0016560002
-0.0027827111 9.7692311e-05 -0.007282
-0.014873111 0.00087923079 -0.00010400008
0.0098834224 -0.00127 -0.0018500001
-0.0050856443 -0.00029307691 -0.007282
-0.0050856443 0.00029307691 -0.007282
0.0096915113 0.00127 -0.0018500001
-0.0048937332 -0.00029307691 -0.007282
-0.0048937332 -9.7692311e-05 -0.007282
-0.016600311 0.00127 -0.0016560002
-0.0048937332 9.7692311e-05 -0.007282
-0.0048937332 0.00029307691 -0.007282
-0.016408401 -0.00127 -0.0016560002
-0.016600311 -0.00127 -0.0016560002
-0.014873111 -0.00127 -0.00010400008
0.010075334 -0.00127 -0.0018500001
0.0098834224 0.00127 -0.0018500001
-0.014873111 -0.0010746154 -0.00010400008
-0.0052775554 -0.00029307691 -0.007282
-0.0052775554 -9.7692311e-05 -0.007282
-0.0052775554 9.7692311e-05 -0.007282
-0.0052775554 0.00029307691 -0.007282
-0.014873111 -0.00087923079 -0.00010400008
-0.0023988888 -9.7692311e-05 0.0016419999
-0.014873111 -0.00029307691 -0.00010400008
-0.0023988888 0.00029307691 0.0016419999
-0.0023988888 9.7692311e-05 0.0016419999
-0.0023988888 -0.00029307691 0.0016419999
0.009307689 -0.00127 -0.0018500001
0.0091157779 0.00127 -0.0018500001
0.0096915113 -0.00127 -0.0018500001
0.0094996002 0.00127 -0.0018500001
0.0094996002 -0.00127 -0.0018500001
0.009307689 0.00127 -0.0018500001
-0.015256933 -0.00029307691 -0.00010400008
0.013913555 0.00127 -0.0018500001
-0.012954 -9.7692311e-05 -0.007282
-0.012954 9.7692311e-05 -0.007282
0.0073885778 9.7692311e-05 0.0016419999
-0.012762089 -0.00029307691 -0.007282
-0.012762089 0.00029307691 -0.007282
0.014105466 -0.00127 -0.0018500001
-0.012570178 -0.00029307691 -0.007282
-0.012570178 -9.7692311e-05 -0.007282
-0.012570178 9.7692311e-05 -0.007282
-0.012570178 0.00029307691 -0.007282
-0.018711334 0.00127 -0.0016560002
-0.018519422 -0.00127 -0.0016560002
-0.020054711 0.00029307691 -0.00010400008
0.014297377 -0.00127 -0.0018500001
0.014105466 0.00127 -0.0018500001
0.013913555 -0.00127 -0.0018500001
0.0073885778 -9.7692311e-05 0.0016419999
0.013721644 -0.00127 -0.0018500001
0.013529733 0.00127 -0.0018500001
-0.020054711 -0.00127 -0.00010400008
0.013529733 -0.00127 -0.0018500001
0.013337822 0.00127 -0.0018500001
0.013721644 0.00127 -0.0018500001
-0.015256933 0.00029307691 -0.00010400008
-0.018519422 0.00127 -0.0016560002
-0.018327512 -0.00127 -0.0016560002
-0.019862801 -9.7692311e-05 -0.00010400008
0.014873111 -0.00127 -0.0018500001
0.0146812 0.00127 -0.0018500001
-0.015448844 0.00029307691 -0.00010400008
-0.015448844 0.00087923079 -0.00010400008
-0.019862801 -0.0010746154 -0.00010400008
-0.015448844 -0.00127 -0.00010400008
-0.015448844 -0.0010746154 -0.00010400008
-0.015448844 -0.00087923079 -0.00010400008
-0.019862801 0.00029307691 -0.00010400008
0.015065022 -0.00127 -0.0018500001
0.014873111 0.00127 -0.0018500001
-0.015448844 0.0010746154 -0.00010400008
-0.019095156 0.00127 -0.0016560002
-0.019862801 9.7692311e-05 -0.00010400008
-0.015448844 -0.00029307691 -0.00010400008
-0.018903244 -0.00127 -0.0016560002
0.014489288 -0.00127 -0.0018500001
0.014297377 0.00127 -0.0018500001
0.014489288 0.00127 -0.0018500001
-0.019862801 -0.00127 -0.00010400008
0.0146812 -0.00127 -0.0018500001
-0.015256933 -0.00127 -0.00010400008
-0.015256933 -0.0010746154 -0.00010400008
-0.018903244 0.00127 -0.0016560002
-0.015256933 -0.00087923079 -0.00010400008
-0.018711334 -0.00127 -0.0016560002
-0.015256933 0.0010746154 -0.00010400008
0.012186356 -0.00127 -0.0018500001
0.011994445 0.00127 -0.0018500001
-0.01794369 0.00127 -0.0016560002
-0.017751778 -0.00127 -0.0016560002
-0.015065022 -0.00127 -0.00010400008
0.012378267 -0.00127 -0.0018500001
-0.020438533 -0.00029307691 -0.00010400008
0.012186356 0.00127 -0.0018500001
-0.0181356 0.00127 -0.0016560002
-0.01794369 -0.00127 -0.0016560002
-0.015256933 0.00087923079 -0.00010400008
0.0075804889 -0.00029307691 0.0016419999
0.011802534 -0.00127 -0.0018500001
0.011610623 0.00127 -0.0018500001
-0.017751778 0.00127 -0.0016560002
-0.017559867 -0.00127 -0.0016560002
-0.020630443 9.7692311e-05 -0.00010400008
0.0075804889 0.00029307691 0.0016419999
-0.020630443 -9.7692311e-05 -0.00010400008
-0.020630443 -0.00029307691 -0.00010400008
-0.015065022 -0.00029307691 -0.00010400008
-0.015065022 -0.0010746154 -0.00010400008
-0.015065022 -0.00087923079 -0.00010400008
0.011994445 -0.00127 -0.0018500001
0.011802534 0.00127 -0.0018500001
0.0077724 9.7692311e-05 -0.0074760001
-0.0181356 -0.00127 -0.0016560002
-0.020246621 -0.00029307691 -0.00010400008
0.013145912 -0.00127 -0.0018500001
0.012954 0.00127 -0.0018500001
0.0077724 0.00029307691 -0.0074760001
0.0077724 -9.7692311e-05 -0.0074760001
0.0077724 -0.00029307691 -0.0074760001
0.012954 -0.00127 -0.0018500001
0.012762089 0.00127 -0.0018500001
0.013337822 -0.00127 -0.0018500001
0.013145912 0.00127 -0.0018500001
-0.020246621 0.00029307691 -0.00010400008
-0.018327512 0.00127 -0.0016560002
0.0073885778 9.7692311e-05 -0.0074760001
0.012570178 -0.00127 -0.0018500001
-0.010267245 -0.00029307691 -0.007282
-0.010267245 -9.7692311e-05 -0.007282
-0.010267245 9.7692311e-05 -0.007282
0.0073885778 -9.7692311e-05 -0.0074760001
-0.010267245 0.00029307691 -0.007282
0.012378267 0.00127 -0.0018500001
-0.010075334 -0.00029307691 -0.007282
-0.010075334 -9.7692311e-05 -0.007282
-0.010075334 0.00029307691 -0.007282
-0.020438533 0.00029307691 -0.00010400008
-0.014105466 0.0010746154 -0.00010400008
0.012762089 -0.00127 -0.0018500001
0.012570178 0.00127 -0.0018500001
0.0075804889 0.00029307691 -0.0074760001
0.0075804889 -0.00029307691 -0.0074760001
-0.011034889 0.00127 -0.0018500001
-0.011802534 0.00087923079 -0.00010400008
-0.011802534 0.0010746154 -0.00010400008
-0.0073885778 -0.00029307691 -0.0070880004
-0.0073885778 -9.7692311e-05 -0.0070880004
-0.0073885778 9.7692311e-05 -0.0070880004
-0.0073885778 0.00029307691 -0.0070880004
-0.011802534 0.00127 -0.00010400008
-0.011610623 -0.00127 -0.00010400008
-0.010842978 -0.00127 -0.0018500001
-0.017559867 9.7692311e-05 -0.0074760001
-0.011610623 -0.0010746154 -0.00010400008
-0.011802534 -0.00029307691 -0.00010400008
-0.011802534 -9.7692311e-05 -0.00010400008
-0.011802534 9.7692311e-05 -0.00010400008
-0.011802534 0.00029307691 -0.00010400008
-0.0077724 -0.00029307691 -0.0070880004
-0.0077724 9.7692311e-05 -0.0070880004
-0.0077724 0.00029307691 -0.0070880004
-0.0075804889 -0.00029307691 -0.0070880004
-0.0075804889 0.00029307691 -0.0070880004
-0.01794369 0.00029307691 -0.0074760001
0.015065022 0.00068384613 -0.00029800009
-0.01794369 9.7692311e-05 -0.0074760001
-0.01794369 -9.7692311e-05 -0.0074760001
-0.01794369 -0.00029307691 -0.0074760001
-0.0112268 -0.00127 -0.0018500001
-0.011610623 -0.00029307691 -0.00010400008
-0.017751778 -0.00029307691 -0.0074760001
-0.0047018221 0.00127 -0.0016560002
-0.0045099109 -0.00127 -0.0016560002
0.015065022 0.00127 -0.00029800009
-0.017751778 0.00029307691 -0.0074760001
-0.0047018221 -0.00127 -0.0016560002
-0.011034889 -0.00127 -0.0018500001
-0.0112268 0.00127 -0.0018500001
-0.0050856443 0.00127 -0.0016560002
-0.0048937332 -0.00127 -0.0016560002
0.015256933 0.00068384613 -0.00029800009
-0.010267245 -0.00127 -0.0018500001
-0.010459156 0.00127 -0.0018500001
-0.010075334 -0.00127 -0.0018500001
-0.010267245 0.00127 -0.0018500001
0.015448844 -0.00127 -0.00029800009
0.015256933 0.00127 -0.00029800009
-0.011994445 -0.00029307691 -0.00010400008
-0.011994445 0.00127 -0.00010400008
0.015256933 -0.00127 -0.00029800009
-0.010651067 -0.00127 -0.0018500001
-0.011994445 0.00087923079 -0.00010400008
-0.011994445 0.0010746154 -0.00010400008
-0.010842978 0.00127 -0.0018500001
-0.011802534 -0.00127 -0.00010400008
-0.011802534 -0.0010746154 -0.00010400008
-0.011802534 -0.00087923079 -0.00010400008
-0.0048937332 0.00127 -0.0016560002
-0.011994445 0.00029307691 -0.00010400008
0.015256933 -0.00068384613 -0.00029800009
-0.011994445 -9.7692311e-05 -0.00010400008
-0.010459156 -0.00127 -0.0018500001
-0.011994445 9.7692311e-05 -0.00010400008
-0.010651067 0.00127 -0.0018500001
-0.0048937332 9.7692311e-05 -0.0070880004
-0.0050856443 0.00029307691 -0.0070880004
-0.012186356 -0.00127 -0.0018500001
-0.012378267 0.00127 -0.0018500001
-0.011418711 0.0010746154 -0.00010400008
-0.0048937332 -0.00029307691 -0.0070880004
-0.0048937332 -9.7692311e-05 -0.0070880004
-0.0043179998 0.00127 -0.0016560002
-0.0041260887 -0.00127 -0.0016560002
-0.0048937332 0.00029307691 -0.0070880004
-0.011418711 0.00127 -0.00010400008
-0.0112268 -0.00127 -0.00010400008
-0.0112268 -0.0010746154 -0.00010400008
-0.0112268 -0.00087923079 -0.00010400008
-0.011418711 -0.00029307691 -0.00010400008
-0.011418711 -9.7692311e-05 -0.00010400008
-0.011418711 9.7692311e-05 -0.00010400008
-0.0052775554 -0.00029307691 -0.0070880004
-0.0052775554 -9.7692311e-05 -0.0070880004
-0.0052775554 9.7692311e-05 -0.0070880004
-0.0052775554 0.00029307691 -0.0070880004
-0.011418711 0.00029307691 -0.00010400008
-0.0050856443 -0.00029307691 -0.0070880004
-0.011418711 0.00087923079 -0.00010400008
0.012762089 0.00029307691 0.0016419999
0.0146812 0.00127 -0.00029800009
0.012762089 -0.00029307691 0.0016419999
0.0146812 0.00068384613 -0.00029800009
-0.0112268 -0.00029307691 -0.00010400008
-0.012570178 -0.00127 -0.0018500001
-0.012762089 0.00127 -0.0018500001
-0.0112268 -9.7692311e-05 -0.00010400008
-0.012570178 0.00127 -0.0018500001
0.012570178 -0.00029307691 0.0016419999
-0.012378267 -0.00127 -0.0018500001
0.012570178 -9.7692311e-05 0.0016419999
0.012570178 9.7692311e-05 0.0016419999
0.012570178 0.00029307691 0.0016419999
0.014873111 -0.00127 -0.00029800009
-0.011610623 0.00029307691 -0.00010400008
-0.0045099109 0.00127 -0.0016560002
-0.011610623 0.00127 -0.0018500001
0.014873111 0.00068384613 -0.00029800009
-0.0043179998 -0.00127 -0.0016560002
-0.011610623 -0.00127 -0.0018500001
-0.011418711 0.00127 -0.0018500001
0.015065022 -0.00068384613 -0.00029800009
0.015065022 -0.00127 -0.00029800009
0.014873111 0.00127 -0.00029800009
-0.011418711 -0.00127 -0.0018500001
-0.011610623 -9.7692311e-05 -0.00010400008
-0.011610623 9.7692311e-05 -0.00010400008
-0.011418711 -0.00127 -0.00010400008
-0.011610623 0.00127 -0.00010400008
-0.011994445 -0.00127 -0.0018500001
-0.011418711 -0.0010746154 -0.00010400008
-0.011418711 -0.00087923079 -0.00010400008
-0.012186356 0.00127 -0.0018500001
-0.011802534 0.00127 -0.0018500001
-0.011610623 0.00087923079 -0.00010400008
-0.011610623 0.0010746154 -0.00010400008
0.014873111 -0.00068384613 -0.00029800009
-0.011802534 -0.00127 -0.0018500001
-0.011994445 0.00127 -0.0018500001
-0.015065022 -9.7692311e-05 -0.0074760001
-0.012570178 -0.00029307691 -0.0070880004
-0.015065022 -0.00029307691 -0.0074760001
-0.012570178 9.7692311e-05 -0.0070880004
-0.0081562223 -0.00127 -0.0018500001
-0.0083481334 0.00127 -0.0018500001
-0.015256933 0.00029307691 -0.0074760001
-0.015256933 -0.00029307691 -0.0074760001
-0.0079643112 -0.00127 -0.0018500001
-0.0081562223 0.00127 -0.0018500001
-0.012762089 -0.00029307691 -0.0070880004
-0.0060451999 0.00127 -0.0016560002
-0.012762089 0.00029307691 -0.0070880004
-0.0058532888 -0.00127 -0.0016560002
-0.015065022 0.00029307691 -0.0074760001
-0.015065022 9.7692311e-05 -0.0074760001
-0.0087319557 0.00127 -0.0018500001
-0.015448844 9.7692311e-05 -0.0074760001
-0.015448844 -9.7692311e-05 -0.0074760001
-0.0085400445 -0.00127 -0.0018500001
-0.015448844 0.00029307691 -0.0074760001
0.015640756 0.00068384613 -0.00029800009
-0.0058532888 0.00127 -0.0016560002
-0.012762089 0.00029307691 0.0016419999
0.015832666 -0.00068384613 -0.00029800009
-0.0083481334 -0.00127 -0.0018500001
-0.0085400445 0.00127 -0.0018500001
0.015832666 -0.00127 -0.00029800009
0.015640756 0.00127 -0.00029800009
0.015832666 0.00127 -0.00029800009
-0.012378267 -0.0010746154 -0.00010400008
-0.0075804889 -0.00127 -0.0018500001
-0.0077724 0.00127 -0.0018500001
0.015832666 0.00068384613 -0.00029800009
-0.012570178 0.00087923079 -0.00010400008
-0.012570178 0.0010746154 -0.00010400008
-0.0064290222 0.00127 -0.0016560002
-0.012570178 0.00127 -0.00010400008
-0.012378267 -0.00127 -0.00010400008
0.016024578 -0.00068384613 -0.00029800009
-0.0062371111 -0.00127 -0.0016560002
-0.0073885778 -0.00127 -0.0018500001
-0.0075804889 0.00127 -0.0018500001
0.016024578 -0.00127 -0.00029800009
-0.0062371111 0.00127 -0.0016560002
-0.012378267 9.7692311e-05 -0.00010400008
-0.0060451999 -0.00127 -0.0016560002
-0.012378267 0.00029307691 -0.00010400008
-0.012570178 0.00029307691 0.0016419999
-0.012570178 9.7692311e-05 0.0016419999
-0.012378267 -0.00087923079 -0.00010400008
-0.012570178 -9.7692311e-05 0.0016419999
-0.012570178 -0.00029307691 0.0016419999
-0.0077724 -0.00127 -0.0018500001
-0.0079643112 0.00127 -0.0018500001
-0.012378267 -0.00029307691 -0.00010400008
-0.0094996002 -0.00127 -0.0018500001
-0.0096915113 0.00127 -0.0018500001
-0.012186356 -0.0010746154 -0.00010400008
-0.012186356 -0.00087923079 -0.00010400008
-0.0096915113 -0.00127 -0.0018500001
-0.0098834224 0.00127 -0.0018500001
-0.010075334 9.7692311e-05 -0.0070880004
-0.012378267 0.0010746154 -0.00010400008
-0.012378267 0.00127 -0.00010400008
-0.010075334 -0.00029307691 -0.0070880004
-0.0054694666 0.00127 -0.0016560002
-0.010075334 -9.7692311e-05 -0.0070880004
-0.0052775554 -0.00127 -0.0016560002
-0.010075334 0.00029307691 -0.0070880004
-0.012186356 -0.00127 -0.00010400008
0.015448844 0.00068384613 -0.00029800009
-0.0098834224 -0.00127 -0.0018500001
-0.010075334 0.00127 -0.0018500001
-0.012186356 0.00087923079 -0.00010400008
-0.012186356 0.00029307691 -0.00010400008
0.015448844 -0.00068384613 -0.00029800009
-0.012186356 0.0010746154 -0.00010400008
-0.012186356 0.00127 -0.00010400008
-0.011994445 -0.00127 -0.00010400008
-0.011994445 -0.0010746154 -0.00010400008
-0.011994445 -0.00087923079 -0.00010400008
-0.012186356 -0.00029307691 -0.00010400008
-0.012186356 -9.7692311e-05 -0.00010400008
-0.012186356 9.7692311e-05 -0.00010400008
-0.0052775554 0.00127 -0.0016560002
-0.0050856443 -0.00127 -0.0016560002
-0.012954 9.7692311e-05 0.0016419999
-0.0089238668 -0.00127 -0.0018500001
0.015640756 -0.00068384613 -0.00029800009
-0.012954 -9.7692311e-05 0.0016419999
-0.0091157779 0.00127 -0.0018500001
-0.012762089 -0.00029307691 0.0016419999
-0.0056613777 -0.00127 -0.0016560002
-0.0087319557 -0.00127 -0.0018500001
-0.0089238668 0.00127 -0.0018500001
-0.009307689 -0.00127 -0.0018500001
-0.0094996002 0.00127 -0.0018500001
-0.010267245 -0.00029307691 -0.0070880004
-0.010267245 -9.7692311e-05 -0.0070880004
-0.012378267 0.00087923079 -0.00010400008
-0.010267245 9.7692311e-05 -0.0070880004
-0.010267245 0.00029307691 -0.0070880004
0.015640756 -0.00127 -0.00029800009
0.015448844 0.00127 -0.00029800009
-0.0056613777 0.00127 -0.0016560002
-0.0054694666 -0.00127 -0.0016560002
-0.0091157779 -0.00127 -0.0018500001
-0.009307689 0.00127 -0.0018500001
-0.010459156 0.00127 -0.00010400008
-0.010267245 -0.00127 -0.00010400008
-0.016024578 -0.00127 -0.0018500001
-0.010267245 -0.0010746154 -0.00010400008
-0.016216489 0.00127 -0.0018500001
-0.010267245 -0.00087923079 -0.00010400008
0.020054711 -9.7692311e-05 -0.0076700002
-0.010459156 0.00029307691 -0.00010400008
0.013913555 0.00068384613 -0.00029800009
0.020054711 9.7692311e-05 -0.0076700002
-0.015832666 -0.00127 -0.0018500001
-0.010459156 0.00087923079 -0.00010400008
-0.010459156 0.0010746154 -0.00010400008
-0.0023988888 0.00127 -0.0016560002
-0.0022069777 -0.00127 -0.0016560002
-0.016024578 0.00127 -0.0018500001
-0.010267245 -0.00029307691 -0.00010400008
-0.010267245 0.00029307691 -0.00010400008
-0.016408401 -0.00127 -0.0018500001
-0.016600311 0.00127 -0.0018500001
0.013913555 -0.00068384613 -0.00029800009
0.0023988888 -9.7692311e-05 -0.0070880004
0.0023988888 9.7692311e-05 -0.0070880004
0.0023988888 0.00029307691 -0.0070880004
0.0025907999 -0.00029307691 -0.0070880004
0.0025907999 0.00029307691 -0.0070880004
0.0027827111 -9.7692311e-05 -0.0070880004
0.0027827111 9.7692311e-05 -0.0070880004
-0.016216489 -0.00127 -0.0018500001
-0.016408401 0.00127 -0.0018500001
-0.010459156 -0.0010746154 -0.00010400008
-0.010459156 -0.00087923079 -0.00010400008
-0.010459156 -0.00127 -0.00010400008
-0.015448844 -0.00127 -0.0018500001
-0.015065022 9.7692311e-05 0.0016419999
-0.015065022 -9.7692311e-05 0.0016419999
-0.015065022 -0.00029307691 0.0016419999
-0.0025907999 0.00127 -0.0016560002
0.015256933 -0.00029307691 0.0016419999
0.015256933 0.00029307691 0.0016419999
-0.0025907999 -0.00127 -0.0016560002
-0.010651067 0.00127 -0.00010400008
-0.010459156 -0.00029307691 -0.00010400008
0.015448844 -9.7692311e-05 0.0016419999
0.015448844 9.7692311e-05 0.0016419999
-0.015256933 -0.00127 -0.0018500001
-0.015448844 0.00127 -0.0018500001
-0.015640756 -0.00127 -0.0018500001
-0.015256933 0.00029307691 0.0016419999
-0.010459156 9.7692311e-05 -0.00010400008
-0.015256933 -0.00029307691 0.0016419999
0.020246621 0.00029307691 -0.0076700002
-0.010459156 -9.7692311e-05 -0.00010400008
-0.015832666 0.00127 -0.0018500001
0.020246621 -9.7692311e-05 -0.0076700002
0.013913555 0.00127 -0.00029800009
0.020438533 9.7692311e-05 -0.0076700002
0.014105466 -0.00068384613 -0.00029800009
-0.015640756 0.00127 -0.0018500001
-0.0023988888 -0.00127 -0.0016560002
0.020438533 0.00029307691 -0.0076700002
0.020438533 -9.7692311e-05 -0.0076700002
0.014105466 -0.00127 -0.00029800009
-0.0096915113 0.00127 -0.00010400008
0.013721644 -0.00068384613 -0.00029800009
-0.017367955 -0.00127 -0.0018500001
-0.0094996002 -0.00127 -0.00010400008
-0.017559867 0.00127 -0.0018500001
-0.0094996002 -0.0010746154 -0.00010400008
-0.0094996002 -0.00087923079 -0.00010400008
-0.0096915113 9.7692311e-05 -0.00010400008
-0.0096915113 -0.0010746154 -0.00010400008
-0.0096915113 -0.00087923079 -0.00010400008
-0.0020150666 0.00127 -0.0016560002
-0.0018231556 -0.00127 -0.0016560002
-0.0096915113 -0.00029307691 -0.00010400008
-0.0096915113 -9.7692311e-05 -0.00010400008
-0.0096915113 0.00029307691 -0.00010400008
-0.017176045 -0.00127 -0.0018500001
-0.017367955 0.00127 -0.0018500001
-0.0096915113 0.00087923079 -0.00010400008
-0.0096915113 0.0010746154 -0.00010400008
-0.0094996002 0.00127 -0.00010400008
0.0052775554 -0.00029307691 -0.0070880004
0.0052775554 -9.7692311e-05 -0.0070880004
0.0052775554 9.7692311e-05 -0.0070880004
0.0052775554 0.00029307691 -0.0070880004
-0.017751778 0.00127 -0.0018500001
-0.009307689 -0.00127 -0.00010400008
-0.009307689 -0.0010746154 -0.00010400008
-0.009307689 -0.00087923079 -0.00010400008
-0.0094996002 0.0010746154 -0.00010400008
-0.0018231556 0.00127 -0.0016560002
-0.0016312444 -0.00127 -0.0016560002
0.0050856443 -0.00029307691 -0.0070880004
0.0048937332 -9.7692311e-05 -0.0070880004
0.0048937332 9.7692311e-05 -0.0070880004
0.0048937332 0.00029307691 -0.0070880004
-0.0094996002 -0.00029307691 -0.00010400008
-0.0096915113 -0.00127 -0.00010400008
-0.0094996002 -9.7692311e-05 -0.00010400008
-0.0094996002 9.7692311e-05 -0.00010400008
-0.0094996002 0.00029307691 -0.00010400008
0.0050856443 0.00029307691 -0.0070880004
-0.017559867 -0.00127 -0.0018500001
-0.0094996002 0.00087923079 -0.00010400008
-0.010267245 0.00127 -0.00010400008
-0.0022069777 0.00127 -0.0016560002
-0.010075334 -0.00127 -0.00010400008
-0.010075334 -0.0010746154 -0.00010400008
-0.010075334 -0.00087923079 -0.00010400008
0.013721644 0.00127 -0.00029800009
-0.016792223 -0.00127 -0.0018500001
-0.016984133 0.00127 -0.0018500001
-0.0020150666 -0.00127 -0.0016560002
-0.010267245 0.0010746154 -0.00010400008
-0.010267245 0.00087923079 -0.00010400008
-0.015448844 0.00029307691 0.0016419999
-0.015448844 9.7692311e-05 0.0016419999
-0.015448844 -9.7692311e-05 0.0016419999
-0.016600311 -0.00127 -0.0018500001
-0.016792223 0.00127 -0.0018500001
0.013913555 -0.00127 -0.00029800009
-0.016984133 -0.00127 -0.0018500001
-0.0098834224 -0.00029307691 -0.00010400008
-0.017176045 0.00127 -0.0018500001
-0.0098834224 0.00029307691 -0.00010400008
-0.0098834224 0.00087923079 -0.00010400008
-0.0098834224 0.0010746154 -0.00010400008
-0.0098834224 0.00127 -0.00010400008
-0.010075334 -0.00029307691 -0.00010400008
-0.010075334 0.00029307691 -0.00010400008
-0.010075334 0.00087923079 -0.00010400008
-0.010075334 0.0010746154 -0.00010400008
-0.010075334 0.00127 -0.00010400008
0.013721644 0.00068384613 -0.00029800009
-0.0098834224 -0.00127 -0.00010400008
-0.0098834224 -0.0010746154 -0.00010400008
-0.0098834224 -0.00087923079 -0.00010400008
-0.0025907999 -0.00029307691 -0.0070880004
-0.0025907999 0.00029307691 -0.0070880004
-0.0023988888 -0.00029307691 -0.0070880004
-0.0023988888 -9.7692311e-05 -0.0070880004
-0.0023988888 9.7692311e-05 -0.0070880004
-0.0023988888 0.00029307691 -0.0070880004
-0.013337822 -0.00127 -0.0018500001
-0.013529733 0.00127 -0.0018500001
-0.0027827111 -9.7692311e-05 -0.0070880004
-0.0027827111 9.7692311e-05 -0.0070880004
-0.020054711 9.7692311e-05 -0.0074760001
-0.020054711 -9.7692311e-05 -0.0074760001
-0.013529733 -0.00127 -0.0018500001
-0.013721644 0.00127 -0.0018500001
-0.0035503556 -0.00127 -0.0016560002
-0.020438533 -0.00029307691 -0.0074760001
-0.013913555 -0.00127 -0.0018500001
-0.014105466 0.00127 -0.0018500001
0.014297377 -0.00068384613 -0.00029800009
-0.011034889 -9.7692311e-05 -0.00010400008
-0.020246621 -0.00029307691 -0.0074760001
-0.013721644 -0.00127 -0.0018500001
-0.013913555 0.00127 -0.0018500001
-0.011034889 -0.00029307691 -0.00010400008
0.014297377 0.00068384613 -0.00029800009
-0.011034889 9.7692311e-05 -0.00010400008
-0.011034889 0.00029307691 -0.00010400008
-0.0037422667 0.00127 -0.0016560002
-0.020438533 9.7692311e-05 -0.0074760001
-0.020438533 -9.7692311e-05 -0.0074760001
0.014489288 0.00068384613 -0.00029800009
-0.0112268 0.00087923079 -0.00010400008
-0.012954 -0.00127 -0.0018500001
-0.013145912 0.00127 -0.0018500001
-0.0112268 0.0010746154 -0.00010400008
-0.0112268 0.00127 -0.00010400008
-0.0112268 9.7692311e-05 -0.00010400008
-0.0041260887 0.00127 -0.0016560002
0.0146812 -0.00068384613 -0.00029800009
-0.0039341776 -0.00127 -0.0016560002
-0.012762089 -0.00127 -0.0018500001
-0.012954 0.00127 -0.0018500001
-0.0112268 0.00029307691 -0.00010400008
0.0146812 -0.00127 -0.00029800009
0.014489288 0.00127 -0.00029800009
-0.0037422667 -0.00127 -0.0016560002
-0.013145912 -0.00127 -0.0018500001
-0.013337822 0.00127 -0.0018500001
0.014489288 -0.00127 -0.00029800009
-0.0039341776 0.00127 -0.0016560002
-0.011034889 -0.0010746154 -0.00010400008
-0.011034889 -0.00087923079 -0.00010400008
0.014297377 0.00127 -0.00029800009
-0.011034889 -0.00127 -0.00010400008
-0.011034889 0.00087923079 -0.00010400008
0.014489288 -0.00068384613 -0.00029800009
-0.0146812 -0.00127 -0.0018500001
-0.014873111 0.00127 -0.0018500001
-0.0029746222 0.00127 -0.0016560002
-0.0027827111 -0.00127 -0.0016560002
-0.010651067 0.00087923079 -0.00010400008
-0.00028786666 -9.7692311e-05 -0.0070880004
-0.00028786666 9.7692311e-05 -0.0070880004
-0.00028786666 0.00029307691 -0.0070880004
-0.010651067 0.00029307691 -0.00010400008
-0.010651067 -0.0010746154 -0.00010400008
-0.010651067 -0.00087923079 -0.00010400008
-0.010651067 -0.00029307691 -0.00010400008
-0.010651067 -9.7692311e-05 -0.00010400008
-0.010651067 9.7692311e-05 -0.00010400008
0.015065022 -9.7692311e-05 0.0016419999
0.015065022 9.7692311e-05 0.0016419999
0.015065022 0.00029307691 0.0016419999
-0.015065022 -0.00127 -0.0018500001
-0.015256933 0.00127 -0.0018500001
-0.0027827111 0.00127 -0.0016560002
-0.015065022 0.00127 -0.0018500001
-9.5955555e-05 -0.00029307691 -0.0070880004
-0.010651067 0.0010746154 -0.00010400008
-9.5955555e-05 0.00029307691 -0.0070880004
-0.014873111 -0.00127 -0.0018500001
9.5955555e-05 -0.00029307691 -0.0070880004
9.5955555e-05 0.00029307691 -0.0070880004
0.00028786666 -0.00029307691 -0.0070880004
0.00028786666 -9.7692311e-05 -0.0070880004
0.00028786666 9.7692311e-05 -0.0070880004
-0.014105466 -0.00127 -0.0018500001
-0.010842978 -0.00087923079 -0.00010400008
-0.014297377 0.00127 -0.0018500001
0.014105466 0.00127 -0.00029800009
-0.011034889 0.0010746154 -0.00010400008
-0.011034889 0.00127 -0.00010400008
-0.010842978 -0.00127 -0.00010400008
0.014297377 -0.00127 -0.00029800009
-0.010842978 -0.0010746154 -0.00010400008
-0.0035503556 0.00127 -0.0016560002
-0.0033584444 -0.00127 -0.0016560002
-0.010651067 -0.00127 -0.00010400008
-0.010842978 0.00087923079 -0.00010400008
-0.010842978 0.0010746154 -0.00010400008
-0.010842978 0.00127 -0.00010400008
-0.0031665333 0.00127 -0.0016560002
-0.014489288 -0.00127 -0.0018500001
-0.0146812 0.00127 -0.0018500001
-0.0029746222 -0.00127 -0.0016560002
0.014105466 0.00068384613 -0.00029800009
-0.0033584444 0.00127 -0.0016560002
-0.0031665333 -0.00127 -0.0016560002
-0.014297377 -0.00127 -0.0018500001
-0.014489288 0.00127 -0.0018500001
-0.011610623 -0.00087923079 -0.00010400008
-0.010842978 -0.00029307691 -0.00010400008
-0.010842978 -9.7692311e-05 -0.00010400008
-0.010842978 9.7692311e-05 -0.00010400008
-0.010842978 0.00029307691 -0.00010400008
-0.017559867 -9.7692311e-05 -0.0070880004
-0.017559867 9.7692311e-05 -0.0070880004
-0.0039341776 -0.00127 -0.0018500001
-0.0056613777 -0.00127 -0.0018500001
-0.0058532888 0.00127 -0.0018500001
-0.0050856443 0.00127 -0.0018500001
0.016792223 0.00068384613 -0.00029800009
-0.0041260887 0.00127 -0.0018500001
0.016216489 -0.00068384613 -0.00029800009
0.017559867 -0.00087923079 -0.00029800009
0.017559867 -0.00068384613 -0.00029800009
0.01794369 -0.00068384613 -0.00029800009
0.017751778 0.00068384613 -0.00029800009
-0.0070047555 -0.00127 -0.0016560002
-0.0041260887 -0.00127 -0.0018500001
-0.0043179998 0.00127 -0.0018500001
-0.012570178 9.7692311e-05 -0.0074760001
-0.0048937332 -0.00127 -0.0018500001
0.01794369 -0.00127 -0.00029800009
0.017751778 0.00127 -0.00029800009
-0.012762089 -0.00029307691 -0.00010400008
-0.0087319557 0.00127 -0.0016560002
-0.0035503556 -0.00127 -0.0018500001
-0.0037422667 0.00127 -0.0018500001
-0.0077724 0.00127 -0.0016560002
0.016792223 0.00127 -0.00029800009
-0.012954 0.00029307691 -0.00010400008
0.017367955 0.00068384613 -0.00029800009
-0.0085400445 -0.00127 -0.0016560002
-0.012762089 0.00087923079 -0.00010400008
0.0181356 -0.00068384613 -0.00029800009
-0.01794369 9.7692311e-05 -0.0070880004
-0.013145912 -0.0010746154 -0.00010400008
-0.012762089 0.0010746154 -0.00010400008
-0.01794369 0.00029307691 -0.0070880004
-0.010075334 0.00029307691 -0.0074760001
-0.010075334 9.7692311e-05 -0.0074760001
-0.0066209333 -0.00127 -0.0016560002
-0.010075334 -9.7692311e-05 -0.0074760001
-0.010075334 -0.00029307691 -0.0074760001
-0.0068128444 0.00127 -0.0016560002
-0.010267245 0.00029307691 -0.0074760001
-0.010267245 9.7692311e-05 -0.0074760001
-0.010267245 -9.7692311e-05 -0.0074760001
-0.0070047555 0.00127 -0.0016560002
-0.017751778 -0.00029307691 -0.0070880004
-0.010267245 -0.00029307691 -0.0074760001
0.017367955 0.00127 -0.00029800009
0.01794369 0.00068384613 -0.00029800009
-0.0037422667 -0.00127 -0.0018500001
-0.0066209333 0.00127 -0.0018500001
-0.0064290222 -0.00127 -0.0018500001
-0.012762089 0.00029307691 -0.00010400008
-0.017751778 0.00029307691 -0.0070880004
0.017559867 -0.00127 -0.00029800009
-0.0039341776 0.00127 -0.0018500001
-0.012570178 -0.00029307691 -0.0074760001
0.0181356 -0.00127 -0.00029800009
0.01794369 0.00127 -0.00029800009
-0.0068128444 -0.00127 -0.0016560002
-0.012954 9.7692311e-05 -0.0074760001
-0.020054711 -9.7692311e-05 -0.0070880004
-0.012762089 -0.00029307691 -0.0074760001
-0.0060451999 0.00127 -0.0018500001
0.016600311 0.00068384613 -0.00029800009
-0.0081562223 0.00127 -0.0016560002
-0.013145912 0.00087923079 -0.00010400008
-0.0079643112 -0.00127 -0.0016560002
-0.010075334 -0.00029307691 0.0016419999
0.016408401 0.00068384613 -0.00029800009
-0.012954 -9.7692311e-05 -0.0074760001
-0.012762089 0.00029307691 -0.0074760001
-0.0062371111 0.00127 -0.0018500001
-0.0060451999 -0.00127 -0.0018500001
0.017751778 -0.00127 -0.00029800009
-0.013145912 0.00029307691 -0.00010400008
-0.020054711 9.7692311e-05 -0.0070880004
-0.012954 -0.0010746154 -0.00010400008
0.016600311 -0.00127 -0.00029800009
-0.0045099109 -0.00127 -0.0018500001
-0.012954 -0.00127 -0.00010400008
-0.010267245 0.00029307691 0.0016419999
-0.020438533 9.7692311e-05 -0.0070880004
0.017751778 -0.00068384613 -0.00029800009
-0.013145912 0.00127 -0.00010400008
-0.0079643112 0.00127 -0.0016560002
-0.012954 -0.00087923079 -0.00010400008
-0.0077724 -0.00127 -0.0016560002
0.016600311 -0.00068384613 -0.00029800009
-0.020438533 -9.7692311e-05 -0.0070880004
-0.020438533 -0.00029307691 -0.0070880004
-0.013145912 0.0010746154 -0.00010400008
-0.020246621 -0.00029307691 -0.0070880004
-0.010075334 -9.7692311e-05 0.0016419999
0.016408401 0.00127 -0.00029800009
-0.0047018221 0.00127 -0.0018500001
-0.010267245 -0.00029307691 0.0016419999
-0.010267245 -9.7692311e-05 0.0016419999
-0.010267245 9.7692311e-05 0.0016419999
-0.0064290222 0.00127 -0.0018500001
-0.0062371111 -0.00127 -0.0018500001
0.016216489 0.00068384613 -0.00029800009
0.016792223 -0.00127 -0.00029800009
-0.0071966667 -0.00127 -0.0016560002
0.017559867 0.00068384613 -0.00029800009
-0.0043179998 -0.00127 -0.0018500001
-0.013145912 -0.00087923079 -0.00010400008
-0.0071966667 0.00127 -0.0016560002
0.016792223 -0.00068384613 -0.00029800009
-0.0085400445 0.00127 -0.0016560002
-0.0073885778 0.00127 -0.0016560002
-0.0083481334 -0.00127 -0.0016560002
-0.0081562223 -0.00127 -0.0016560002
-0.013145912 -0.00029307691 -0.00010400008
0.016600311 0.00127 -0.00029800009
-0.013145912 -9.7692311e-05 -0.00010400008
-0.013145912 9.7692311e-05 -0.00010400008
-0.0058532888 -0.00127 -0.0018500001
-0.0048937332 0.00127 -0.0018500001
-0.0047018221 -0.00127 -0.0018500001
-0.012954 -0.00029307691 -0.00010400008
-0.010075334 0.00029307691 0.0016419999
-0.010075334 9.7692311e-05 0.0016419999
0.016216489 0.00127 -0.00029800009
0.016408401 -0.00127 -0.00029800009
0.017559867 0.00127 -0.00029800009
-0.0045099109 0.00127 -0.0018500001
0.016408401 -0.00068384613 -0.00029800009
-0.0083481334 0.00127 -0.0016560002
-0.012570178 -0.00087923079 -0.00010400008
0.020246621 0.00029307691 -0.007282
-0.015256933 0.00029307691 -0.0070880004
-0.013337822 0.0010746154 -0.00010400008
0.016024578 0.00127 -0.00029800009
-0.0070047555 0.00127 -0.0018500001
-0.0068128444 -0.00127 -0.0018500001
-0.013337822 0.00127 -0.00010400008
-0.0073885778 -0.00029307691 0.0016419999
0.016024578 0.00068384613 -0.00029800009
-0.012954 0.00087923079 -0.00010400008
-0.0054694666 -0.00127 -0.0018500001
-0.0056613777 0.00127 -0.0018500001
-0.0075804889 0.00029307691 0.0016419999
0.017176045 0.00127 -0.00029800009
0.018327512 0.00068384613 -0.00029800009
-0.015256933 -0.00029307691 -0.0070880004
0.017176045 -0.00068384613 -0.00029800009
0.018327512 -0.00068384613 -0.00029800009
-0.012954 0.0010746154 -0.00010400008
-0.0091157779 0.00127 -0.0016560002
-0.0077724 0.00029307691 0.0016419999
-0.0077724 9.7692311e-05 0.0016419999
-0.0033584444 0.00127 -0.0018500001
-0.0077724 -9.7692311e-05 0.0016419999
-0.0089238668 -0.00127 -0.0016560002
-0.0077724 -0.00029307691 0.0016419999
-0.0070047555 -0.00127 -0.0018500001
0.018327512 -0.00127 -0.00029800009
-0.0031665333 -0.00127 -0.0018500001
0.018327512 -0.0010746154 -0.00029800009
-0.012570178 -0.00029307691 -0.00010400008
0.020054711 9.7692311e-05 -0.007282
-0.013337822 0.00087923079 -0.00010400008
0.016984133 0.00068384613 -0.00029800009
-0.015065022 9.7692311e-05 -0.0070880004
-0.015065022 -9.7692311e-05 -0.0070880004
-0.0066209333 0.00127 -0.0016560002
-0.015065022 -0.00029307691 -0.0070880004
-0.012762089 -0.0010746154 -0.00010400008
-0.012762089 -0.00087923079 -0.00010400008
0.020246621 -9.7692311e-05 -0.007282
-0.0075804889 -0.00029307691 0.0016419999
0.017176045 0.00068384613 -0.00029800009
-0.0071966667 0.00127 -0.0018500001
-0.013145912 -0.00127 -0.00010400008
-0.0064290222 -0.00127 -0.0016560002
-0.012954 0.00127 -0.00010400008
0.016216489 -0.00127 -0.00029800009
-0.012570178 0.00029307691 -0.00010400008
-0.012762089 -0.00127 -0.00010400008
-0.0073885778 -0.00127 -0.0016560002
-0.0054694666 0.00127 -0.0018500001
-0.013337822 0.00029307691 -0.00010400008
0.016984133 -0.00068384613 -0.00029800009
-0.0052775554 -0.00127 -0.0018500001
-0.0068128444 0.00127 -0.0018500001
0.016984133 -0.00127 -0.00029800009
-0.0073885778 0.00029307691 0.0016419999
0.018327512 0.00127 -0.00029800009
0.0181356 0.00068384613 -0.00029800009
-0.012570178 -0.0010746154 -0.00010400008
-0.0050856443 -0.00127 -0.0018500001
0.018519422 -0.0010746154 -0.00029800009
-0.0075804889 -0.00127 -0.0016560002
-0.012762089 0.00127 -0.00010400008
-0.0075804889 0.00127 -0.0016560002
-0.01794369 -0.00029307691 -0.0070880004
-0.01794369 -9.7692311e-05 -0.0070880004
-0.0091157779 -0.00127 -0.0016560002
0.016984133 0.00127 -0.00029800009
-0.009307689 0.00127 -0.0016560002
-0.0073885778 -9.7692311e-05 0.0016419999
0.018519422 -0.00127 -0.00029800009
0.017176045 -0.00127 -0.00029800009
-0.012570178 -0.00127 -0.00010400008
-0.0066209333 -0.00127 -0.0018500001
0.017367955 -0.00068384613 -0.00029800009
-0.0052775554 0.00127 -0.0018500001
-0.0073885778 0.00127 -0.0018500001
0.017176045 -0.0010746154 -0.00029800009
0.020438533 9.7692311e-05 -0.007282
-0.0071966667 -0.00127 -0.0018500001
-0.0073885778 9.7692311e-05 0.0016419999
0.020438533 0.00029307691 -0.007282
-0.0033584444 -0.00127 -0.0018500001
-0.015448844 -9.7692311e-05 -0.0070880004
0.017367955 -0.00127 -0.00029800009
-0.015448844 9.7692311e-05 -0.0070880004
-0.0089238668 0.00127 -0.0016560002
0.0181356 0.00127 -0.00029800009
-0.0035503556 0.00127 -0.0018500001
-0.0087319557 -0.00127 -0.0016560002
0.020438533 -9.7692311e-05 -0.007282
-0.015448844 0.00029307691 -0.0070880004
0.010459156 -0.00048846152 -0.00029800009
-0.020630443 0.00127 -0.00088000012
0.0073885778 0.00029307691 -0.0067000003
-0.015832666 9.7692311e-05 -0.0024320001
0.010267245 -0.00048846152 -0.00029800009
-0.020438533 0.00048846152 -0.0024320001
-0.012762089 0.00029307691 -0.0080580004
0.012954 -9.7692311e-05 -0.0059240004
-0.015832666 0.00029307691 -0.0024320001
0.0181356 0.00048846152 -0.00010400008
0.015448844 0.00029307691 -0.0032080002
-0.012762089 -0.00029307691 -0.0080580004
-0.0098834224 -0.00048846152 -0.00029800009
-0.012954 9.7692311e-05 -0.0032080002
-0.012954 9.7692311e-05 -0.0080580004
-0.015640756 0.0010746154 -0.0024320001
-0.020246621 0.00029307691 -0.0076700002
0.0073885778 0.00029307691 -0.0028200001
0.020054711 -9.7692311e-05 -0.0045660003
0.0048937332 -0.00048846152 -0.00029800009
0.019862801 -0.00048846152 -0.00029800009
-0.015640756 0.00068384613 -0.0024320001
0.013721644 -0.00048846152 -0.0024320001
0.018903244 0.00048846152 -0.00010400008
-0.019862801 -0.00029307691 -0.0024320001
-0.015448844 -0.00029307691 0.0022239999
-0.0039341776 -0.00068384613 -0.00029800009
0.017559867 -9.7692311e-05 -0.0037900002
-0.021014266 -0.00127 -0.00029800009
0.0146812 0.00048846152 -0.00010400008
0.014873111 0.00048846152 -0.00010400008
-0.020054711 0.00068384613 -0.0024320001
-0.015256933 0.00127 -0.0024320001
-0.020246621 0.00029307691 -0.0053420002
-0.015448844 -0.00029307691 -0.007282
0.0048937332 -0.00068384613 -0.00029800009
-0.014873111 -0.0010746154 -0.0024320001
-0.014873111 -0.00127 -0.0024320001
0.018327512 -0.00087923079 -0.00010400008
0.014297377 -0.00048846152 -0.00029800009
0.012954 -9.7692311e-05 -0.0053420002
0.018711334 -0.00029307691 -0.00010400008
0.020054711 -9.7692311e-05 -0.0065060002
-0.015832666 0.00087923079 -0.0024320001
-0.015256933 0.00087923079 -0.0024320001
0.0146812 -0.00048846152 -0.00029800009
0.012954 9.7692311e-05 -0.0059240004
-0.015256933 0.00068384613 -0.0024320001
-0.015640756 -0.00127 -0.0024320001
-0.015640756 0.00127 -0.00010400008
-0.014873111 -0.00068384613 -0.0024320001
-0.019862801 -0.00087923079 -0.0024320001
0.0035503556 -0.00127 -0.0024320001
0.0052775554 -0.00127 -0.0024320001
0.012954 9.7692311e-05 -0.0053420002
-0.012954 9.7692311e-05 -0.0028200001
-0.020822356 0.00127 -0.00088000012
-0.014873111 -0.00087923079 -0.0024320001
-0.019862801 -0.00068384613 -0.0024320001
0.020438533 -0.00029307691 0.00047799994
-0.0039341776 -0.00048846152 -0.00029800009
-0.020438533 -0.00068384613 -0.0024320001
-0.019670889 -0.00087923079 -0.0024320001
0.012954 9.7692311e-05 -0.0045660003
0.017176045 -0.00048846152 -0.00029800009
-0.015448844 -0.00029307691 -0.0053420002
-0.0027827111 9.7692311e-05 -0.0080580004
-0.020246621 0.00029307691 -0.0039840001
-0.012378267 -0.00068384613 -0.00029800009
-0.019670889 -0.00048846152 -0.0024320001
0.012954 -9.7692311e-05 -0.0045660003
-0.0098834224 -0.00068384613 -0.00029800009
0.015448844 -0.00029307691 -0.0045660003
-0.0025907999 0.00029307691 -0.0080580004
-0.01794369 -0.00068384613 -0.00029800009
0.0027827111 0.00029307691 -0.0059240004
0.015065022 0.00048846152 -0.00010400008
-0.020054711 -0.00087923079 -0.0024320001
0.0073885778 -0.00029307691 -0.0074760001
-0.020246621 0.00029307691 -0.0070880004
0.0098834224 0.00029307691 8.9999929e-05
0.020054711 -0.00127 -0.0020440002
-0.015448844 0.00127 -0.0024320001
0.015448844 0.00029307691 -0.0045660003
-0.019670889 0.00048846152 -0.0024320001
-0.015448844 0.0010746154 -0.0024320001
0.015448844 0.00048846152 -0.00010400008
-0.019670889 0.00029307691 -0.0024320001
0.00028786666 0.00029307691 -0.0067000003
0.0098834224 -0.00029307691 8.9999929e-05
-0.017559867 9.7692311e-05 -0.0053420002
-0.019670889 9.7692311e-05 -0.0024320001
-0.019862801 0.00087923079 -0.0024320001
0.018519422 -0.00029307691 -0.00010400008
0.018519422 -0.00087923079 -0.00010400008
0.0073885778 0.00029307691 -0.0041780001
-0.020246621 0.00068384613 -0.0024320001
0.018519422 0.00048846152 -0.00010400008
-0.015448844 0.00068384613 -0.0024320001
-0.021206178 -0.00068384613 -0.00029800009
-0.020246621 0.00048846152 -0.0024320001
-0.017559867 -9.7692311e-05 -0.0053420002
0.012570178 -0.00029307691 -0.0059240004
0.015448844 -0.00029307691 -0.0070880004
-0.0094996002 -0.00068384613 -0.00029800009
-0.019287067 -0.00068384613 -0.0024320001
-0.015065022 0.00029307691 -0.0053420002
-0.015448844 -9.7692311e-05 0.0026120001
0.015256933 0.00048846152 -0.00010400008
-0.012570178 0.00029307691 -0.0032080002
0.018327512 0.00048846152 -0.00010400008
-0.019862801 0.00068384613 -0.0024320001
-0.012378267 -0.00048846152 -0.00029800009
-0.019862801 -9.7692311e-05 -0.0024320001
0.0073885778 0.00029307691 -0.0074760001
-0.020246621 0.00029307691 -0.0074760001
0.015640756 0.00048846152 -0.00010400008
-0.020246621 0.00029307691 -0.0032080002
-0.019287067 0.00048846152 -0.0024320001
-0.015448844 -0.00127 -0.0024320001
0.018711334 0.00048846152 -0.00010400008
0.012570178 -0.00029307691 -0.0045660003
-0.019478979 -0.00087923079 -0.0024320001
-0.020054711 -0.00048846152 -0.0024320001
-0.017751778 -0.00068384613 -0.00029800009
0.020438533 -0.00029307691 0.001254
0.018903244 -9.7692311e-05 -0.00010400008
-0.019478979 -0.00029307691 -0.0024320001
-0.0027827111 0.00029307691 -0.0078640003
-0.0094996002 -0.00048846152 -0.00029800009
0.012570178 -0.00029307691 -0.0068940003
-0.020246621 -0.00087923079 -0.0024320001
-0.019478979 0.00048846152 -0.0024320001
-0.019478979 0.00068384613 -0.0024320001
0.0073885778 0.00029307691 -0.0037900002
0.015448844 0.00029307691 -0.0070880004
-0.021398088 0.00087923079 -0.00029800009
0.0050856443 9.7692311e-05 0.0028059999
-0.019287067 -0.00087923079 -0.0024320001
-0.015065022 0.00029307691 -0.0034020001
0.017367955 -0.00087923079 -0.00010400008
0.00028786666 0.00029307691 -0.0053420002
0.012954 -9.7692311e-05 0.001836
-0.0079643112 9.7692311e-05 -0.0053420002
-0.0079643112 -9.7692311e-05 -0.0065060002
-0.016792223 0.00068384613 -0.0024320001
0.012954 9.7692311e-05 0.001836
0.017367955 -0.00048846152 -0.00029800009
-0.016792223 0.00048846152 -0.0024320001
-0.0079643112 -9.7692311e-05 -0.0053420002
0.017559867 9.7692311e-05 0.002418
-0.016600311 -0.00127 -0.0024320001
-0.012186356 -0.00048846152 -0.00029800009
0.013145912 -0.00087923079 -0.0024320001
0.016408401 -0.0010746154 -0.00010400008
0.017367955 0.00048846152 -0.00010400008
-0.017751778 -0.00087923079 -0.0024320001
0.016408401 0.00048846152 -0.00010400008
0.014489288 -0.00048846152 -0.00029800009
-0.016792223 -9.7692311e-05 -0.0024320001
-0.020246621 0.00127 -0.00088000012
0.017367955 -0.0010746154 -0.00010400008
0.00028786666 0.00029307691 -0.0028200001
-0.020054711 -0.0010746154 -0.00010400008
-0.020054711 9.7692311e-05 0.00067199994
0.0043179998 -0.00029307691 -0.0024320001
0.0027827111 -0.00068384613 -0.00029800009
-0.017559867 -0.00127 -0.0024320001
0.016600311 -0.0010746154 -0.00010400008
-0.0037422667 -0.00068384613 -0.00029800009
-0.0050856443 -0.00048846152 -0.0028200001
-0.016792223 -0.0010746154 -0.0024320001
0.0073885778 0.00029307691 -0.0063120001
-0.014297377 -0.00068384613 -0.00029800009
0.012378267 0.00029307691 8.9999929e-05
0.0027827111 0.00029307691 -0.0053420002
-0.01794369 -0.00087923079 -0.0024320001
0.020054711 -0.00048846152 -0.00029800009
-0.016408401 9.7692311e-05 -0.0024320001
-0.0181356 0.00068384613 -0.0024320001
0.0047018221 -0.00048846152 -0.00029800009
0.017559867 0.00048846152 -0.00010400008
0.017559867 -0.00048846152 -0.00029800009
-0.0075804889 0.00048846152 -0.0028200001
0.017559867 -9.7692311e-05 -0.0041780001
0.017559867 0.00029307691 -0.0041780001
0.0025907999 -0.00048846152 -0.00029800009
0.0025907999 -0.00068384613 -0.00029800009
-0.0096915113 -0.00068384613 -0.00029800009
0.017559867 -9.7692311e-05 -0.0070880004
-0.017559867 -9.7692311e-05 -0.0032080002
-0.015448844 -0.00029307691 -0.0032080002
0.0112268 -0.00048846152 -0.00029800009
0.016216489 0.00048846152 -0.00010400008
0.0048937332 -0.00029307691 -0.0047600004
-0.017559867 9.7692311e-05 -0.0032080002
0.015448844 0.00029307691 -0.0041780001
-0.016408401 -0.00127 -0.0024320001
0.02159 0.00048846152 -0.00049200008
0.015448844 -0.00029307691 -0.0041780001
0.0027827111 -0.00048846152 -0.00029800009
0.02159 0.00068384613 -0.00049200008
0.017559867 -0.0010746154 -0.00010400008
0.017751778 -0.00029307691 0.002418
-0.017751778 -0.0010746154 -0.0024320001
-0.017367955 -0.00029307691 -0.0024320001
-0.0027827111 -0.00029307691 -0.0028200001
-0.017367955 0.00068384613 -0.0024320001
-0.017367955 0.00048846152 -0.0024320001
-0.016984133 -0.00127 -0.0024320001
-0.017367955 0.00029307691 -0.0024320001
-0.016984133 -0.0010746154 -0.0024320001
-0.02159 -0.00029307691 -0.00029800009
-0.015448844 -0.00029307691 -0.0034020001
-0.0077724 0.00029307691 -0.0080580004
-0.02159 -9.7692311e-05 -0.00029800009
0.0041260887 -0.0010746154 -0.0024320001
-0.02159 9.7692311e-05 -0.00029800009
0.012954 -9.7692311e-05 -0.0041780001
0.012954 9.7692311e-05 -0.0041780001
0.016792223 0.00048846152 -0.00010400008
0.017176045 -0.00087923079 -0.00010400008
-0.016984133 -0.00029307691 -0.0024320001
-0.017176045 -0.00127 -0.0024320001
-0.017176045 -0.0010746154 -0.0024320001
0.0073885778 0.00029307691 0.0016419999
0.016984133 0.00048846152 -0.00010400008
0.016984133 -0.0010746154 -0.00010400008
0.016984133 -0.00087923079 -0.00010400008
0.013337822 -0.00068384613 -0.0024320001
-0.02159 -0.00068384613 -0.00029800009
-0.0098834224 9.7692311e-05 0.00047799994
-0.020054711 -0.00029307691 -0.00010400008
-0.017176045 -0.00048846152 -0.0024320001
-0.0098834224 -9.7692311e-05 0.00047799994
-0.017176045 9.7692311e-05 -0.0024320001
-0.017176045 0.00029307691 -0.0024320001
-0.017176045 0.00048846152 -0.0024320001
-0.016984133 0.00048846152 -0.0024320001
0.016792223 -0.0010746154 -0.00010400008
-0.012954 -9.7692311e-05 -0.0063120001
-0.012954 9.7692311e-05 -0.0063120001
0.0043179998 -0.00048846152 -0.0024320001
-0.012186356 -0.00068384613 -0.00029800009
-0.017559867 -0.00068384613 -0.0024320001
0.016600311 0.00048846152 -0.00010400008
0.017176045 0.00048846152 -0.00010400008
0.016792223 -0.00087923079 -0.00010400008
0.017559867 0.00029307691 -0.0070880004
-0.017559867 -0.0010746154 -0.0024320001
-0.0037422667 -0.00048846152 -0.00029800009
-0.016984133 0.00068384613 -0.0024320001
-0.016984133 0.00087923079 -0.0024320001
0.0041260887 -0.00127 -0.0024320001
-0.016792223 -0.00127 -0.0024320001
-0.0181356 -0.00087923079 -0.0024320001
0.0027827111 0.00029307691 -0.0067000003
0.011034889 -0.00048846152 -0.00029800009
-0.017559867 0.00048846152 -0.0024320001
0.0073885778 0.00029307691 -0.0059240004
-0.016984133 0.00029307691 -0.0024320001
0.017559867 -9.7692311e-05 -0.0045660003
0.017559867 9.7692311e-05 -0.0045660003
-0.016984133 -9.7692311e-05 -0.0024320001
0.012954 9.7692311e-05 -0.007282
0.012954 -9.7692311e-05 -0.0037900002
0.012954 9.7692311e-05 -0.0037900002
0.012954 -9.7692311e-05 -0.007282
-0.017367955 -0.00127 -0.0024320001
-0.017367955 -0.0010746154 -0.0024320001
-0.0023988888 0.00029307691 -0.0028200001
-0.018903244 0.00048846152 -0.0024320001
0.0073885778 0.00029307691 -0.0047600004
-0.012570178 0.00029307691 -0.0053420002
0.0073885778 -0.00029307691 -0.0076700002
0.015832666 0.00048846152 -0.00010400008
-0.018903244 0.0010746154 -0.0024320001
-0.018903244 0.00087923079 -0.0024320001
0.010651067 -0.00048846152 -0.00029800009
-0.015448844 -0.00029307691 0.001836
0.0073885778 0.00029307691 -0.006118
-0.018903244 0.00029307691 -0.0024320001
-0.018903244 9.7692311e-05 -0.0024320001
0.012954 -0.0010746154 -0.0024320001
-0.012954 9.7692311e-05 -0.0053420002
-0.012954 -9.7692311e-05 -0.0053420002
-0.020438533 0.00127 -0.00088000012
-0.018903244 -9.7692311e-05 -0.0024320001
-0.018903244 -0.00029307691 -0.0024320001
-0.018711334 -0.0010746154 -0.0024320001
0.0023988888 -0.00029307691 0.00067199994
-0.018711334 -0.00087923079 -0.0024320001
0.010459156 -0.00029307691 8.9999929e-05
0.016024578 -0.0010746154 -0.00010400008
0.01794369 0.00048846152 -0.00010400008
-0.017176045 0.00068384613 -0.0024320001
0.0073885778 0.00029307691 -0.0076700002
0.0037422667 -0.00127 -0.0024320001
-0.0048937332 9.7692311e-05 -0.0080580004
-0.016024578 -0.00127 -0.0024320001
-0.018711334 -9.7692311e-05 -0.0024320001
0.0047018221 -0.00068384613 -0.00029800009
0.0037422667 -0.0010746154 -0.0024320001
0.010459156 -9.7692311e-05 8.9999929e-05
0.020054711 -0.00127 -0.00029800009
0.0181356 -0.00087923079 -0.00010400008
-0.019095156 0.00127 -0.0024320001
-0.019095156 0.00087923079 -0.0024320001
-0.019095156 0.00068384613 -0.0024320001
-0.015832666 -0.00048846152 -0.0024320001
0.015832666 -0.0010746154 -0.00010400008
0.0073885778 0.00029307691 -0.0053420002
-0.019095156 9.7692311e-05 -0.0024320001
0.0181356 -0.0010746154 -0.00010400008
-0.0079643112 -9.7692311e-05 -0.006118
-0.019095156 -9.7692311e-05 -0.0024320001
-0.019095156 -0.00029307691 -0.0024320001
-0.019095156 -0.00068384613 -0.0024320001
-0.015832666 -0.00029307691 -0.0024320001
-0.015832666 -9.7692311e-05 -0.0024320001
-0.019095156 -0.00087923079 -0.0024320001
-0.018711334 9.7692311e-05 -0.0024320001
-0.020246621 -0.00127 -0.00010400008
-0.015832666 -0.00127 -0.0024320001
-0.016024578 0.00127 -0.0024320001
-0.020246621 -0.0010746154 -0.00010400008
0.0027827111 0.00029307691 -0.0047600004
-0.019862801 -0.00087923079 -0.00010400008
0.012954 -0.00127 -0.0024320001
0.0050856443 0.00048846152 -0.0028200001
0.020438533 -0.00029307691 -0.0041780001
-0.021398088 -0.00068384613 -0.00029800009
-0.018903244 -0.0010746154 -0.0024320001
-0.018903244 -0.00087923079 -0.0024320001
0.0048937332 -0.00029307691 -0.0028200001
-0.015065022 0.00029307691 0.0022239999
0.020054711 -9.7692311e-05 -0.0041780001
-0.018327512 -0.00127 -0.0024320001
0.015065022 9.7692311e-05 0.002418
-0.0052775554 -9.7692311e-05 -0.0080580004
-0.018327512 -0.00087923079 -0.0024320001
0.015065022 -9.7692311e-05 0.002418
-0.0052775554 9.7692311e-05 -0.0080580004
-0.0035503556 -0.00068384613 -0.00029800009
-0.018327512 -0.0010746154 -0.0024320001
-0.016408401 0.00127 -0.0024320001
-0.0052775554 -0.00029307691 -0.0078640003
-0.016216489 -0.00127 -0.0024320001
0.012954 9.7692311e-05 8.9999929e-05
-0.0096915113 -0.00048846152 -0.00029800009
