# .PCD v0.7 - Point Cloud Data file format
VERSION 0.7
FIELDS x y z
SIZE 4 4 4
TYPE F F F
COUNT 1 1 1
WIDTH 1180
HEIGHT 1
VIEWPOINT 0 0 0 1 0 0 0
POINTS 1180
DATA ascii
0.0062648393 -0.00028222165 -0.0038036166
0.0037322447 -0.00014111129 -0.0038036169
0.0037766758 0.00023518503 -0.0038036176
0.0037589034 0.00019755567 -0.0032433192
0.0062648398 0.00028222214 -0.0038036178
0.0053317784 -0.0012700006 -0.00073531852
0.005331778 -0.0012700005 -0.0011355318
0.0031990677 -0.0012699998 -0.0022027662
0.002665889 -0.0012700005 -0.0022027662
0.0031990665 -0.0012699998 -0.0016691484
0.002665889 -0.0012699995 -0.0016691491
0.0037322452 -0.0012700004 -0.0022027665
0.0042654234 -0.0012699994 -0.0022027658
0.0037766758 -0.00023518456 -0.004737447
0.0065314281 -0.00028222168 -0.0067385114
0.0065314281 -0.00028222217 -0.0072721285
0.019167742 -0.00019755514 -0.0043639159
0.016661808 -0.00014111125 -0.004737447
0.016661808 0.00014111129 -0.0047374461
0.016661808 0.0001411112 -0.0038036173
0.016661808 0.00014111167 -0.0032699993
0.016395219 0.00014111145 -0.0038036178
0.016395219 0.00014111151 -0.0032700005
0.015728746 0.00084666611 -0.0022027656
0.016261924 0.00084666698 -0.0022027656
0.015728746 0.00028222206 -0.0022027662
0.0066647227 -0.0012700001 -0.00033510709
0.0062648393 -0.00127 -0.00033510698
0.0058649564 -0.0012700006 -0.00073531945
0.005864956 -0.0012699993 -0.00033510604
0.0062648393 -0.0012699994 -0.0007353191
0.0098637901 -0.0012700006 -0.0016691496
0.010663557 -0.00127 -0.00073531899
0.0093306126 -0.0012700002 -0.0011355325
0.0093306107 -0.0012699994 -0.0016691489
0.010663557 -0.0012699998 -0.0011355323
0.014262507 -0.0012700004 -0.00033510628
0.013862624 -0.0012700002 -0.00073531992
0.014262507 -0.0012699997 -0.00073531945
0.014262507 -0.0012700006 -0.0011355323
0.013329445 -0.0012700002 -0.0016691484
0.011596617 -0.00014111085 -0.0083393622
0.011596618 -0.00014111132 -0.0047374479
0.011330029 -0.000141111 -0.004337234
0.032790437 -0.0012700005 -0.0022027658
0.032790437 -0.00084666739 -0.002202766
0.033323616 -0.00127 -0.0022027662
0.03172408 -0.00014111084 -0.0032700002
0.032257259 -0.0012700006 -0.002202766
0.029324781 0.00014111132 -0.0083393622
0.039321866 -0.00028222176 -0.0032699993
0.03972175 -0.0012700004 -0.0022027665
0.040254924 -0.0012700006 -0.0022027665
0.033323616 -0.00084666646 -0.0022027662
0.033856794 -0.00084666663 -0.002202766
0.034256674 -0.00014111119 -0.0032700007
0.021460408 0.00014111138 -0.0062048938
0.021460408 -0.00014111088 -0.0062048938
0.021460408 -0.00014111094 -0.0056712767
0.021726998 -0.00014111139 -0.0056712776
0.044387054 -0.00014111119 -0.0056712762
0.043720584 -0.00084666652 -0.0022027662
0.044387054 -0.00014111082 -0.0032700005
0.039588455 0.00014111145 -0.0038036178
0.041854456 0.00014111061 -0.0038036171
0.04185446 -0.00014111068 -0.004337234
0.042254344 -0.00084666617 -0.0022027662
0.041321281 -0.00084666617 -0.0022027667
-0.040788103 0.0012700002 -0.0016691491
-0.040788103 0.0012700005 -0.002202766
-0.041854456 0.0012700004 -0.0022027656
-0.041321281 0.00127 -0.0022027662
-0.042654231 0.0012699997 -0.00033510651
-0.043187402 0.00084666669 -0.00033510604
-0.043187406 0.0012699995 -0.00033510709
-0.042654227 0.00084666733 -0.00033510639
-0.033323616 0.0012700005 -0.00073531899
-0.034656558 0.0012700004 -0.00033510663
-0.033856794 0.0012700002 -0.00033510698
-0.034256674 0.0012699999 -0.00033510604
-0.034256674 0.00014111071 0.0012657451
-0.032257259 0.0012699999 -0.00033510686
-0.034256674 0.00014111114 0.0023329784
-0.034256674 0.00014111139 0.0017993615
-0.034523264 0.00014111056 0.0021995748
-0.034256674 -0.00014111113 0.0027331919
0.041321281 -0.0012700001 -0.00033510628
-0.042254344 0.00084666623 -0.00033510628
-0.039321866 0.00014111094 0.00073212758
-0.039588455 -0.00014111151 0.00073212734
-0.039188571 -0.00084666739 -0.00033510616
-0.039321866 -0.00014111071 0.00073212758
-0.040788103 0.00028222188 -0.00033510651
-0.04185446 0.00014111106 0.00073212711
-0.042654231 0.00028222243 -0.00033510674
-0.041321281 0.0012700001 -0.00033510628
-0.040788103 0.00127 -0.00033510593
-0.043187402 0.00028222159 -0.00033510698
-0.040788103 -0.00084666733 -0.00033510593
-0.040788103 -0.0012699994 -0.00033510709
-0.041321281 -0.0012699998 -0.00073531887
-0.041321281 -0.0012700004 -0.0011355315
-0.044387054 -0.00014111128 0.0012657444
-0.044387054 -0.00014111129 0.00073212711
-0.044786938 -0.0012700005 -0.00033510628
-0.03972175 -0.0012699995 -0.00073531957
-0.040254928 -0.00127 -0.0007353198
-0.042654227 0.0012700004 -0.00073531934
-0.042654231 0.0012700002 -0.0016691483
-0.043720581 0.0012700005 -0.00033510604
-0.043187406 0.0012699999 -0.0011355315
-0.044253759 0.0012699997 -0.00073531899
-0.043720584 0.00028222214 -0.00033510604
-0.043720584 0.00084666692 -0.00033510674
-0.044253759 0.00084666605 -0.00033510616
-0.036789272 -0.0012700004 -0.0016691489
-0.037322447 -0.0012700002 -0.0011355323
-0.044653643 0.00014111049 -0.0078057447
-0.044387054 0.00014111176 -0.0078057447
-0.044653643 0.00014111096 -0.0083393622
-0.044653643 0.00014111125 -0.0072721285
-0.044387054 0.00014111088 -0.0072721276
-0.044653643 -0.0001411117 -0.0032699998
-0.03625609 0.00084666663 -0.0022027662
-0.036256094 0.0012699994 -0.0022027658
-0.036256094 0.0012699997 -0.0016691496
-0.044653643 -0.00014111101 0.0023329784
0.044653643 -0.00014111049 0.002332978
0.044387054 -0.00014111062 0.0023329789
0.044653643 0.00014111052 0.0023329784
0.044387054 0.00014111062 0.0017993622
0.044387054 -0.00014111047 0.0017993613
-0.045186821 -0.0012699995 -0.00073531887
-0.044786938 -0.00127 -0.00073531957
-0.043720581 -0.00127 -0.00033510604
-0.043720584 -0.00084666657 -0.00033510674
-0.044253755 -0.00084666652 -0.00033510698
-0.044298191 -0.00014111119 0.00015404215
-0.044253759 -0.0012699994 -0.00033510709
-0.037855625 -0.00084666634 -0.00033510628
-0.038255509 -0.0012699994 -0.00033510639
-0.035189737 0.0012700006 -0.0022027656
-0.034523264 -0.00014111149 -0.0051376596
-0.034523264 -0.00014111116 -0.0056712762
-0.034523264 0.00014111047 -0.0051376596
-0.034523264 0.00014111119 -0.0056712758
-0.034523264 0.00014111164 -0.0067385109
-0.034523264 0.00014111075 -0.0072721276
-0.034523264 -0.000141111 -0.0067385109
-0.034523264 0.00014111107 -0.0062048933
-0.034523264 -0.00014111162 -0.0062048938
-0.034256674 -0.00028222267 -0.0056712767
-0.034256674 -0.000282222 -0.0062048943
-0.034256674 -0.0002822229 -0.0067385104
-0.023859708 0.00014111139 -0.0078057447
-0.023859708 0.00014111066 -0.007272128
-0.024126297 0.00028222211 -0.0083393622
-0.022660058 0.0012699997 -0.0016691493
-0.023193236 0.0012700001 -0.002202766
-0.022260174 0.0012700006 -0.0022027662
-0.022660058 0.0012699999 -0.0022027658
-0.023193236 0.0012699994 -0.0016691486
-0.024259591 0.0012700004 -0.0022027665
-0.02186029 0.0012699994 -0.002202766
-0.020793935 0.0012700006 -0.0016691486
-0.020260759 0.0012699994 -0.001135532
-0.020260759 0.00127 -0.0016691487
-0.01972758 0.0012700006 -0.0022027662
-0.01972758 0.0012700005 -0.0016691493
-0.021460408 0.00014111154 -0.0090063829
-0.019167742 0.00019755523 -0.0083660427
-0.018794518 0.00014111049 -0.0087395757
-0.019061107 -0.00028222176 -0.0087395739
-0.042654227 0.0012699998 -0.0011355316
0.00026658934 -0.00028222214 -0.0022027667
-0.000933061 -0.00014111142 -0.0032700002
-0.00026658853 -0.00028222223 -0.0022027656
-0.00026658908 -0.00084666687 -0.0022027667
-0.0007997668 -0.0012699995 -0.0022027665
0.00093306095 0.00014111164 -0.004737447
0.00093306089 0.00014111117 -0.004470638
0.0002665887 -0.00084666652 -0.0022027656
-0.0009330606 -0.00014111174 -0.0038036169
-0.00093306083 -0.00014111066 -0.004337234
-0.001332945 -0.0002351852 -0.0042927666
-0.0013329443 -0.00014111097 -0.0038036166
-0.0013329443 0.00014111109 -0.0038036173
0.00093306135 0.00014111071 -0.0087395748
0.0012885132 0.00023518541 -0.0083393622
-0.0013329443 0.00014111075 -0.0090063829
-0.0012885132 -0.00014111135 -0.0090953195
-0.0012885127 -0.00023518584 -0.0087395757
-0.017328279 -0.00084666623 -0.00033510604
-0.017861458 -0.00084666698 -0.00033510686
-0.002665889 0.00127 -0.0022027656
-0.0026658897 0.0012700001 -0.0011355324
-0.0031990667 0.0012700001 -0.0016691484
-0.0026658894 0.0012699995 -0.0016691491
0.0013329439 0.0012699997 -0.0016691484
0.0018661226 0.0012700001 -0.0022027665
0.00079976628 0.0012700002 -0.0016691486
0.00079976616 0.0012700006 -0.0022027665
-0.001332944 0.00014111126 -0.0043372344
-0.0013329439 0.00014111107 -0.0047374475
-0.0037766758 0.00023518539 -0.0043372335
-0.0037322452 -0.00028222249 -0.0047374466
-0.0037766756 0.00023518523 -0.0047374475
0.0037512868 0.00026206358 -0.0083203036
0.003776677 -0.00023518465 -0.0078057447
0.0013329448 -0.00014111144 -0.0032699998
0.00026658826 0.00084666657 -0.0022027658
-0.00026658835 0.00084666733 -0.0022027667
0.00026658832 0.00028222264 -0.0022027662
-0.00026658832 0.00028222176 -0.0022027658
0.0065314281 0.00014111117 -0.0087395739
0.0087974342 -0.0012699994 -0.002202766
0.0088418648 -0.00023518517 -0.0038036169
0.0065314281 -0.0002822222 -0.0083393622
0.0093306117 -0.0012700004 -0.0022027658
0.0071979002 -0.0012700004 -0.002202766
0.0071979007 -0.00084666669 -0.0022027662
0.014262507 -0.0012700005 -0.0022027662
0.01466239 -0.0012700007 -0.0016691493
0.013862624 -0.00127 -0.0016691488
0.020793935 -0.0012700004 -0.0022027656
0.022260174 -0.0012700006 -0.0022027662
0.018261341 -0.0012699999 -0.0022027662
0.02186029 -0.0012700004 -0.0022027667
0.013995918 -0.00014111055 -0.0090063829
0.0088418657 -0.00023518498 -0.0087395739
0.0037766774 -0.00023518536 -0.007272128
0.0037766767 -0.00023518491 -0.0067385109
0.0013329451 -0.00014111146 -0.0083393622
-0.0065314285 -0.00014111056 -0.0090063829
-0.013907055 0.0002351857 -0.0083393622
-0.010663557 -0.0012700006 -0.0022027658
-0.0098637901 -0.0012700006 -0.0022027667
-0.0093306107 -0.0012700007 -0.0011355323
-0.010263673 -0.0012700005 -0.0011355315
-0.0077310777 -0.0012700004 -0.0016691484
-0.0093306117 -0.0012700005 -0.001669149
-0.0093306117 -0.0012700004 -0.002202766
-0.0098637901 -0.0012700001 -0.0016691494
-0.0042654234 0.0012699995 -0.0011355318
-0.015195568 -0.00028222226 -0.0022027656
-0.011330028 0.00023518485 -0.0072276592
-0.011330028 -0.00023518487 -0.0067829783
-0.011330029 -0.00028222156 -0.007272128
0.0047986009 -0.00028222223 -0.0022027667
-0.0071979011 -0.0012699995 -0.002202766
-0.0077310791 -0.0012699994 -0.0022027658
-0.0071979011 -0.0012699995 -0.0016691489
-0.012263091 -0.00084666704 -0.0022027667
-0.012796269 -0.00028222255 -0.0022027662
-0.012796269 -0.00084666727 -0.0022027662
-0.011596618 0.0001411109 -0.0062048943
-0.011596618 0.00014111125 -0.0056712767
-0.014262508 -0.00014111087 -0.0087395757
-0.013995918 0.00014111161 -0.0090063829
-0.013995918 -0.00014111097 -0.0090063829
-0.013907055 -0.00023518549 -0.0087395748
-0.016395219 0.00014111126 -0.0083393622
-0.0047986 0.00084666623 -0.0022027669
-0.0042654234 0.00084666611 -0.002202766
-0.003199067 -0.0012700001 -0.0016691488
0.014662391 0.00127 -0.0022027662
0.014262508 0.00014111091 -0.00327
0.014262507 0.0012700006 -0.0022027662
0.01466239 0.00084666698 -0.0022027665
0.016395219 0.00014111168 -0.004737447
0.016795103 0.0012700002 -0.0022027665
0.016795103 0.00084666663 -0.0022027656
0.015195568 0.0012699998 -0.0022027656
0.014262506 0.00014111176 -0.0038036169
0.016395219 -0.00014111062 -0.0087395739
0.039321866 -0.00028222287 -0.0051376601
0.044387054 0.00014111154 -0.0051376601
0.044653643 0.00014111082 -0.0051376601
0.036833704 0.00023518513 -0.0051376591
0.036789272 -0.00014111098 -0.0051376596
0.036833704 0.00023518458 -0.0056712762
-0.027192069 0.0012699998 -0.00033510593
-0.027192069 0.00127 -0.00073531922
0.044786938 0.0012699999 -0.0016691494
0.044786938 0.0012699998 -0.0011355324
-0.026658893 0.00014111162 0.00073212734
-0.021726998 0.00014111074 0.0017993613
-0.034523264 -0.00014111072 0.00073212804
-0.035189737 -0.00084666646 -0.00033510593
-0.035722915 -0.0012699999 -0.00033510593
-0.024259591 0.0012699998 -0.0011355326
-0.026259009 -0.0012699999 -0.00073531957
-0.026658893 -0.00127 -0.00073531934
-0.025325947 -0.0012700002 -0.00073531945
-0.025325947 -0.0012699999 -0.0011355317
-0.02479277 -0.0012700005 -0.0022027658
0.00093306135 0.000141111 -0.0078057451
0.0012885125 0.0002351851 -0.0072721276
0.0013329446 -0.00014111103 -0.0072721285
0.0013329448 -0.00014111152 -0.0078057451
0.003776677 0.00023518564 0.00073212734
0.0026658897 0.0012699995 -0.00033510616
0.0031990674 0.0012699995 -0.00033510651
0.0031990672 0.00084666617 -0.00033510639
0.0026658888 0.00028222203 -0.00033510674
0.0037322445 -0.0001411117 0.00073212711
0.0002665889 0.0012700001 -0.0011355322
0.00079976692 0.0012700005 -0.0011355318
0.00026658823 0.0012699994 -0.0007353198
0.00079976692 0.0012700004 -0.00033510698
0.00079976732 0.0012699994 -0.00073531875
0.0013329439 0.0012699998 -0.0011355323
-0.00026658867 0.00127 -0.001135532
-0.0002665892 0.0012699997 -0.0016691494
-0.00079976709 0.0012700006 -0.0022027656
-0.0022660054 0.0012700006 -0.00033510593
-0.0026658894 0.0012699995 -0.00073531864
-0.0031990665 0.0012700002 -0.00073531922
-0.0031990677 0.0012700002 -0.00033510593
0.0013329446 0.0012700005 -0.00033510709
-0.00093306106 -0.00014111132 0.0017993618
-0.0013329441 -0.0002351853 0.001754893
-0.00093306071 -0.00014111116 0.0021995744
0.0009330613 0.00014111167 0.0012657444
0.001332944 0.00014111112 0.001265744
0.001332944 0.00014111104 0.00073212734
0.0018661225 0.0012699998 -0.00033510674
0.0042654225 0.0012700001 -0.00033510639
0.0047986 0.00127 -0.00033510593
0.0047986 0.00084666733 -0.00033510651
0.004265422 0.00084666704 -0.00033510698
0.0013329444 0.0001411105 -0.0051376601
0.010263673 -0.0012699997 -0.0011355313
0.0053317775 -0.00084666733 -0.00033510698
0.005864956 -0.00084666675 -0.00033510593
0.0066647236 -0.0012700001 -0.001135532
0.0066647232 -0.0012699997 -0.00073531945
-0.024259591 -0.0012700004 -0.0016691486
-0.018794518 0.00014111109 -0.0083393622
-0.018794518 0.00014111138 -0.007272128
-0.016395219 0.00023518554 -0.0072276602
-0.015728746 -0.0012700005 -0.00033510639
-0.011330028 -0.00014111126 -0.004337234
-0.011330029 0.00014111066 -0.0038036169
-0.011330028 -0.00014111173 -0.0038036173
-0.014262507 -0.00014111128 -0.004737447
-0.016661808 -0.00023518583 -0.0032255324
-0.019194402 0.0001411108 -0.0051376596
-0.019194402 -0.00014111162 -0.004737447
-0.019149972 -0.00023518535 -0.0051376591
-0.019194402 0.00014111061 -0.0032700007
-0.01972758 0.00084666733 -0.0022027658
-0.016661808 -0.00014111072 -0.0038036176
-0.016395219 -0.00014111091 -0.0038036178
0.045320116 -0.0008466664 -0.0016691491
0.044653643 -0.0012699998 -0.00033510663
0.033856794 0.0012699997 -0.0022027662
0.033323616 0.0012700005 -0.0016691489
0.033323616 0.0012700002 -0.002202766
0.034256674 0.00127 -0.0022027665
0.034523264 0.00014111116 -0.0087395739
0.034256674 0.00014111123 -0.0056712772
0.034523264 0.0001411108 -0.0056712767
0.039321866 0.00014111047 0.0017993618
0.039321866 -0.00023518494 0.002288511
0.039321866 0.00014111141 0.0023329784
0.038255509 0.0012700001 -0.0016691491
0.037855625 0.0012700002 -0.0022027658
0.038255509 0.0012699995 -0.0022027667
0.036833707 0.00023518558 0.00073212781
0.036789272 -0.00014111136 0.00073212781
0.036815934 0.00019755517 0.0012924257
0.032790437 -0.00028222275 -0.0022027662
0.034256674 0.00014111148 -0.0038036169
0.034256674 0.00014111059 -0.004337234
0.034256674 -0.00014111052 -0.0038036178
0.034523264 0.00014111125 -0.004337234
0.0062648389 -0.00023518545 0.002288511
0.0065314281 -0.00023518485 0.002288511
0.0062648398 0.00014111146 0.002733191
0.006531429 -0.000282222 0.00073212758
0.006531429 -0.00028222258 0.0012657444
0.006531429 0.00014111173 0.00073212781
0.011330029 0.00014111077 -0.0043372344
0.011596618 0.00014111045 -0.0043372344
0.011596618 0.00014111094 -0.004737447
0.013889283 -0.00019755564 -0.0032966803
0.01466239 -0.0012699994 -0.002202766
0.013907054 -0.00023518543 -0.004337234
0.013862624 -0.00014111069 -0.0038036173
0.014262507 0.00014111164 -0.0051376596
0.013907055 -0.00023518562 -0.0051376601
0.018794518 0.00014111077 -0.0055378722
0.01914997 0.00014111075 -0.0083838291
0.018661223 0.0012700004 -0.0011355324
0.017861458 0.0012700005 -0.00033510628
0.018261341 0.0012700004 -0.0022027656
0.017861458 0.0012700005 -0.0022027665
0.019061107 0.00014111052 -0.007272128
0.019061107 0.00014111098 -0.004737447
0.021460408 0.00014111061 -0.0078057442
0.020260759 0.00028222223 -0.0022027665
0.024126297 0.00028222182 -0.0062048943
0.02421516 0.00023518491 -0.0056712758
0.02421516 0.00023518574 -0.004337234
0.024126297 -0.00014111165 -0.0038036173
0.023726411 0.00084666692 -0.0022027656
0.023859708 0.00014111074 -0.0067385109
0.02421516 0.00023518568 -0.0067385104
0.024126297 -0.00014111128 -0.007272128
0.020260759 0.0012699999 -0.0011355316
0.019061107 0.00014111088 0.002332978
0.019194402 0.0012700001 -0.00033510709
0.019194402 0.0012699995 -0.0007353198
0.026259009 0.0012700005 -0.00033510616
0.025859125 0.0012700001 -0.0007353198
0.025325947 0.0012700001 -0.00033510604
0.025859125 0.0012699995 -0.00033510628
0.025859127 0.00084666657 -0.00033510604
0.025325947 0.00084666733 -0.00033510698
0.024192944 0.00021166625 0.0022662762
0.022660058 0.0012699998 -0.00073531934
0.022660058 0.0012699999 -0.00033510604
0.023193236 0.0012700005 -0.00073531945
0.022260174 0.0012699995 -0.00073531899
0.023726413 0.0012700005 -0.0016691496
0.024259591 0.0012700002 -0.002202766
0.02479277 0.0012700004 -0.0016691486
0.02479277 0.0012700001 -0.002202766
0.025325947 0.0012700007 -0.0022027656
0.044387054 0.00014111122 0.002332978
0.044786938 0.00127 -0.00033510593
0.044387054 0.00014111104 0.00073212758
-0.018794518 0.00014111068 -0.0038036178
-0.019194402 0.00014111113 -0.0043372344
-0.019194402 0.00014111106 -0.0038036169
-0.019194402 0.0012699993 -0.002202766
-0.019194402 0.0012700002 -0.0016691494
-0.011330029 0.00028222252 -0.0083393622
-0.013907054 0.00023518584 -0.0087395757
-0.0093306117 0.0012699995 -0.001135532
-0.0087974342 0.0012699995 -0.0011355316
-0.0082642576 0.00127 -0.00073531969
-0.0066647236 0.0012700005 -0.0016691496
-0.024179615 0.0002540006 -0.0062315753
-0.023859708 0.00014111167 -0.0062048933
-0.024126297 0.00028222226 -0.0056712762
-0.026658893 0.00014111094 0.0023329789
-0.026632234 -0.00019755549 0.0023062974
-0.026792185 0.00014111097 0.002733191
-0.026658891 0.00014111055 0.0017993613
-0.027725248 0.0012700002 -0.0016691487
-0.028791603 0.0012700006 -0.0022027667
-0.027192069 0.0012700004 -0.002202766
-0.028258424 0.0012699997 -0.0022027662
-0.027725248 0.0012699995 -0.0022027658
-0.027192069 0.0012699995 -0.001135532
-0.027725248 0.0012699995 -0.0011355316
-0.027192069 0.0012699999 -0.0016691495
-0.025859125 0.00127 -0.00033510674
-0.026259009 0.0012699993 -0.00033510686
-0.022660058 0.0012699998 -0.00033510663
-0.021860292 0.0012699998 -0.00033510639
-0.022260174 0.0012699995 -0.00073531969
-0.023193235 0.00089370384 -0.00037957507
-0.022660056 0.00089370337 -0.00037957437
-0.023193236 0.0012699995 -0.00033510674
-0.017861458 0.0012700001 -0.0007353198
-0.018261341 0.0012699995 -0.0011355315
0.0082642557 0.0012699999 -0.0016691495
0.0077310777 0.0012700004 -0.0022027667
0.0082642566 0.0012699994 -0.0022027656
0.0077310782 0.0012699994 -0.0016691484
0.0088418657 0.00023518548 -0.0078057447
0.014262507 0.0012699998 -0.0016691494
0.013862624 0.0012700002 -0.0016691496
0.013862623 0.0012700002 -0.0022027658
0.013329445 0.0012699997 -0.0011355323
0.012796268 0.0012700001 -0.0011355327
0.013329446 0.0012699999 -0.0016691495
0.012796268 0.0012699999 -0.0022027662
0.012796268 0.00084666722 -0.0022027662
0.013329446 0.0012699995 -0.0022027665
0.013889283 0.00019755505 -0.0051643411
0.0062648393 0.00028222243 -0.0062048933
0.0037589038 -0.0001975562 -0.0061782124
0.0037322449 0.00028222226 -0.0072721266
0.022660058 0.00127 -0.0011355325
0.023193236 0.0012699998 -0.001669149
0.021860292 0.00127 -0.0016691484
0.020793935 0.0012700005 -0.0011355325
-0.0088418657 0.00023518532 -0.0062048938
-0.0088418648 0.00023518558 -0.0067385104
-0.0088418657 -0.00023518453 -0.0062048938
-0.0088418666 0.00023518577 -0.0047374475
-0.0088418657 0.00023518482 -0.004337234
-0.0088418657 -0.00023518475 -0.004737447
0.0065314285 0.00014111096 -0.007272128
-0.0018661228 0.0012700005 -0.0022027662
-0.0022660061 0.0012700001 -0.0022027656
-0.0031990674 0.0012700001 -0.0022027665
-0.0026658888 -0.00028222226 -0.0022027658
-0.0022660063 -0.00028222214 -0.002202766
-0.0037766763 0.00023518481 -0.0062048943
-0.0037766765 0.0002351857 -0.0078057447
0.035722915 0.00028222191 -0.00033510593
0.042254344 0.0012700006 -0.00033510709
0.041854456 0.0012700002 -0.00033510674
0.041321281 0.0012700007 -0.00073531934
0.041321281 0.0012700005 -0.00033510686
0.044786938 0.0012700005 -0.00073531875
0.044253759 0.00127 -0.00073531945
0.043187402 0.0012700001 -0.0016691487
0.040788103 0.0012699994 -0.0022027658
0.039588455 0.0001411116 -0.0078057451
0.039588455 -0.00014111068 -0.0078057447
0.036833704 0.00023518564 -0.0078057447
0.039588455 -0.00014111133 -0.007272128
0.039321866 0.00014111062 -0.0067385104
0.039588455 0.00014111088 -0.0062048943
0.039588455 -0.00014111151 -0.0083393622
0.03972175 0.0012700001 -0.00073531957
0.040254928 0.0012700001 -0.00073531969
0.03972175 0.0012700005 -0.00033510593
0.03172408 0.0012700006 -0.0022027658
0.032257259 0.0012700002 -0.0022027662
0.031190902 0.0012700002 -0.0022027665
0.03172408 0.00014111077 -0.0032700007
0.031190902 0.00084666634 -0.0022027665
0.03972175 0.0012700007 -0.001669149
0.040254924 0.0012700001 -0.0016691486
0.038655389 0.00084666628 -0.002202766
0.038655393 0.0012700001 -0.0016691486
0.040788103 0.00127 -0.00073531934
-0.013329444 -0.00084666716 -0.0022027662
0.00079976692 -0.0012700002 -0.00073531992
-0.0018661221 -0.0012700001 -0.0022027662
-0.00079976622 -0.0012700007 -0.0011355317
0.0042654225 0.0012700002 -0.0022027656
0.0047986005 0.0012699998 -0.0016691495
0.0037322449 0.0012700001 -0.00033510604
0.010263673 0.0012700005 -0.0016691496
0.010663556 0.0012700002 -0.0011355324
0.0098637901 0.0012700004 -0.0011355325
0.010263673 0.0012699997 -0.0011355319
-0.005331778 0.0012699997 -0.0016691489
-0.0031990663 -0.0012700006 -0.00033510674
-0.014262507 -0.0012699999 -0.00033510616
-0.0093306117 -0.0012700006 -0.00073531957
-0.0098637901 -0.0012700002 -0.00073531992
-0.0098637911 -0.0012700002 -0.0011355318
-0.010263674 -0.0012700004 -0.0016691489
-0.010263673 -0.0012699997 -0.002202766
-0.012796268 0.00028222156 -0.0022027658
-0.012263091 0.00028222203 -0.002202766
-0.011596618 0.00014111162 -0.0032699998
-0.0087974342 -0.00014111167 0.00073212804
-0.0062648398 0.0012699995 -0.0007353191
-0.0071979002 0.0012700002 -0.0007353191
-0.01466239 -0.00084666722 -0.00033510581
-0.015195568 -0.00084666727 -0.00033510686
-0.014262508 -0.00014111084 0.00073212758
-0.012796267 0.0012700002 -0.00073531864
-0.012796268 0.0012699998 -0.00033510604
-0.01226309 0.0012699995 -0.00033510593
-0.01226309 0.0012699994 -0.00073531875
-0.013329445 0.0012699999 -0.00033510674
-0.013329446 0.0012700004 -0.0016691489
-0.014262507 0.0012700007 -0.00073531899
-0.013862624 0.0012700001 -0.00033510674
-0.014262507 0.0012700005 -0.00033510698
-0.011196735 0.0012699998 -0.00033510639
-0.018661223 0.0012699994 -0.00033510663
-0.021327114 0.0012699999 -0.00033510651
-0.0088240923 -0.00019755545 0.0023062984
-0.0087974342 -0.00014111178 0.0017993608
-0.0091973189 -0.00014111075 0.0019327658
-0.0062648398 -0.00023518522 0.0022885101
-0.0088240933 0.00019755495 0.001772681
0.03172408 -0.0012700004 -0.0011355324
0.03172408 -0.0012700006 -0.0022027658
0.03172408 -0.0012700002 -0.00033510639
0.028791603 0.0012700006 -0.0022027656
0.029324781 0.0012699999 -0.0022027656
0.029324781 0.00014111084 -0.0032700007
0.028791603 0.00084666722 -0.0022027658
0.028924897 0.00014111109 -0.0026029781
0.028258426 -0.00084666652 -0.00033510593
0.027725248 -0.0012700004 -0.00033510628
0.028258424 -0.0012700006 -0.00033510698
0.028924897 -0.00014111068 0.00073212734
0.028258426 -0.0002822222 -0.00033510628
0.028791603 -0.00084666617 -0.00033510604
0.026658893 0.00014111098 0.0012657444
0.026658893 0.0012700005 -0.00033510593
0.032790437 -0.0012700002 -0.00073531969
0.028791603 -0.0012699999 -0.00033510686
0.026658893 -0.00014111093 0.0023329784
0.026658893 0.00014111062 0.0023329789
-0.019167742 0.00019755538 0.00070544728
-0.0062648398 0.00014111065 0.0023329789
-0.006531429 -0.0002351853 0.0017548939
-0.0065314285 -0.00028222159 0.0012657444
-0.0065314285 0.00014111069 0.0012657442
-0.0062648389 0.00028222197 0.0012657442
-0.0065314281 0.00014111155 0.00073212758
-0.0066647236 0.0012699997 -0.00033510593
-0.0098637901 0.00089370436 -0.00037957402
-0.0093306107 0.00089370349 -0.00037957414
0.028791603 -0.0012700006 -0.00073531945
0.029324781 -0.0012700004 -0.00033510651
0.030257842 -0.0012700006 -0.0011355326
0.027192069 -0.00127 -0.00073531945
0.024126297 -0.00014111174 -0.0083393622
0.026658893 0.00014111062 -0.0083393622
0.026703322 -0.00023518501 -0.0083393622
0.024126297 -0.00028222211 -0.0051376601
0.023859708 -0.00014111112 -0.004737447
0.024126297 -0.00028222232 -0.0047374466
0.023726413 -0.0012700006 -0.0016691489
0.025325947 -0.0012700006 -0.00073531875
0.025859125 -0.0012700006 -0.0022027658
0.026259009 -0.0012699997 -0.002202766
0.025859125 -0.00028222223 -0.0022027656
0.038255509 -0.0012700006 -0.00073531922
0.036789272 -0.0012700006 -0.00033510616
0.037322447 -0.0012700006 -0.0016691493
0.038655393 -0.0012700006 -0.00033510651
0.036789272 -0.0012700005 -0.0011355323
0.044253759 -0.0012700001 -0.0011355316
0.041321281 -0.0012700005 -0.0016691494
0.039321866 -0.00028222176 0.0017993618
0.039321866 0.00014111072 0.0012657454
0.03972175 -0.0012700002 -0.00033510674
0.039588455 -0.00014111122 0.00073212781
0.040254928 -0.0012700002 -0.00033510639
0.03972175 -0.00084666733 -0.00033510604
0.040254932 -0.0008466671 -0.00033510593
0.039588455 -0.00014111088 0.0012657444
0.039588455 0.000141111 0.0012657447
0.039588455 -0.00014111123 0.0017993611
0.041321285 0.00084666687 -0.00033510604
0.023193236 0.00028222278 -0.002202766
0.023859708 -0.0001411116 -0.0032699998
0.025859125 -0.00127 -0.00033510698
0.01133003 0.00014111161 -0.0056712767
0.0062648389 0.00028222226 -0.0051376601
0.0062648389 -0.00028222159 -0.0047374475
0.013889282 0.00019755524 -0.0061782124
0.013889282 -0.00019755523 -0.0062315753
0.013907055 -0.00023518532 -0.0056712758
0.013907055 -0.00023518494 -0.0067385118
0.011196733 0.0012700004 -0.0022027656
0.011596618 0.00014111152 -0.0032700002
0.011330028 0.00014111113 -0.0032700002
0.011729914 0.0012699997 -0.0022027658
0.010663558 -0.00084666652 -0.0022027662
0.010263674 0.00028222185 -0.002202766
0.010263673 0.0008466671 -0.0022027667
0.0098637901 0.00028222179 -0.0022027665
0.0098637892 -0.00028222185 -0.002202766
0.01226309 -0.00127 -0.0016691484
0.012796268 -0.0012699995 -0.002202766
0.011196734 -0.00127 -0.0016691489
0.015195567 0.00084666652 -0.0022027658
0.024126297 -0.00014111133 0.0023329784
0.02421516 0.00023518487 0.0017993622
0.022660058 0.0008466671 -0.0022027656
0.022660058 0.00028222235 -0.0022027656
0.022260174 0.00084666634 -0.002202766
0.021726998 0.00014111097 -0.00327
0.01972758 -0.0012700001 -0.0016691489
0.01972758 -0.0012700002 -0.001135532
0.019194402 -0.0012699997 -0.0011355318
0.018661223 -0.0012699998 -0.00073531864
0.018661223 -0.0012699998 -0.0011355325
0.018261341 -0.0012699999 -0.00073531969
0.018661223 -0.0012700001 -0.00033510698
-0.011596618 -0.00014111174 -0.0078057442
-0.011596619 -0.00014111069 -0.007272128
0.016661808 0.00014111144 -0.0051376596
0.021460408 0.00014111129 -0.0038036169
0.021460408 0.00014111058 -0.004337234
0.021726998 0.00014111084 -0.0043372344
0.021460408 0.00014111162 -0.004737447
0.023859708 -0.00014111177 -0.0068719154
0.024126297 -0.00023518562 -0.0067829783
0.019194402 -0.0012700001 -0.00073531899
0.017861458 -0.00028222206 -0.00033510593
0.020793935 -0.00127 -0.00073531957
0.018794518 0.00014111122 0.0017993622
0.018794518 0.00014111145 0.0012657449
0.016395219 -0.00014111162 -0.0083393622
0.016395219 -0.00014111158 -0.0072721276
0.019149968 -0.00023518488 -0.0072721285
0.016395219 -0.00014111066 0.002332978
0.016395219 -0.00014111144 0.0017993618
-0.039321866 -0.00014111059 0.0012657447
-0.021460408 -0.00014111059 -0.0087395748
-0.018261341 -0.0012699995 -0.002202766
-0.017861458 -0.0012699998 -0.0022027667
-0.018794518 -0.00014111094 -0.0032700005
-0.017861458 -0.0012700002 -0.0016691494
-0.018261341 -0.00127 -0.0011355318
-0.017861458 -0.0012699998 -0.0011355317
-0.018261341 -0.0008466671 -0.00033510639
-0.018261341 -0.0012699998 -0.00073531864
-0.017861458 -0.00028222267 -0.00033510698
-0.017328279 -0.00028222159 -0.00033510674
-0.017328279 -0.0012700006 -0.00073531899
-0.017328279 -0.0012700004 -0.002202766
-0.017328279 -0.00084666623 -0.002202766
-0.026259009 -0.0012700006 -0.0022027658
-0.028258424 -0.0012699995 -0.00033510616
-0.02772525 -0.00084666646 -0.00033510616
-0.027192069 -0.0012699997 -0.00033510663
-0.027725248 -0.00127 -0.00073531864
-0.030657725 -0.0012700006 -0.0016691491
-0.034256674 -0.00023518567 -0.0032255319
-0.034523264 -0.00014111114 -0.0032700002
-0.034523264 -0.00014111158 -0.0038036178
-0.034656562 -0.00084666722 -0.0022027656
-0.034523264 0.00014111123 -0.0038036169
-0.034256674 -0.00014111109 -0.0038036178
-0.040788103 -0.0012699999 -0.00073531899
-0.041321285 -0.00084666617 -0.00033510686
-0.032790437 -0.0012699997 -0.00033510616
-0.033323616 -0.0012699995 -0.00033510604
-0.033856794 -0.0012699994 -0.00033510616
0.040254928 -0.0012700006 -0.00073531875
0.040788103 -0.0012700001 -0.00073531887
0.043720581 -0.0012700002 -0.0011355323
-0.036789272 0.0012700004 -0.0007353198
-0.037855625 0.0012700006 -0.0007353191
-0.037322447 0.0012700005 -0.00033510639
-0.036789272 -0.00014111098 0.0017993613
-0.036789272 0.00014111078 0.0012657449
-0.036789272 -0.00014111098 0.0012657447
-0.03972175 -0.0012699994 -0.00033510616
-0.036256094 0.00089370372 -0.00037957402
0.044653643 -0.00014111062 -0.0083393622
0.044387054 -0.00014111168 -0.007272128
0.044387054 0.00014111074 -0.007272128
0.044387054 -0.00014111087 -0.0078057442
0.044387054 -0.00014111097 -0.0067385104
0.044653643 -0.00014111174 -0.0067385114
0.044653643 0.00014111068 -0.0067385109
0.044653643 -0.00014111052 -0.0072721276
0.044653643 0.00014111075 -0.0062048943
-0.044387054 0.00014111158 -0.0083393622
-0.044253759 -0.0001411105 -0.0083393622
-0.044253759 0.0012700007 -0.0022027665
-0.044253759 0.00127 -0.0016691491
-0.044387054 0.00014111155 -0.0032700007
-0.044253759 0.00084666692 -0.0022027658
-0.011330029 -0.00014111087 -0.0090063829
-0.0066647232 0.0012699994 -0.0022027662
-0.011330028 0.00014111064 -0.0090063829
-0.0087974332 -0.00127 -0.0016691491
-0.0087974332 -0.0012699994 -0.0011355326
-0.0082642566 -0.0012699997 -0.0011355327
-0.0088418648 0.00023518555 -0.0051376596
-0.0062648389 -0.00028222174 -0.0072721271
-0.0065314281 -0.00028222249 -0.0072721276
-0.006531429 -0.00023518452 -0.0057157446
-0.0065314285 -0.00028222159 -0.0047374466
-0.0062648398 -0.00028222284 -0.0056712772
-0.0037766772 -0.00023518557 -0.0038036169
-0.0037322449 -0.00028222243 -0.0056712767
-0.0037322454 -0.00028222194 -0.0051376591
-0.0037766767 0.00023518529 -0.0056712767
-0.0013329441 -0.00028222197 -0.004737447
-0.00093306071 -0.00014111053 -0.0062048938
-0.0009330613 -0.00014111078 -0.0067385109
0.0013329439 -0.00014111161 -0.0056712767
-0.0031990665 -0.00084666739 -0.0022027665
-0.029191487 0.00014111059 -0.0090063829
-0.029191487 -0.00014111068 -0.0090063829
-0.029324781 -0.00014111158 -0.0087395757
-0.023859708 -0.00014111082 -0.0087395739
-0.024126297 0.00014111171 -0.0090063829
-0.024126297 -0.00014111161 -0.0090063829
-0.024126297 -0.00028222267 -0.0087395748
-0.023859708 0.00014111123 -0.0087395739
-0.019167742 -0.00019755542 -0.006711829
-0.021726998 -0.00014111149 -0.0056712767
-0.021460408 -0.00023518538 -0.006160425
-0.021460408 -0.00014111165 -0.0067385109
-0.023859708 -0.00014111101 -0.007272128
-0.023859708 -0.00014111094 -0.0067385114
-0.024126297 0.00023518545 -0.0077612768
-0.02421516 -0.00023518462 -0.0078057451
-0.021460408 -0.00028222252 -0.0083393622
0.0088418657 -0.00023518478 -0.0051376596
0.0088418657 -0.00023518506 -0.0056712767
0.021460408 -0.0001411105 -0.0078057442
0.023859708 0.0001411112 -0.0087395739
0.021726998 -0.00014111056 -0.0087395739
0.021726998 -0.00014111168 -0.0083393622
0.021726998 0.00014111084 -0.0083393622
0.021860292 -0.0012699999 -0.00033510698
0.0077310787 -0.0012700004 -0.0016691491
0.0077310787 -0.00084666657 -0.0022027656
0.011330029 0.00014111174 -0.0038036169
0.010663556 0.0012700005 -0.0022027658
0.0042654229 -0.00084666652 -0.0022027665
0.0047986009 -0.00084666663 -0.0022027667
0.0053317784 -0.00028222252 -0.0022027658
0.005864956 -0.0012700004 -0.0016691496
0.0062648389 -0.00127 -0.0016691491
0.0031990667 -0.00084666646 -0.0022027662
0.0037322447 -0.00127 -0.0016691493
0.0037322447 -0.0012700004 -0.0011355315
0.0031990672 -0.0012699994 -0.0011355319
0.0088418657 -0.00023518482 -0.0067385109
0.016395219 -0.00014111081 -0.004737447
0.016661808 -0.00014111174 -0.0043372344
0.016395219 -0.00014111117 -0.0043372344
0.016661808 0.00014111078 -0.004337234
0.016395219 -0.00014111098 -0.0038036173
0.015195567 -0.00028222159 -0.0022027656
0.014262507 -0.00014111173 -0.0026029793
0.0087974342 -0.0012700004 -0.0011355313
0.0082642576 -0.0012699998 -0.00033510698
0.0093306117 -0.0012699999 -0.00033510674
0.013329446 -0.0012699998 -0.0011355318
0.013862624 -0.0012700007 -0.00033510674
0.01226309 -0.0012700005 -0.00033510663
0.015195568 -0.0012699997 -0.001135532
0.01466239 -0.0012699998 -0.0011355317
0.015195568 -0.0012699998 -0.0016691491
0.014262507 -0.00127 -0.0016691489
0.011596617 0.00014111132 -0.0083393622
0.011596617 0.00014111126 -0.0087395748
0.011330029 0.0001411112 -0.0083393622
0.011596617 -0.00014111098 -0.0087395748
0.011330029 -0.00014111082 -0.0083393622
0.036789272 -0.00014111085 -0.0062048938
0.036833704 0.00023518578 -0.0062048938
0.029191487 -0.00028222171 -0.0083393622
0.029324781 0.00014111084 -0.0078057442
0.03172408 -0.00014111082 -0.007272128
0.03172408 0.0001411108 -0.0067385104
0.03172408 -0.00014111126 -0.0067385109
0.029191487 -0.00028222174 -0.0078057447
0.029324781 0.00014111084 -0.0072721285
0.029191487 -0.00028222246 -0.007272128
0.026703322 -0.0002351851 -0.0067385104
0.026658893 0.00014111148 -0.0067385109
0.026685551 -0.0001975557 -0.0062315753
0.032257259 0.00084666687 -0.0022027667
0.032790437 0.0012699995 -0.002202766
0.021460408 0.00014111101 -0.0067385109
0.021726998 -0.00014111103 -0.0067385109
0.023859708 0.00014111078 -0.004737447
0.023859708 -0.00014111138 -0.0043372344
0.044387054 -0.00014111125 -0.0051376591
0.044653643 -0.00014111064 -0.0056712767
0.042654227 -0.00084666692 -0.002202766
0.044387054 0.00014111065 -0.0032699995
0.044253755 0.00084666733 -0.002202766
0.044653643 -0.00014111168 -0.0038036169
0.044653643 0.00014111091 -0.0043372344
0.044653643 -0.00014111084 -0.0043372335
0.039588455 -0.00014111173 -0.004737447
0.039588455 0.00014111093 -0.0032699998
0.042254344 -0.0012699997 -0.0011355323
0.042654227 -0.0012699998 -0.00073531969
0.041898891 0.00023518546 -0.0027363834
0.041854456 0.00014111142 -0.00327
0.042654227 0.00028222267 -0.0022027665
0.040788103 0.00084666617 -0.0022027662
0.03972175 -0.00127 -0.0007353191
0.037322447 0.0012700004 -0.0016691496
0.037322447 0.0012700005 -0.0022027667
0.036256094 0.0012700005 -0.0022027667
0.036789272 0.0012699999 -0.002202766
-0.040254924 0.0012699995 -0.0022027665
-0.040254928 0.0012699994 -0.0016691491
-0.034523264 0.00014111178 0.0017993618
-0.034256674 0.00014111167 0.00073212734
-0.033856794 0.0012699995 -0.00073531922
-0.034656558 0.0012699995 -0.0011355325
-0.034656558 -0.0012699999 -0.00033510674
-0.034256674 -0.00127 -0.00073531922
-0.034656558 -0.0012699994 -0.00073531957
-0.035722915 -0.00023518466 -0.00037957495
-0.035722915 -0.00084666611 -0.00033510639
-0.034256674 -0.00023518498 0.00077659567
-0.033990085 -0.00014111056 6.5105734e-05
-0.032790437 0.0008937043 -0.00037957495
-0.032257255 0.00089370424 -0.00037957472
-0.032790437 -0.00084666675 -0.00033510581
-0.032257263 -0.00084666698 -0.00033510628
0.040788103 -0.0012699993 -0.00033510581
0.041854456 -0.0012699999 -0.00033510663
0.041321281 -0.0012699999 -0.00073531922
-0.041854456 -0.0012699995 -0.001135532
-0.040254928 0.0012700006 -0.00033510698
-0.03972175 0.0012700006 -0.00033510604
-0.039188571 0.0012700002 -0.00033510616
-0.039188571 0.0012700002 -0.00073531875
-0.03972175 0.0012699999 -0.00073531945
-0.03972175 0.00084666716 -0.00033510628
-0.040254928 0.00084666716 -0.00033510686
-0.040788103 0.00084666663 -0.00033510593
-0.041881122 -0.00019755552 0.00075880764
-0.040254928 -0.0012700006 -0.0016691484
-0.040254928 -0.0012699999 -0.002202766
-0.03972175 -0.0012700006 -0.0022027658
-0.03972175 -0.0012699999 -0.0016691493
-0.040788103 -0.0012700002 -0.0022027662
-0.040788103 -0.0012700001 -0.0016691494
-0.043187406 0.0012700004 -0.0022027656
-0.043187406 0.0012699998 -0.0016691496
-0.042254344 0.0012700006 -0.0011355323
-0.044387054 0.00014111085 0.00073212734
-0.044786941 0.00084666692 -0.00033510639
-0.044253759 0.0012700004 -0.0011355325
-0.035189737 0.00028222185 -0.002202766
-0.039188571 -0.0012699993 -0.0016691489
-0.039188571 -0.0012699994 -0.0022027658
-0.036789272 0.00014111107 -0.0032700002
-0.03925522 0.00021166609 -0.0032700007
-0.037855621 0.0008466671 -0.0022027658
-0.037855625 0.00028222293 -0.0022027662
-0.037322447 -0.00127 -0.0007353191
-0.037855625 -0.0012699998 -0.0011355319
-0.044786941 0.00084666722 -0.002202766
-0.043720581 0.00084666739 -0.0022027658
-0.044653643 -0.00014111157 -0.0078057447
-0.044253759 -0.00014111081 -0.0078057447
-0.04572 -0.00070555561 -0.002202766
-0.044387054 -0.00014111167 -0.0038036178
-0.037855625 0.00127 -0.0022027665
-0.037322447 0.0012700001 -0.0022027667
-0.038255509 0.0012700005 -0.0016691484
-0.038255509 0.0012700001 -0.002202766
-0.037855625 0.0012699995 -0.001669149
-0.034256674 0.00023518574 -0.0067829783
-0.036789272 0.00127 -0.0022027656
-0.03172408 -0.00014111138 -0.0087395739
-0.03172408 0.00014111046 -0.0090063829
-0.03172408 -0.00014111114 -0.0090063829
-0.044387054 -0.00014111133 0.0023329784
0.044653643 -0.00014111142 0.001799362
-0.043187402 -0.00084666646 -0.00033510616
-0.043187402 -0.0012699995 -0.00033510709
-0.042654227 -0.00127 -0.00033510628
-0.042254344 -0.0012699995 -0.00033510628
-0.042654227 -0.0012700001 -0.00073531957
-0.042254344 -0.00084666611 -0.00033510663
-0.045186821 -0.00127 -0.00033510616
-0.038255509 0.0012700004 -0.00073531875
-0.038255509 0.0012699995 -0.001135532
-0.037855625 0.0012699995 -0.0011355323
-0.036789272 0.00014111151 0.00073212758
-0.038655393 -0.0012700004 -0.001135532
-0.038655393 -0.0012699994 -0.00073531945
-0.034256674 0.0012700006 -0.0016691493
-0.034256674 0.0012699999 -0.0022027662
-0.033856794 0.0012700002 -0.0022027658
-0.034256674 0.0012699999 -0.0011355323
-0.028924897 0.00014111045 -0.0032700007
-0.02421516 -0.00023518477 -0.0056712758
-0.02421516 -0.00023518511 -0.0062048938
-0.034256674 0.00014111078 -0.0051376596
-0.021726998 0.00014111168 -0.0056712762
-0.021726998 -0.00014111135 -0.0051376601
-0.021460408 0.00014111173 -0.0051376605
-0.021726998 0.00014111077 -0.0051376596
-0.021460408 0.00014111049 -0.0056712772
-0.023726413 0.0012700004 -0.0022027662
-0.02479277 0.0012700001 -0.002202766
-0.025325947 0.0012699995 -0.002202766
-0.023726413 0.0012700006 -0.00073531875
-0.023726413 0.0012699994 -0.0011355324
-0.021460408 0.0001411108 -0.0062048933
-0.020793935 0.0012700001 -0.0011355315
-0.021327114 0.0012700006 -0.002202766
-0.034256674 0.00014111104 -0.007272128
-0.03172408 0.00014111088 -0.0087395748
-0.03172408 -0.00014111135 -0.0083393622
-0.03172408 0.00014111138 -0.0083393622
-0.03172408 0.00014111161 -0.0078057442
-0.033856794 0.0012699997 -0.0016691493
-0.032790437 0.0012699997 -0.00073531887
-0.020260759 0.0012700005 -0.002202766
-0.020793935 0.0012700005 -0.0022027658
-0.011596618 -0.00014111101 -0.0032700007
-0.012263091 -0.00028222197 -0.0022027665
-0.01226309 -0.0012700001 -0.0022027665
-0.011729914 -0.00084666727 -0.0022027656
-0.011729912 -0.0012699995 -0.0022027656
-0.011330028 -0.00028222258 -0.0027363831
-0.011596617 -0.00014111072 -0.0038036166
-0.011196733 -0.0012700006 -0.0022027662
-0.0013329447 0.00014111059 -0.0051376601
-0.00093306182 -0.00014111082 -0.0051376601
-0.0013773759 0.00023518526 -0.0056712758
-0.00093306118 -0.00014111046 -0.0056712762
-0.0013329447 0.00014111177 -0.0032700002
-0.00079976744 0.00084666733 -0.002202766
-0.0013519861 0.00026206413 -0.0027173255
-0.00026658943 0.0012699997 -0.0022027665
-0.0013329451 -0.00014111052 -0.0032700005
-0.0026658883 0.00028222206 -0.0022027665
-0.0013329446 0.00014111064 -0.0087395748
-0.0013329439 -0.00023518463 -0.0083838291
0.0037766763 -0.00023518485 -0.0087395748
-0.017328279 0.00084666704 -0.0022027669
-0.017861458 0.00028222273 -0.0022027656
-0.017861458 0.0008466671 -0.002202766
-0.016661808 0.00014111071 -0.0032699998
-0.017861458 0.0012699994 -0.0022027658
-0.016395219 -0.00014111091 -0.0032699993
-0.015728746 -0.0012699993 -0.002202766
-0.015728746 -0.00084666733 -0.0022027665
-0.017861458 -0.00028222208 -0.0022027658
-0.0018661219 0.0012700002 -0.0016691487
-0.0022660054 0.0012699995 -0.0016691491
0.00026658861 -0.00084666628 -0.00033510651
0.00079976686 -0.00084666617 -0.00033510616
0.00079976721 -0.0012700006 -0.00033510686
-0.00026658899 -0.00084666652 -0.00033510686
-0.00079976709 0.0012700001 -0.0016691491
0.0013329447 0.0012699994 -0.0022027662
0.0013139022 0.0002620632 -0.002717325
0.00026658949 0.0012699997 -0.0022027658
0.0037322445 0.0012700005 -0.0022027656
0.00079976686 0.00084666716 -0.0022027662
0.0022660061 -0.0012699995 -0.0022027656
0.0018661224 -0.00084666722 -0.002202766
0.0013329446 0.00014111103 -0.0043372344
0.0013329448 -0.00014111061 -0.0038036164
0.0013329445 0.00014111142 -0.0038036178
0.0022660065 0.00084666617 -0.0022027658
0.0018661226 0.00084666722 -0.0022027656
0.0022660054 0.0012700004 -0.0022027665
0.0065314285 -0.00028222278 -0.0078057447
0.013862625 -0.0012699999 -0.0022027665
0.020260759 -0.0012699994 -0.002202766
0.018661223 -0.00084666722 -0.002202766
0.018794518 -0.00014111113 -0.0026029781
0.018661223 -0.00127 -0.0016691496
0.017861458 -0.0012700002 -0.0016691484
0.0013329439 -0.0012699999 -0.0022027656
0.0018661228 -0.0012699995 -0.0016691489
0.0013329439 -0.00014111068 -0.0087395757
-0.0082642566 -0.0012699999 -0.0022027665
-0.01466239 0.00084666623 -0.002202766
-0.011330027 0.00023518567 -0.0056268089
-0.006531429 -0.00014111075 -0.0051376605
-0.0065314281 0.00014111064 -0.004737447
-0.011596618 0.00014111116 -0.007272128
-0.011196735 0.0012700002 -0.0011355316
0.003776676 -0.00023518469 -0.0027363834
-0.0047986 -0.00028222156 -0.0022027665
-0.0062648393 -0.00028222176 -0.00327
-0.0066647227 -0.0012700002 -0.0011355315
-0.0062648393 -0.0012700001 -0.0016691484
-0.016395219 0.00014111151 -0.0087395748
-0.016395219 -0.00028222229 -0.0083393622
-0.014262507 -0.00014111158 -0.0082059577
-0.0037589038 0.00019755581 -0.0032433192
-0.0047986005 0.00028222238 -0.002202766
-0.0053317784 0.00084666646 -0.0022027656
-0.0053317775 0.00028222179 -0.0022027658
-0.0031990667 -0.0012699997 -0.0022027658
-0.005331778 0.0012699998 -0.00073531899
-0.005331777 0.00089370378 -0.00037957518
-0.0062648398 -0.0012700001 -0.0011355323
0.015728746 0.0012700005 -0.0022027665
0.017328279 0.0012699999 -0.0022027665
0.016795103 0.0012699995 -0.0016691496
0.017328279 0.0012699995 -0.0016691484
0.013862625 0.00014111082 -0.0038036169
0.044387054 0.00014111145 -0.0047374466
0.034523264 -0.00014111098 -0.0038036173
0.034523264 -0.00014111154 -0.0043372335
0.034523264 -0.00014111164 -0.0032700007
0.040788103 -0.0012699995 -0.0016691491
0.02928035 0.00014111158 -0.006160425
0.029191487 -0.00028222223 -0.0062048938
0.029324781 0.00014111071 -0.0067385109
0.028924897 -0.00014111114 -0.0067385104
0.028924897 -0.00014111104 -0.0062048943
-0.029324781 0.00014111125 0.0017993622
-0.028924897 0.00014111164 0.0017993615
-0.03172408 -0.00014111165 0.0017993615
-0.03172408 0.00014111174 0.0023329789
-0.03172408 -0.00014111123 0.0023329789
-0.027192071 0.00089370419 -0.0003795746
0.045186821 0.0012700004 -0.0016691487
-0.026259009 0.0012699998 -0.00073531875
-0.024192944 -0.00021166641 0.0022662762
-0.024126297 0.00023518541 0.0022885106
-0.024126297 -0.00014111069 0.0027331915
-0.02421516 -0.00023518552 0.0017993615
-0.02985796 0.0012699998 -0.00033510628
-0.029324781 0.00014111141 0.00073212711
-0.030257842 0.00089370337 -0.00037957483
-0.029857958 0.00089370366 -0.00037957507
-0.02985796 -0.0012700006 -0.0011355316
-0.029324781 -0.0012700002 -0.00073531957
-0.030257842 -0.0012700005 -0.0011355325
-0.02985796 -0.0012700001 -0.00033510651
-0.028791603 -0.0012700006 -0.0022027662
-0.029324781 -0.0012700005 -0.0022027667
-0.02985796 -0.0012700004 -0.0022027658
-0.03172408 0.00014111072 0.0017993615
-0.024259591 -0.0012700001 -0.00033510616
-0.02479277 -0.0012699997 -0.00073531864
-0.024259591 -0.00127 -0.00073531864
-0.024259591 -0.00127 -0.0011355323
-0.025325947 -0.0012700001 -0.00033510639
-0.026658893 0.00127 -0.0011355323
0.0013062862 0.00019755554 -0.0078324256
-0.00093306182 -0.00014111128 -0.0072721285
-0.0013596035 0.00019755532 -0.007245447
0.0041321283 0.00014111133 6.5106666e-05
0.002665889 0.0012699995 -0.002202766
0.0026658892 0.0012699997 -0.0016691494
0.0022660061 0.00127 -0.0016691494
-0.00026658882 0.0012700002 -0.00033510709
-0.0031990665 0.0012700002 -0.0011355324
-0.0037322452 0.0012699998 -0.0007353198
-0.0037322449 0.0012699993 -0.00033510639
0.00026658873 0.00028222273 -0.00033510698
-0.00026658925 0.00084666605 -0.00033510639
-0.00026658946 0.00028222162 -0.00033510604
0.0018661221 0.0012699999 -0.00073531887
0.0013329451 0.0012699995 -0.00073531957
0.0031990667 0.0012700002 -0.00073531922
0.0009330617 0.00014111142 0.0021995748
0.0011996506 -0.00014111151 0.0027331919
0.0011996501 0.00014111084 0.002733191
-0.0011996495 -0.00014111136 0.0027331915
-0.0011996496 0.00014111151 0.0027331919
0.0047986009 0.0012700006 -0.0011355323
0.0047986005 0.0012700007 -0.00073531875
0.0066647227 0.0012700005 -0.00033510674
0.0042654229 0.0012699998 -0.00073531899
-0.00026658914 -0.00028222206 -0.00033510674
-0.00093306182 -0.00014111078 0.00073212781
0.003776676 -0.0002351858 0.0012657444
0.0037766765 0.00023518519 0.0012657442
0.0037589043 -0.00019755539 0.0017726813
0.0037766756 0.0002351857 0.0017993622
0.0053317784 0.0012699997 -0.00033510593
0.005331778 0.00084666687 -0.00033510709
0.005331778 0.0012699998 -0.00073531934
0.0058649569 0.0012699995 -0.00073531957
0.0058649564 0.0012699994 -0.00033510616
0.0022660061 0.00028222206 -0.0022027667
0.0013329451 -0.00127 -0.0011355317
0.0018661224 -0.0012699995 -0.0011355317
0.0037322443 -0.0012700004 -0.00033510639
0.0031990674 -0.0012699997 -0.00033510698
0.0042654229 -0.0012700005 -0.00033510698
0.0042654234 -0.00084666687 -0.00033510639
0.0037589043 -0.00019755501 0.0023062984
0.0037322449 0.00023518583 0.002288511
0.0038655398 0.00014111046 0.002733191
0.0038655393 -0.00014111167 0.0027331915
0.0022660054 -0.0012699999 -0.0016691487
0.0026658897 -0.0012699999 -0.00073531969
0.0093306107 -0.00127 -0.00073531887
0.0098637911 -0.0012699999 -0.00073531969
0.010263673 -0.0012699998 -0.00073531957
0.0098637901 -0.0012699995 -0.0011355316
0.016395219 0.00014111165 0.002332978
0.016395219 0.00014111113 0.0017993618
0.0058649564 -0.0012699998 -0.0011355325
0.0066647227 -0.0012700004 -0.0016691491
-0.023726413 -0.0012699999 -0.002202766
-0.023726413 -0.0012700002 -0.0016691495
-0.022660058 -0.0012700001 -0.0022027662
-0.022660058 0.00028222275 -0.00033510674
-0.023193236 0.00028222203 -0.00033510721
