# .PCD v0.7 - Point Cloud Data file format
VERSION 0.7
FIELDS x y z
SIZE 4 4 4
TYPE F F F
COUNT 1 1 1
WIDTH 1053
HEIGHT 1
VIEWPOINT 0 0 0 1 0 0 0
POINTS 1053
DATA ascii
0.0086171879 0.001069219 -0.00026464288
0.0086954273 0.00075276371 -0.0003157499
0.0086171879 0.001069219 -0.0022328568
0.0087070689 0.00070555543 -0.0012487491
0.0085923988 -0.0010355386 -0.0003190384
0.0086767692 -0.00073955819 -0.0003477108
0.0085901376 -0.0010401907 -0.0021857147
0.008588179 -0.0010442224 -0.0012487499
0.008588179 -0.0010442224 -0.00075374998
-0.0074459095 -0.00019510147 -0.0067798384
-0.0074385684 0.00010540136 -0.0067619383
-0.0074373824 -0.00019921569 -0.0062788213
-0.008714648 0.00020540429 -0.0012499691
-0.008723137 -0.00025628824 -0.0017415199
-0.0087242611 -0.00025513646 -0.001249026
-0.0087093031 0.00020650399 -0.0017336886
-0.0087231388 -0.00025628821 -0.00075430679
-0.0087093031 0.00020650397 -0.00075626455
0.008588179 -0.0010442224 -0.0017437501
0.0086788386 -0.00071046373 -0.0017437503
0.0086788395 -0.00071046373 -0.0012487496
0.0032514336 0.0011429997 -0.00075374939
0.0037453221 0.0011429997 -0.00075374939
0.0037453223 0.0011429997 -0.0012487499
-0.0027575484 -0.0011429999 -0.0017437494
-0.0022636591 -0.0011429994 -0.0017437502
-0.0022636591 -0.0011429995 -0.0012487486
0.0082605304 -0.0010956865 -0.00029999984
-0.0027575484 -0.0011429996 -0.00124875
-0.0086018974 0.0010160002 -0.0012487499
-0.0082592033 0.0011256215 -0.0021801323
-0.0082471529 0.0011288887 -0.0017437501
-0.0086018974 0.0010160002 -0.00075374986
-0.0087070726 -0.00070555549 -0.0017437503
-0.0087051746 -0.00070342544 -0.0022348578
-0.0087202555 -0.00025925512 -0.0022333446
-0.0087032486 0.00020029339 -0.0021888807
0.0087070726 0.00070555549 -0.00075374951
0.0051110019 -0.00012315151 -0.009082499
0.0049388888 8.4666674e-05 -0.0090450002
0.0049388888 -0.00016933333 -0.0090450002
0.0048858724 0.00015498305 -0.0087219924
-0.0086018974 0.0010160002 -0.0017437501
-0.0085916081 0.0010160002 -0.0021665625
-0.0051789791 0.00016227766 -0.0082612447
-0.0051586814 -0.00019726447 -0.0087371124
-0.005166546 0.00015345826 -0.0087369233
-0.0049075289 0.00014312699 -0.0087071415
-0.0077238674 -0.00019755543 -0.0047137546
-0.0074553671 -0.0001935238 -0.0052499995
-0.007723866 -0.00019755539 -0.0052500027
-0.0026682448 0.00014936474 -0.0087430188
-0.0026664468 -0.00020167782 -0.0087539302
-0.0026147063 -0.0001892549 -0.009074118
-0.0026041416 9.236364e-05 -0.0090599991
-0.0067498125 -0.0011429992 -0.0017437502
-0.0062147682 -0.0011429996 -0.0022387505
-0.0072848541 -0.0011429996 -0.0017437496
-0.006749813 -0.0011429994 -0.0012487489
-0.0051789791 0.00016227768 -0.0077662449
-0.0049023032 0.00015051852 -0.0077662496
-0.0074447035 -0.00018705429 -0.0087245936
-0.0077238688 -0.00019755542 -0.0082612475
-0.0077174301 -0.00019093185 -0.0087385662
-0.007455369 -0.00019352383 -0.0082612503
-0.0074306242 9.1722221e-05 -0.0082595302
-0.007445158 9.1350877e-05 -0.00871283
-0.0051692231 -0.00020273383 -0.0077643543
-0.0077238688 -0.00019755542 -0.0057862462
-0.0077238674 -0.00019755542 -0.006281252
-0.0077238684 -0.0001975554 -0.0037237492
-0.0077046668 5.0800005e-05 -0.0037237501
-0.007723867 -0.00019755542 -0.0042187469
-0.0082670916 -0.0010982244 -0.0022308172
-0.0077778432 -0.0011371287 -0.0022282107
-0.0072822273 -0.0011402977 -0.0022343616
0.0087253684 0.00021166667 -0.0012487492
0.0087253703 0.00021166663 -0.00075374951
0.0086788386 -0.00071046373 -0.00075374951
0.0087253666 -0.00025399996 -0.00075374939
0.0037453228 0.0011429996 -0.00025875005
0.0042392118 0.0011429997 -0.00025875017
0.0032514338 0.0011429993 -0.00025875005
-0.0037427482 0.0011469688 -0.00028453115
-0.0042392099 0.0011455654 -0.00027750013
-0.0042392123 0.0011429999 -0.0012487491
-0.0037453203 0.0011490481 -0.0022092867
-0.0032498136 0.0011479999 -0.00028635829
0.0032514338 0.0011429997 -0.0012487486
0.0032514336 0.0011429997 -0.0017437502
-0.0022636587 0.0011429997 -0.0017437502
-0.0027559018 0.0011379203 -0.0022074003
-0.0017682866 0.0011384315 -0.0022313308
-0.0022636589 0.0011353031 -0.0022199992
-0.0051789787 0.00016227768 -0.0057862443
-0.0049023032 0.00015051855 -0.0062812502
-0.0049023032 0.00015051852 -0.0057862485
-0.005174079 0.00015965704 -0.0032299298
-0.0049080187 0.00013758335 -0.0032287501
-0.0050623612 0.00050800003 -0.0025275
-0.0047345893 0.0011475685 -0.0022313308
0.0072848555 0.0011429997 -0.0022387502
0.0077787447 0.0011429997 -0.0017437494
0.0077787456 0.0011429997 -0.0022387505
0.0072848555 0.0011429996 -0.0017437498
0.0067498139 0.001142999 -0.00223875
0.0067498125 0.0011429995 -0.0017437491
0.0062147682 0.0011429994 -0.0022387495
0.0062147677 0.0011429997 -0.0017437502
0.0057208827 0.0011429996 -0.0022387502
-0.00011171297 -0.00013909522 -0.0091274986
-0.00011598907 0.0001000606 -0.00913125
7.4083327e-05 7.6199998e-05 -0.00914675
0.0025723381 -0.00014816667 -0.0090656253
0.0026680997 -0.00018287993 -0.0087370016
0.0025994154 0.00015596491 -0.0090840785
0.0024131234 0.00012477193 -0.0090753948
-0.0023683759 -0.00020362863 -0.0087348362
-0.0024365187 -0.00016933332 -0.0090697492
-0.00018584472 0.00014838483 -0.0087328563
0.0026683132 0.0001588436 -0.0087544313
-0.0042392123 -0.0011429996 -0.0012487494
-0.0042392127 -0.0011429996 -0.00075374951
-0.0037453221 -0.0011429997 -0.0012487493
-0.0052269958 -0.0011429996 -0.00075374939
-0.0052269967 -0.0011429996 -0.0012487498
-0.0057208831 -0.0011429996 -0.00075374939
-0.0051755495 0.00015439207 0.0022059374
-0.0051270379 -0.00012498412 0.0025796432
-0.0051063569 8.758621e-05 0.0025818103
-0.005166424 -0.00019968544 0.0022123575
0.0076837712 9.1179478e-05 0.0025589427
0.0077199899 0.00014865132 0.0022146755
0.0077161659 -0.00015309583 0.0022021241
0.0076141204 -8.4666674e-05 0.0026700001
0.0074507389 -0.00016420204 0.0021975001
0.0086156204 0.0010724445 -0.00075374998
-0.0086265942 -0.0010498668 -0.00075374998
-0.0087070754 -0.00070555543 -0.00075374939
-0.0087018423 -0.00074748578 -0.00032592856
-0.008272632 -0.0011006668 -0.00025874993
-0.0086224787 -0.0010583334 -0.0012590628
-0.0086260261 -0.0010481151 -0.00026586209
-0.0086183632 -0.0010611557 -0.0022057504
-0.0086188475 -0.001065804 -0.0017534557
-0.008272632 -0.0011006668 -0.0017437503
-0.0012758814 0.00019242421 -0.00027000031
-0.0001957757 0.00015789183 0.00072790496
-0.0012758808 0.00076199992 -0.00030951924
-0.0024006239 0.00010826231 0.00072786887
-0.0022636587 -0.0011429996 -0.00075374939
-0.0086603398 0.00070294674 -0.0007520162
-0.0086567709 0.00074354693 -0.00032749993
-0.0086597875 0.00069814117 -0.0012515464
0.0047331084 0.0011429996 -0.00075374939
0.0052269963 0.0011430001 -0.0012487496
0.0047331066 0.0011429997 -0.0012487496
-0.0086545544 0.00070191384 -0.0021841933
-0.0076989108 9.5887553e-05 -0.0087567447
-0.0074906484 8.4666674e-05 -0.0090862503
-0.0076507051 4.703704e-05 -0.0091091655
-0.0074906484 -0.0001128889 -0.0090725003
-0.007682716 -0.00011288888 -0.0090945
0.0077787465 0.0011429997 -0.0012487499
0.007284855 0.0011429997 -0.00075374939
0.0077787456 0.0011429997 -0.00075374939
0.0050870553 7.6199998e-05 -0.0090614995
0.0051549687 -0.00019667356 -0.0087442165
0.0077139731 0.00014573762 -0.0087400228
0.0076964353 8.4666666e-05 -0.0090449993
0.0077092093 -0.00014451725 -0.0087064682
0.0076552778 -8.4666674e-05 -0.0090450002
0.004908313 -0.00019110479 -0.0087197134
0.0048786039 0.00016217839 -0.0082583455
0.0049036094 -0.00019352383 -0.0082612503
-0.0057208827 0.0011429996 -0.0022387507
-0.0057215141 0.00072031777 -0.0022165386
-0.0052269958 0.0011429996 -0.0012487499
-0.0042407583 0.0011503206 -0.0022216914
-0.0047331071 0.0011429997 -0.0017437501
-0.0052269963 0.0011429993 -0.0017437501
-0.0037453221 0.001143 -0.0012487494
-0.0042392123 0.0011430001 -0.0017437501
-0.0051673995 -0.00020049053 -0.0052486788
-0.0048730373 -0.00019473331 -0.005786248
-0.0048730392 -0.00019473326 -0.0052500013
-0.0026687353 0.00016042098 -0.0037237487
-0.0016828808 0.0010630372 -0.0025274998
-0.00019696751 0.00015874994 -0.0062812511
-0.00019577572 0.00015789183 -0.0057851318
0.00014218013 0.0001577878 -0.0057862457
-0.0062147682 -0.0011429996 -0.0017437502
-0.0057208827 -0.0011429997 -0.0022387493
-0.0017697675 -0.0011429996 -0.0017437501
-0.0067507979 -0.001142239 -0.0022375153
-0.0077238684 -0.00019755543 -0.0067762453
-0.0076998211 9.5623531e-05 -0.0067738239
-0.007455369 -0.00019352384 -0.00471375
-0.007455369 -0.00019352383 -0.0042187488
-0.0051263846 5.6444445e-05 -0.0090862485
-0.0049224263 -0.00011853335 -0.0090779997
-0.0049388888 4.2333333e-05 -0.0090450002
-0.0049388888 -0.00050800003 -0.0025275
-0.0048977295 -0.00021166664 -0.0032287501
-0.004733108 -0.0011314542 -0.0022237499
-0.0042363135 -0.0011412109 -0.0022364266
-0.0062147682 -0.0011429997 -0.00025875005
-0.0067498125 -0.0011429995 -0.00075374951
-0.0067498144 -0.0011429996 -0.00025875028
-0.0067498116 -0.00076199981 -0.00032062514
-0.0077787447 -0.0011429996 -0.00075374951
-0.0072822273 -0.0011402979 -0.00026313832
-0.0072848541 -0.001143 -0.00075374939
-0.0077787437 -0.0011374779 -0.00026771764
-0.0077787456 -0.0011429996 -0.0012487497
-0.0077046654 8.9958354e-05 -0.004709627
-0.0051692235 -0.00020273383 -0.0082631418
-0.0076993047 9.8449615e-05 -0.0057804915
-0.0074559888 9.8035096e-05 -0.0057819071
-0.0074467445 8.6548163e-05 -0.005229834
-0.0082751494 -0.00071986532 -0.0022358454
-0.0077787447 -0.001143 -0.0017437501
-0.0086603388 0.00070294674 -0.0017309245
-0.0051708715 -0.00020319986 -0.0032280004
-0.0051724887 -0.00020365755 -0.0037248668
-0.0052316999 -0.0011393713 -0.0022340352
-0.0051777801 0.00016163626 -0.0037234614
-0.0076758564 7.861905e-05 0.0025668752
-0.0076940139 -0.0001294902 0.0025535298
-0.0076986924 0.00010885713 0.0022058247
-0.0087153865 0.00019242412 -0.00030125014
0.0077787456 0.0011429996 -0.00025874993
0.0072848541 0.0011429996 -0.00025874993
0.0087253666 -0.00025399996 -0.0017437496
0.0087187104 -0.00025228941 -0.00033249997
-0.0047322176 0.0011439135 -0.00026616897
-0.0052246111 0.0011460675 -0.00026771741
-0.0049023032 0.00015051852 0.0012262501
-0.0049023032 0.00015051855 0.00073125027
-0.0042330818 0.00075179199 -0.00033335108
0.0062147677 0.0011429996 -0.00025874993
0.0057208827 0.0011429999 -0.00075374939
0.0062147682 0.0011429997 -0.00075374939
0.0074906484 -8.4666666e-05 0.0026700001
-0.0037439603 0.00075639307 -0.0003180299
-0.0037453223 0.0011429996 -0.00075374939
-0.0049023032 0.00015051852 -0.0072712516
-0.0051789791 0.00016227766 -0.0072712479
-0.0049023032 0.00015051852 -0.0067762518
-0.0051789791 0.00016227766 -0.0062812539
-0.0026687349 0.00016042098 -0.0067762509
-0.0026670019 -0.00020319992 -0.0062812511
-0.0026670017 -0.00020319992 -0.0067762518
-0.0026687349 0.00016042097 -0.006281253
-0.00028810187 0.0011429999 -0.0012487497
0.00024694446 0.0011429993 -0.0012487489
0.0002469444 0.0011429993 -0.0017437502
0.0027575484 0.0011429995 -0.00025875005
0.0027575486 0.0011429996 -0.00075374928
0.0022636594 0.0011429997 -0.00025875017
0.0017697673 0.0011429996 -0.00223875
0.0017697675 0.0011429997 -0.0017437498
0.0012758808 0.0011429999 -0.0017437501
0.0012758807 0.0011429996 -0.0022387514
0.0012758797 0.0011430001 -0.0025275005
0.0022636587 0.0011429997 -0.0017437498
0.0016462964 0.0011091334 -0.0025274998
-0.0012758794 0.0011430001 -0.0025275005
-0.0024557253 8.4666674e-05 -0.0090587502
-0.0026670019 -0.00020319992 -0.0077662496
-0.0026687349 0.00016042098 -0.0077662505
-0.0026687353 0.00016042098 -0.0082612522
-0.0026670019 -0.00020319992 -0.0082612531
-0.0023571982 -0.00020493171 -0.0077709369
-0.0023974197 0.00012935184 -0.0082566692
-0.00016947174 -0.00019299015 -0.0087331943
7.2025468e-05 -0.00014816668 -0.0091274986
0.00013993519 -0.00019727321 -0.0087372735
-0.00017729352 -0.0002018974 -0.0082612466
-0.00017729355 -0.00020189743 -0.0077662468
0.00015596495 -0.00020498232 -0.0077662487
0.0001559649 -0.00020498232 -0.0072712507
0.00015596498 -0.00020498234 -0.0082612522
-0.0052269958 0.0011429996 -0.0022387493
-0.0062147677 0.0011429996 -0.0017437501
-0.006749813 0.0011429994 -0.0017437501
0.00078199082 0.0011429996 -0.0022387502
0.00078199076 0.0011429997 -0.0017437494
0.00078199076 0.0011430001 -0.0025275005
0.0024175497 -0.00017485509 -0.0082630431
0.0026682967 -0.00020167782 -0.0082617132
0.0026709759 -0.00019852864 -0.0077667255
0.0024165269 -0.00016328573 -0.0077682128
0.0051679714 0.00015029966 -0.0087437844
0.0051567852 -0.00020419598 -0.0082612503
-0.0051675458 -0.00020225914 0.0017212504
-0.0052269967 -0.0011429997 -0.00025875005
-0.0057208831 -0.0011429996 -0.00025875005
-0.004733108 -0.0011429997 -0.00075374939
-0.0047331089 -0.0011429995 -0.00025875005
-0.0042392123 -0.0011429997 -0.00025875017
-0.0048730373 -0.00019473331 0.0012262501
-0.0048730373 -0.00019473328 0.00073125004
-0.0087184086 -0.00025936618 -0.0002674649
-0.0086018974 0.0010160002 -0.00029999996
-0.008257878 0.0011022642 -0.00075219304
-0.0082571367 0.0010896712 -0.00029142853
-0.0082726348 0.00075141666 -0.00033093768
-0.0077133761 -0.00019921557 0.0022065442
-0.0072848541 0.0011429996 -0.0012487496
-0.007284855 0.0011429996 -0.0017437496
-0.0074906489 8.4666659e-05 0.0025875003
-0.0074311947 0.00010661729 0.0022055565
-0.0072796661 0.0011397983 -0.00029376044
-0.0074346708 0.00010160001 0.0007279499
-0.0077675921 0.0011299442 -0.00029383181
-0.0074346708 0.00010160002 0.00121965
-0.0077238674 -0.00019755542 0.00073124957
0.0087178834 0.00019682235 -0.0002855357
0.0074607162 9.2363633e-05 0.0025500001
0.0086156204 0.0010724445 -0.0017437498
0.008272632 0.0011006668 -0.00075374939
-0.0087070717 -0.00070555543 -0.0012487489
-0.0082726311 -0.0011006668 -0.0012487503
-0.0042392174 0.00019242424 -0.00027000019
-0.0072880206 0.0011381158 -0.0021721153
0.00015443133 -0.00020454853 0.0017216154
0.0001405684 0.00015500507 0.0022137116
0.00014218014 0.00015778777 0.0017212501
0.00014924371 -0.00019861046 0.002208926
0.00243286 -0.0001411111 0.0025416666
0.0026432204 -0.00015051854 0.0025462506
0.0024165271 0.00010583334 0.0025875003
-0.0017697673 -0.0011429997 -0.00025875005
-0.0022636596 -0.0011429999 -0.00025875005
-0.0082490165 0.0011242626 -0.0012473975
0.0042392118 0.0011429996 -0.00075374939
0.0042392123 0.0011429996 -0.0012487492
0.0042392123 0.0011429996 -0.0017437504
0.0037453221 0.0011429997 -0.0017437501
0.0042392123 0.0011429996 -0.0022387498
0.004733108 0.0011429996 -0.0017437501
0.0052269963 0.0011429996 -0.0017437496
-0.008272633 0.00071966666 -0.0021974996
-0.0077005476 8.8899993e-05 -0.0072660968
-0.007723866 -0.0001975554 -0.0072712516
-0.0074516567 8.9122812e-05 -0.0072734216
-0.0067373393 0.0011340202 -0.0021924987
-0.0067498218 0.00072856923 -0.0022222847
-0.0077787456 0.0011355297 -0.0021683828
0.0052269958 0.0011429999 -0.00075374951
0.007284855 0.0011429996 -0.0012487494
0.0067498144 0.0011429994 -0.00075374951
0.0067498139 0.0011429993 -0.00025875028
0.0057208827 0.0011429996 -0.0017437492
0.0057208827 0.0011429997 -0.0012487497
0.0062147677 0.0011429995 -0.0012487494
0.0074906484 -8.4666666e-05 -0.0090450002
0.0074906484 0.00010583334 -0.0090656253
0.0074553718 -0.00016026192 -0.0087091075
0.0051765633 0.00016098582 -0.0062818341
0.0051567852 -0.00020419598 -0.006281252
0.0051777801 0.00016163624 -0.0057848007
0.0051765637 0.00016098582 -0.0067750933
0.0026687356 0.00016042098 -0.0057862471
0.0023801264 0.00017293614 -0.0057862489
0.0026687346 0.00016042098 -0.0062812483
0.0026687349 0.000160421 -0.0082612475
0.0074494909 -0.00016933336 -0.0072712507
0.0074412543 0.00013546667 -0.0067762509
0.0074412543 0.00013546666 -0.0072712516
0.0077159288 -0.00015485082 -0.0082623363
0.0074494909 -0.00016933336 -0.0082612466
0.0077188774 0.00015009083 -0.0082612457
0.0082605286 -0.0010956863 -0.0012487505
0.0082605286 -0.0010956863 -0.0017437499
0.0077188774 0.00015009083 -0.003723749
0.008272632 0.0011006667 -0.0022387498
0.0077188783 0.00015009081 -0.0032287496
0.0087036183 0.00070768542 -0.0022348592
0.0087196585 0.00021484774 -0.0022304056
0.0082726376 0.00071966636 -0.0022387507
-0.0057208827 0.001143 -0.00075374939
-0.0052269967 0.0011429996 -0.00075374928
-0.0057208827 0.0011380195 -0.0002708825
-0.0037453228 0.0011429996 -0.0017437501
-0.0032514338 0.0011429996 -0.0012487496
-0.0033631481 0.00084666663 -0.0025274998
-0.003586574 0.0007620001 -0.0025274998
-0.0026687356 0.00016042097 -0.0032287517
-0.003127963 9.3133342e-05 -0.0025274998
-0.003745331 0.00021166675 -0.0022387505
-0.0026687353 0.00016042098 -0.0057862457
-0.0026670028 -0.00020319986 -0.0052499971
-0.0026670021 -0.00020319992 -0.005786248
-0.0074451095 -0.00019815603 -0.0057836161
-0.0051789796 0.00016227765 -0.0052499981
-0.0051636761 -0.00019701273 -0.0057846601
-0.0051692235 -0.00020273383 -0.0047141304
-0.0048730373 -0.00019473331 -0.0047137514
-0.0048764432 -0.00019706893 -0.0042230175
-0.0051724897 -0.0002036575 -0.00422135
-0.0051789791 0.00016227768 -0.0047137467
-0.0048927907 -0.00020828001 -0.0037319998
0.00015596492 -0.00020498232 -0.0067762565
-0.00017729351 -0.0002018974 -0.0067762528
0.00015596492 -0.00020498232 -0.0062812492
0.00014218019 0.0001577878 -0.0062812492
0.00015596492 -0.00020498232 -0.0057862462
-0.00017729354 -0.00020189739 -0.0057862485
-0.0074379635 -0.00019642663 -0.0077794474
-0.0077238684 -0.00019755542 -0.0077662468
-0.0074436096 9.2730173e-05 -0.0077898214
-0.0074379635 -0.00019642664 -0.0072778491
-0.0050966591 -0.00012699999 -0.0090793734
-0.0048730373 -0.00019473331 -0.0077662496
-0.0026687353 0.00016042098 -0.0072712526
-0.0051675448 -0.00020225914 -0.0072712479
-0.0051666051 -0.00020098434 -0.0067766337
-0.0048730373 -0.00019473331 -0.0067762509
-0.0037453223 -0.0011429996 -0.0017437496
-0.0032514341 -0.0011429996 -0.0017437502
-0.0037453217 -0.0011429994 -0.0022387512
-0.0032514338 -0.0011429994 -0.0022387495
-0.0047331089 -0.001143 -0.0017437498
-0.0072848541 -0.0011429996 -0.0012487498
-0.0062147677 -0.0011429996 -0.0012487494
-0.0077018486 8.3552652e-05 -0.0042263488
-0.0077005485 8.8900022e-05 -0.0062760934
-0.0077021737 7.9744204e-05 -0.0052404073
-0.00621477 -0.00071966648 -0.0022387516
-0.0055356715 -0.0001905 -0.0025275
-0.0062147691 -0.00025400004 -0.0022387514
-0.0051446757 -0.00053340005 -0.0025522499
0.008272632 0.0011006667 -0.00025874993
-0.0077787465 0.0011429995 -0.0017437498
-0.0077773049 0.0011421116 -0.0012484611
-0.0077713444 0.0011384313 -0.00075345277
0.0087253666 -0.00025399998 -0.0012487494
0.0048771552 0.00016227776 0.00073125027
0.0042392141 0.00076199987 -0.00030951947
8.5893698e-05 9.7550736e-05 0.002621575
8.7156841e-05 -0.00014692159 0.0026190437
-0.00012489142 9.9264369e-05 0.0026159484
-0.00011432615 -0.0001458148 0.0026104169
-0.00017546059 -0.00019829821 0.0022119076
0.0026364948 0.00011952942 0.0025705143
0.0026683134 0.0001588436 0.0022144245
0.002666245 -0.00019950182 0.002209137
0.002417997 -0.00017991666 0.0017212504
0.0024163963 -0.00017121484 0.0022043337
0.0023862172 0.00016839257 0.002211666
-0.0049024788 0.00014491027 0.0022083179
0.005171523 0.00015828978 0.0017212492
0.0048823757 0.00016301491 0.0022020906
0.0048771552 0.00016227776 0.0017212506
-0.0026687349 0.00016042097 0.00073124957
-0.0032514341 0.00076199992 -0.0003095197
-0.0027559279 0.0011366664 -0.00028635841
-0.0051789796 0.00016227768 -0.0067762481
-0.00028810179 0.0011429996 -0.0017437501
0.0022636589 0.0011429999 -0.00075374939
0.00078199082 0.0011429999 -0.0012487504
0.00024694452 0.0011429992 -0.00075374939
0.0012758806 0.0011429996 -0.0012487493
0.0012758812 0.0011429996 -0.00075374939
0.0027575486 0.0011429996 -0.0012487498
0.0022636587 0.0011429996 -0.0012487499
0.00078199094 0.0011429996 -0.00075374951
0.00024694452 0.0011429995 -0.00025875017
0.0012758807 0.0011429996 -0.00025874993
-0.0012758813 0.0011429997 -0.00025875005
-0.00018947938 0.00015495594 0.0022131365
0.0027575484 0.0011429999 -0.0022387498
0.0032514336 0.0011429996 -0.0022387495
0.0031691205 0.0010442223 -0.0025274998
0.0037453228 0.0011429997 -0.00223875
0.0023835527 0.00017117389 -0.0082603544
0.0023835532 0.00017117389 -0.0077644559
0.00013291823 0.00015475949 -0.0087413741
-0.0023987242 0.00012878873 -0.0062841522
-0.0023636119 -0.00020864277 -0.0062802676
-0.0023571979 -0.00020493173 -0.005785312
-0.0023974194 0.00011377084 -0.0087446459
-0.002354204 -0.00020319992 -0.0082612522
-0.0057208827 0.0011429999 -0.0017437496
-0.0062154005 0.00072943582 -0.0022165382
0.00024842305 0.0011422392 -0.0022375148
0.0026687349 0.00016042094 -0.0052499999
0.00015596497 -0.00020498229 -0.0047137514
0.00014218014 0.0001577878 -0.004713749
0.00015596497 -0.00020498234 -0.0042187483
-0.00028810173 -0.0011429997 -0.0022387488
-0.00028810187 -0.0011430001 -0.0025275005
-0.00078199065 -0.001143 -0.0025275005
0.0024179972 -0.00017991666 -0.0052499995
0.002417997 -0.00017991666 -0.0057862494
0.0026670021 -0.00020319987 -0.0052500004
0.0026670017 -0.00020319992 -0.0047137514
0.0024179968 -0.00017991668 -0.0047137495
0.0026670019 -0.00020319989 -0.0057862527
0.0024200554 -0.00013546666 -0.0090450002
0.0077188783 0.00015009083 -0.0067762593
0.0077188774 0.00015009083 -0.0072712516
0.0074486802 0.00013613074 -0.0087311752
0.0051740794 0.00015965705 -0.0082612457
0.0051777805 0.00016163624 -0.007765959
0.0048771552 0.00016227778 -0.0072712498
0.0049036094 -0.00019352383 -0.0072712535
0.0049036094 -0.00019352383 -0.0077662477
0.0048771552 0.00016227778 -0.0077662524
0.0074412543 0.00013546667 -0.0037237494
0.0074412543 0.00013546667 -0.0042187506
0.0074494909 -0.00016933336 -0.004713749
0.0074412543 0.00013546667 -0.00471375
0.0052269967 0.0011429996 -0.0022387502
0.0051728101 0.00016628767 -0.0037240458
0.0037453217 -0.0011429996 -0.0017437501
0.0032514338 -0.0011429997 -0.0017437501
0.0037436201 -0.0011419508 -0.0021995467
0.0017697676 -0.0011429997 -0.0022387495
0.0016462964 -0.0010912593 -0.0025274998
0.0012758794 -0.0011430001 -0.0025275005
0.0022613071 -0.0011393711 -0.0022328573
0.0037463764 -0.0011462569 -0.00030211534
0.0057267621 -0.001133929 -0.00030883914
0.0051567848 -0.00020419598 0.0012262503
0.0052269963 -0.001128889 -0.00031374989
0.0051567848 -0.00020419597 0.00073124981
0.0057208831 -0.00075045455 -0.00034500018
-0.0052269963 -0.001143 -0.0017437506
-0.0051675448 -0.00020225914 0.0012262503
-0.0051675448 -0.00020225912 0.00073124957
-0.0049023032 0.00015051852 0.0017212508
-0.0042392123 -0.00076199981 -0.00032062526
-0.0037453217 -0.00076199992 -0.00032062514
-0.0048767915 -0.00019458476 0.0022053954
-0.0049153706 -0.00012095238 0.0025521426
-0.0048730373 -0.00019473331 0.0017212511
-0.0077238679 -0.00019755542 0.0017212506
-0.007455369 -0.00019352383 0.0017212506
-0.0077015758 0.00011112495 0.0017212504
-0.0074632098 -0.00012699999 0.0025325001
-0.0074545089 -0.00018998377 0.0022112194
-0.0051789791 0.00016227766 0.0017212499
-0.0062123467 0.00076033978 -0.00031455886
-0.0057228166 0.00075859064 -0.00031827192
-0.0077023124 9.6761905e-05 0.00072535686
0.008272632 0.0011006667 -0.0017437504
0.008272632 0.0011006668 -0.0012487504
0.0086156204 0.0010724445 -0.0012487504
-0.008272632 -0.0011006668 -0.00075374963
-0.0037453289 0.00019242424 -0.00026999996
-0.0062147677 -0.00076199981 -0.00032062503
0.0032514338 -0.0011429997 -0.0012487485
-0.0022621115 0.0011356788 -0.00027580827
-0.0077092377 0.00010065926 -0.0077625848
-0.0074494905 8.9122819e-05 -0.00471375
-0.0074494905 8.9122819e-05 -0.0042209211
-0.0062118694 0.0011412109 -0.0022364266
0.006749813 0.0011429993 -0.0012487493
0.0026687353 0.00016042098 -0.0077662505
0.0077188793 0.00015009083 -0.0062812511
0.0077697989 -0.0011374779 -0.00124875
0.0077697979 -0.001137478 -0.00075374951
0.0052269963 -0.0011429999 -0.00075374939
0.0057208827 -0.0011429999 -0.00075374939
0.0051567852 -0.00020419597 -0.0057862462
0.0049036094 -0.00019352383 -0.0057862499
0.0049036089 -0.0001935238 -0.0052500009
0.0077131204 -0.00015331527 -0.0037215191
0.007707017 -0.0001499809 -0.0032381781
0.0082605267 -0.0010956865 -0.00075374963
0.0077728638 -0.0011248573 -0.00031178573
0.0087070735 0.00070555549 -0.0017437498
0.0047331047 -0.0011288892 -0.00031375012
0.0012758796 -0.00071966677 -0.0025274996
0.0024179968 -0.00017991668 -0.0037237501
0.0026669998 0.00056726672 -0.0025274998
0.0026687353 0.00016042097 -0.0032287517
0.0023768421 0.00017462496 -0.003228748
-0.004733108 0.0011429997 -0.0012487496
-0.001275881 -0.0011429996 -0.0017437494
-0.0012758807 -0.0011429999 -0.0022387498
-0.0007819907 -0.0011429996 -0.0017437501
-0.0020578704 0.00067733333 -0.0025275
-0.0023965379 0.00012337144 -0.0037237492
-0.0027575481 0.0011429997 -0.0012487499
-0.0022636591 0.0011429996 -0.0012487489
-0.0032514336 0.0011429996 -0.00075374951
-0.0027575484 0.0011429996 -0.00075374939
-0.0048730373 -0.00019473331 -0.0062812502
-0.0036053888 -0.0010668 -0.0025275
-0.0012758797 -0.0011430001 -0.0025275005
-0.0051636752 -0.00019701269 -0.0062820436
-0.0026670017 -0.00020319992 -0.0032287515
-0.0028203656 -0.00064614031 -0.0025361844
-0.0032925929 -0.0010498667 -0.0025275
-0.0031334504 -0.00026528889 -0.0025275
-0.00017729354 -0.00020189739 -0.0062812483
-0.0017697675 -0.0011429996 -0.0012487498
-0.0012758807 -0.001143 -0.00075374939
-0.0012758807 -0.0011429996 -0.0012487498
-0.0049023032 0.00015051855 -0.0082612513
-0.0048796204 -0.00018626667 -0.0087232478
-0.0048730369 -0.00019473332 -0.0072712507
-0.0047331075 -0.0011429997 -0.0012487498
-0.0042392127 -0.0011429996 -0.0017437494
-0.0051777801 0.00016163626 -0.0042196126
-0.0049031656 0.00014856605 -0.004221085
-0.0049023032 0.00015051852 -0.0047137504
-0.0049069687 0.0001399592 -0.0037279592
-0.0062147682 -0.0011429999 -0.00075374939
-0.0057208827 -0.0011429996 -0.0017437501
-0.0074427892 9.6480631e-05 -0.0062860455
-0.0067498223 -0.00071882317 -0.0022379288
-0.007455369 -0.00019352383 -0.0037237508
-0.0074451095 -0.00019815602 -0.0032173414
-0.0057208766 -0.00071966654 -0.0022387486
0.0087253666 0.00021166663 -0.0017437498
0.0032514341 0.00076199987 -0.0003095197
0.0047331084 0.0011429997 -0.00025875005
0.0052269967 0.0011429995 -0.00025875017
0.0049388888 -0.00013546666 0.002571
0.0051232753 0.00010160001 0.0025743006
0.0049089566 0.00011545454 0.0025650004
0.0051070987 -0.00013988407 0.0025767398
0.0049036094 -0.00019352383 0.00073125004
0.0051680245 0.00015732826 0.0022100939
0.0051715225 0.00015828977 0.00073124934
0.0051715225 0.00015828975 0.0012262498
0.0048771552 0.00016227776 0.0012262501
-0.0017697676 0.0011429997 -0.0012487499
-0.00028810184 0.0011429999 -0.0022387491
-0.00028810187 0.001143 -0.0025275005
-0.00078199059 0.0011430001 -0.0025275005
-0.00078199065 0.0011429996 -0.0017437498
0.0017697673 0.0011429997 -0.0012487497
0.0027575486 0.0011429994 -0.0017437498
0.0017697675 0.0011429996 -0.00025875017
0.00078199094 0.0011429996 -0.00025874993
-0.0023603307 -0.00020674408 0.0022085749
-0.002641557 -0.00015393941 0.0025575005
-0.0026670017 -0.00020319992 0.0022162509
-0.0023542044 -0.00020319992 0.00073125004
-0.00019206792 0.00015522219 0.0017212504
-0.00019206789 0.00015522217 0.0012262501
-0.00017729352 -0.00020189739 0.0012262501
-0.00078199082 -0.0011429996 -0.00025875005
-0.00028810176 -0.0011429997 -0.00025875017
-0.00017729352 -0.00020189739 0.0017212511
0.00015596495 -0.00020498234 0.0012262496
-0.00017729351 -0.00020189739 0.00073124981
0.0001559649 -0.00020498232 0.00073124957
-0.0022636598 0.0011429997 -0.00075374939
-0.0017697675 0.0011429996 -0.00075374939
-0.0017682867 0.0011384311 -0.00026616897
-0.0024008499 0.00013405556 -0.0077662496
-0.0023706679 -0.00021272495 -0.0072722854
-0.00019577572 0.00015789183 -0.0072679054
-0.00019206786 0.00015522219 -0.0077662459
0.0001421802 0.0001577878 -0.0082612475
0.0023890457 0.00016244182 -0.0087456973
-0.00019332653 0.00015612839 -0.0082631437
-0.0042382143 0.00071037392 -0.0022276824
-0.0057208827 0.0011429996 -0.0012487494
0.0012758797 0.00071966677 -0.0025274996
0.00078199059 0.00071966677 -0.0025274996
0.00025609054 0.0011382963 -0.0025275003
0.0026670017 -0.00020319989 -0.0042187502
0.0023835532 0.00017117392 -0.0047146482
0.0023801259 0.00017293612 -0.0042152386
-0.00078199059 -0.0011429995 -0.0022387495
-0.0012758798 -0.00071966677 -0.0025274996
-0.0012758797 0.00071966683 -0.0025274996
-0.0012758797 0.00021166667 -0.0025274996
-0.00019206783 0.00015522214 -0.003723749
0.00015596494 -0.00020498228 -0.0052500013
0.00014218008 0.00015778778 -0.0052500013
0.0077188774 0.00015009083 -0.0077662496
0.0074412543 0.00013546667 -0.0077662505
0.007713119 -0.00015331525 -0.0072690202
0.0074412543 0.00013546669 -0.0082612475
0.0051728105 0.00015897834 -0.0072709555
0.0051567848 -0.00020419598 -0.0072712488
0.0049036094 -0.00019352383 -0.00677625
0.0048771552 0.00016227776 -0.0062812464
0.0077188793 0.00015009081 -0.004218752
0.0077188774 0.00015009083 -0.0047137514
0.0077101537 -0.0001516944 -0.0042198952
0.0047322325 0.0011402975 -0.0022343614
0.00024694434 -0.0011429993 -0.00025875017
-0.00028810187 -0.0011429996 -0.00075374939
0.0002469444 -0.001142999 -0.00075374951
0.0007819907 -0.0011429996 -0.00025875005
0.0012758805 -0.0011429996 -0.00025875017
0.0012758813 -0.0011429997 -0.00075374939
0.0017697675 -0.0011429997 -0.00025875017
0.0012758807 -0.00076199992 -0.00032062538
0.0024179968 -0.00017991666 0.00073124981
0.0017697675 -0.00076199987 -0.00032062526
0.0007819907 -0.0011429997 -0.00075374951
0.0049036094 -0.00019352383 -0.0062812511
-0.007455369 -0.00019352383 0.00073125004
-0.0062147682 -0.00025400007 -0.00025875017
-0.0037453212 -0.0011429996 -0.00025875005
-0.0049388888 8.4666674e-05 0.0025462501
-0.0077023101 9.6761905e-05 0.0012144644
-0.0074318475 0.00011188095 0.0017271433
-0.006742076 0.0011421473 -0.0002850506
-0.0067498144 0.0011429994 -0.00075374951
-0.0062147677 0.0011429996 -0.00075374939
0.0074400995 0.00014111114 0.0022025004
0.0077188765 0.00015009078 0.0017212492
0.0062147677 -0.001136316 -0.0021888162
0.0057208827 -0.0011363159 -0.0021888164
0.0062147677 -0.0011429999 -0.0017437496
0.0067536389 -0.0011387337 -0.0021834301
-0.0037453268 -0.00025400007 -0.00025875005
-0.0026670024 -0.00020319993 0.0012262501
-0.0027575484 -0.0011429995 -0.00025875017
-0.0032514338 -0.0011429994 -0.00025874993
-0.0026670021 -0.00020319989 0.0017212501
-0.0077027665 8.7923072e-05 -0.0082580764
-0.0074549797 7.0555558e-05 -0.0037347509
0.0057208813 -0.00070908322 -0.0022129687
0.0062136552 -0.00071394595 -0.0022041902
0.0051715225 0.00016565206 -0.0032275522
0.0074412543 0.00013546667 -0.0062812502
0.0077159288 -0.00015485082 -0.0057873367
0.0077101532 -0.0001516944 -0.0062778099
0.0074494909 -0.00016933336 -0.0062812492
0.0077159288 -0.00015485082 -0.0047148368
0.0077188821 0.0001500908 -0.0052499967
0.0077060857 -0.0001494732 -0.0052561103
0.0087170592 -0.00025257684 -0.0021898744
0.0080668516 0.00021166667 -0.0025275
0.0067498144 -0.0011429995 -0.001743749
0.0051567862 -0.00020419594 -0.0052500013
0.0051779533 0.00016172841 -0.0052514817
0.0057208827 -0.0011429997 -0.0017437498
0.0042374791 -0.001141933 -0.0021961133
0.0051567848 -0.00020419597 -0.00677625
0.0051567852 -0.00020419594 -0.0077662487
0.0077156411 -0.00015352882 -0.0067756996
0.0082605304 -0.0010956862 -0.0021974994
0.0082726348 -0.00071966666 -0.0021975001
0.0077712629 -0.0011314548 -0.0021899999
0.007769797 -0.001137478 -0.0017437496
0.0074494909 -0.00016933335 -0.0077662496
0.0074494909 -0.00016933336 0.0017212501
0.0042357203 -0.0011408477 -0.00030209764
0.0037453289 0.00019242422 -0.00027000043
0.0037453268 -0.0002540001 -0.00025875017
0.004239216 -0.00025400013 -0.00025875028
0.0026709754 -0.00019852867 -0.0032273284
0.003121631 0.00016282051 -0.0025274998
0.0026687356 0.00016042098 -0.0037237492
0.0024165271 -0.00016328573 -0.0032228571
-0.0047331084 0.0011429996 -0.00075374928
-0.0017697681 0.00076199975 -0.00030951935
-0.0023542044 -0.00020319992 -0.0032287512
-0.0022636573 -0.00059266668 -0.0025275
-0.0027575481 0.0011429996 -0.0017437498
-0.0032514341 0.0011429996 -0.0017437496
-0.0037453277 -0.00025400013 -0.00223875
-0.002790472 0.00059266668 -0.0025274998
-0.0026687356 0.00016042097 -0.0052499995
-0.0023987242 0.00012878873 -0.0057914779
-0.0023927437 0.00012796208 -0.0052481266
-0.0016110184 -0.0011248571 -0.0025274998
-0.0048730373 -0.00019473331 -0.0082612513
-0.0026670019 -0.00020319992 -0.0072712516
-0.00017729355 -0.00020189739 -0.0052499985
-0.0035395371 -0.00088900002 -0.0025275
0.002417997 -0.00017991668 -0.0062812502
0.0023801262 0.00017293614 -0.0067771319
0.0024179968 -0.00017991663 -0.006776249
0.0023835527 0.00017117389 -0.006283043
0.0026687349 0.00016042097 -0.006776249
-0.0017697673 -0.0011429996 -0.00075374951
-0.00078199088 -0.0011429996 -0.00075374939
-0.0017697673 -0.00076199981 -0.00032062514
-0.0012758808 -0.00076199992 -0.00032062503
-0.0049023051 0.00015051851 -0.0052500013
-0.0080668516 -0.00021166667 -0.0025275
-0.0077046659 5.0800005e-05 -0.0032287494
-0.0077238688 -0.00019755542 -0.0032287505
-0.005535671 8.4666666e-05 -0.0025275
0.0026687353 0.00016042098 0.0012262501
0.0026687353 0.00016042098 0.0017212506
0.0026687353 0.00016042098 0.00073124981
0.0057208827 0.0011429996 -0.00025875005
0.0057208827 0.00076199998 -0.00030951924
0.0049051167 -0.00019104275 0.0022003853
-0.0012758807 0.0011429996 -0.00075374951
-0.00078199065 0.0011429997 -0.00223875
-0.001275881 0.0011429996 -0.0022387509
-0.001275881 0.0011429999 -0.0017437498
0.0017697675 0.0011429996 -0.00075374939
0.00014218016 0.00015778781 0.00073124934
0.001275881 0.00019242424 -0.00027000019
0.0022618694 -0.0011374779 -0.00026592391
0.0017697702 -0.00025400007 -0.0002587504
0.0017697681 0.00076199981 -0.00030951935
0.0012758808 0.00076199987 -0.00030951935
-0.0024145676 -0.0001364074 0.0025875003
-0.001275881 -0.0011429995 -0.00025875005
-0.0026670014 -0.00020319989 0.00073124934
-0.0026687353 0.00016042098 0.0017212499
0.00078199088 0.00076200004 -0.00030951935
0.0022225 0.00050800003 -0.0025275
-0.0024008499 0.00013405553 -0.0072712526
0.0001421802 0.00015778778 -0.0067762537
-0.00017729354 -0.00020189736 -0.0072712507
0.0024145672 -0.00014111114 -0.0087562492
-0.0062147677 0.0011429995 -0.0012487494
0.0023768425 0.00017462496 -0.0037237473
0.0016956852 0.0007145867 -0.0025275005
0.0012758797 0.00021166666 -0.0025274996
0.00014218014 0.00015778778 -0.0042187492
-0.00019456228 0.00015701816 -0.0047152545
0.0001421801 0.00015778778 -0.0072712479
0.00014218017 0.0001577878 -0.0077662487
0.0024179968 -0.00017991668 -0.0042187497
0.0026670021 -0.00020319993 -0.0037237492
0.0027550913 -0.0011360493 -0.0022233594
0.0032488615 -0.0011363854 -0.0022129682
0.0032102778 0.00093133334 -0.0025275
0.0048900153 0.0001666875 -0.0032390635
0.0026687346 0.00016042098 -0.0047137542
0.0012758807 -0.0011429997 -0.0022387514
0.00078199065 -0.0011429996 -0.0022387502
0.00078199082 -0.0011429996 -0.0017437494
-0.0017340988 0.00069991115 -0.0025275
0.002382559 0.00017168511 -0.0052461829
0.0048771552 0.00016227773 -0.0057862508
0.0051567852 -0.00020419597 -0.0047137537
0.0051505589 -0.00020389105 -0.0042254827
0.0051753307 0.00016392897 -0.0042213835
0.0051765642 0.00016098583 -0.0047149151
0.0049036094 -0.00019352384 -0.0047137504
0.0048832069 0.00016435292 -0.0047113262
0.0048800944 0.00016328572 -0.0042175711
0.0048771552 0.00016227776 -0.0067762509
0.00078199065 -0.0011429996 -0.0012487494
0.00024694446 -0.0011430001 -0.0025275
-0.007455369 -0.00019352383 0.0012262503
-0.0077238679 -0.00019755543 0.0012262501
-0.0062147682 0.0011405095 -0.0002708825
-0.0072848541 0.0011429996 -0.00075374928
-0.0067498139 0.0007620001 -0.00030951947
-0.0062147691 0.00019242421 -0.00027000019
-0.006749819 0.0001924243 -0.00027000031
-0.0067498162 -0.00025400019 -0.0002587504
0.0077188811 0.00015009083 0.0012262496
0.0074412543 0.00013546669 0.0012262501
0.0074357665 0.00013707938 0.00072928565
0.0074452283 0.00014013794 0.0017155609
0.0074494909 -0.00016933336 -0.0042187492
0.0022636584 -0.0011429997 -0.00075374939
0.0027556776 -0.0011353029 -0.00027562515
0.0012758806 -0.0011429995 -0.0017437501
0.0037453228 -0.0011429996 -0.0012487499
-0.0023542044 -0.00020319993 0.0012262501
-0.0032514338 -0.0011429996 -0.0012487493
-0.0032514338 -0.0011429997 -0.00075374939
0.0062147677 0.00076199981 -0.00030951947
0.0067498139 0.00076200004 -0.00030951982
0.0049098348 -0.00018925495 -0.0037625744
0.0047331057 -0.0011363161 -0.0021888164
0.0049149892 -0.00018298924 -0.0032487097
0.005143804 -0.00020356021 -0.0037219955
0.0074494909 -0.00016933336 -0.0057862494
0.0077188783 0.00015009083 -0.0057862452
0.0086712465 -0.00070869131 -0.0021875699
0.0074494909 -0.00016933336 -0.006776249
0.0077070184 -0.00014998092 -0.0077615352
0.0074494909 -0.00016933336 -0.0032287501
0.00621477 0.00071966671 -0.00223875
0.0067498223 0.00071966654 -0.0022387495
0.0057208752 0.00071966654 -0.00223875
0.0055150925 0.00012700001 -0.0025275
0.0062147719 0.00021166675 -0.00223875
0.0052269963 -0.001136316 -0.0021888153
0.0050623612 -0.00050800003 -0.0025275
0.003745331 0.0007196666 -0.0022387509
0.003745331 0.00021166677 -0.0022387507
0.003745324 0.00076199998 -0.0003095197
0.0029015972 -0.00052916666 -0.0025275
0.0016956852 -0.00071458676 -0.0025275005
-0.0042392127 0.0011429996 -0.00075374928
-0.0017340984 -0.00069991121 -0.0025275
-0.00017729352 -0.00020189739 -0.0037237501
-0.0012758798 -0.00025400001 -0.0025275
-0.0026670019 -0.00020319992 -0.0037237478
-0.0026670017 -0.00020319992 -0.0042187478
-0.0032497335 0.0011419506 -0.0021995453
-0.0023960299 0.00013043241 -0.004217633
-0.0024008499 0.00013405556 -0.0047137509
-0.0023542044 -0.00020319989 -0.0047137509
-0.0026687349 0.00016042098 -0.0042187474
-0.0026687356 0.00016042098 -0.0047137523
-0.0026670021 -0.00020319992 -0.0047137528
-0.002356763 -0.00020467947 -0.0052516027
-0.0023542056 -0.00020319992 -0.0042187497
-0.0023603304 -0.00020674408 -0.0067781704
-0.0017697675 -0.0011429996 -0.0022387495
0.0026670021 -0.00020319989 -0.0062812483
0.0024175495 -0.00017485509 -0.007262283
0.0026682967 -0.0002016778 -0.0072689336
0.0026687353 0.000160421 -0.0072712507
-0.00078199065 -0.0011429996 -0.001248749
-0.00028810167 -0.0011429996 -0.0012487497
-0.0062147672 0.00021166675 -0.0022387509
-0.0074403454 7.2907416e-05 -0.0032218751
0.0023853225 0.00017026368 0.0017207975
0.0023818212 0.00017206449 0.00073169312
0.0026670019 -0.00020319992 0.00073125004
0.0026670017 -0.00020319992 0.0012262501
0.0022624999 0.001141211 -0.0022358452
0.0051516849 -0.00019635451 0.0022013301
0.0051567852 -0.00020419598 0.0017212494
0.0026670021 -0.00020319992 0.0017212506
-0.00078199082 0.0011429996 -0.00075374951
-0.0017697673 0.0011429999 -0.0017437504
-0.0012758807 0.0011429996 -0.0012487499
0.001275881 -0.00025400007 -0.00025875017
-0.00028810184 0.0011429995 -0.00025875005
-0.0024161814 7.9686259e-05 0.0025535298
-0.0026687356 0.00016042098 0.0012262498
-0.0023937162 0.00012869335 0.0017196008
-0.00019696759 0.00015874996 -0.0067755198
-0.0023990602 0.00012515942 -0.0067864126
-0.0067498144 0.0011429994 -0.0012487487
0.0012758798 -0.00025399998 -0.0025275
-0.00019206794 0.00015522215 -0.0042187492
0.00014218013 0.00015778777 -0.0037237506
0.0026687353 0.00016042098 -0.0042187483
0.0048850705 0.00016499142 -0.0052542309
0.0048900153 0.00016668747 -0.0037237492
0.0049036094 -0.00019352383 -0.0042187516
0.0042392188 0.00071966654 -0.0022387495
0.00078199065 -0.001143 -0.0025275005
0.00078199059 -0.00071966671 -0.0025274996
0.0057208827 -0.0011429996 -0.0012487497
0.0047331084 -0.0011429997 -0.00075374963
0.0047331066 -0.001143 -0.0012487494
-0.0051789791 0.00016227766 0.0012262498
0.0077188783 0.00015009083 0.00073124934
0.0074494909 -0.00016933336 0.0012262501
0.0077185938 -0.00015630762 0.0012262501
0.0072783558 -0.0011363163 -0.00030651316
-0.0032514336 -0.00076199987 -0.00032062538
-0.0057208827 -0.0011429996 -0.0012487493
-0.0057208827 -0.00076199987 -0.00032062491
0.0022636598 -0.0011429995 -0.0012487496
0.001769767 -0.0011429996 -0.0012487494
0.0027575484 -0.0011429997 -0.0012487494
0.0017697673 -0.0011429996 -0.0017437496
-0.0023542047 -0.00020319992 0.0017212504
-0.0027575484 -0.0011429996 -0.00075374939
-0.0037453221 -0.0011429996 -0.00075374939
0.0051424666 -0.00020210743 -0.0032265324
0.0062147677 -0.00025400013 -0.0022387495
0.0074412543 0.00013546667 -0.0057862494
0.0074494891 -0.00016933338 -0.0052499999
0.0067498125 -0.0011429994 -0.0012487491
0.0072848555 -0.0011429997 -0.0017437498
0.0072830645 -0.0011374785 -0.0021903263
0.0067478362 -0.00025237197 -0.002236767
0.0074494909 -0.00016933336 -0.0037237506
0.0074357665 0.00013707936 -0.0032267852
0.0032285703 -0.00061618519 -0.0025275003
-0.00028810173 -0.0011429996 -0.0017437498
0.00024694434 -0.0011429993 -0.0017437502
0.00024694428 -0.0011429994 -0.001248749
0.00024694452 -0.0011429994 -0.0022387505
0.00015443131 -0.00020454852 -0.0037255767
-0.00017729351 -0.00020189739 -0.0047137514
-0.002402097 0.00012315152 -0.0032400012
-0.0022636596 -0.0011429996 -0.0022387491
-0.00078199065 -0.00071966671 -0.0025274996
-0.00019830382 0.00015971203 -0.0052499985
-0.0023542056 -0.00020319993 -0.0037237513
0.0026670014 -0.00020319992 -0.00677625
0.0023835532 0.00017117389 -0.0072730435
0.0023835532 0.00017117389 0.0012253532
0.0049036094 -0.00019352383 0.0017212506
-0.0002881017 0.0011429997 -0.00075374951
-0.000781991 0.0011429995 -0.00025875005
-0.00078199082 0.00071966677 -0.0025274996
-0.00078199059 0.0011429996 -0.0012487498
-0.0012758811 -0.00025400007 -0.00025875005
-0.0023974201 0.00012935183 0.002213958
-0.0026370138 9.9785735e-05 0.0025609822
-0.002402564 0.00011906251 0.0012288282
0.00014218011 0.00015778778 -0.003228748
0.00078199076 -0.00076199992 -0.00032062491
0.0042382432 -0.00071465084 -0.0022338638
0.0052269967 -0.0011429996 -0.0017437502
0.0047331071 -0.0011429996 -0.0017437498
0.0042392127 -0.0011429996 -0.0017437502
0.0042392123 -0.0011429996 -0.0012487497
-0.0051753307 0.00016032615 0.00073154201
0.0077185952 -0.00015630762 0.0017212508
0.0077185961 -0.00015630762 0.00073125004
0.0017697676 -0.0011429996 -0.00075374939
0.0012758807 -0.0011429996 -0.0012487494
0.0027575484 -0.001143 -0.0017437496
0.0062147714 0.00019242424 -0.00027000008
0.0062147696 -0.0002540001 -0.00025874993
0.0067498107 -0.0011430001 -0.00030000031
0.0055150925 -8.4666666e-05 -0.0025275
0.0050952872 0.00055033341 -0.0025522499
0.0074412534 0.00013546669 -0.0052500004
0.0062147682 -0.0011429996 -0.0012487493
0.0062147677 -0.0011429996 -0.00075374939
0.0067498167 -0.00071966654 -0.0021974992
0.0037453228 -0.00076199987 -0.00032062514
0.0031473308 -0.00025898038 -0.0025275
-0.00017729352 -0.00020189739 -0.0042187516
-0.0027575484 -0.0011429999 -0.0022387484
-0.0067498181 -0.00025400019 -0.00223875
0.002417997 -0.00017991666 0.0012262501
0.00014218013 0.00015778778 0.0012262492
0.0049036094 -0.00019352383 0.0012262501
-0.00078199088 0.00076199998 -0.00030951935
-0.00078199076 -0.00076199992 -0.00032062503
-0.0026671493 0.00015799399 0.0022125689
0.003745331 -0.00071966648 -0.0022387512
0.0052269963 -0.001143 -0.0012487494
0.0037453223 -0.0011429996 -0.00075374939
0.0032514341 -0.0011429995 -0.00075374939
0.0022636591 -0.0011429997 -0.0017437496
0.0027575484 -0.0011429996 -0.00075374928
0.0067498195 0.00019242431 -0.00027000043
0.0072848541 -0.0011429996 -0.00075374939
0.0074494909 -0.00016933336 0.00073125004
0.0049224263 0.00052493333 -0.0025769998
0.0042392123 -0.0011429996 -0.00075374951
0.0032494736 -0.0011369522 -0.00028625003
-0.0067488169 0.00020650418 -0.002233719
0.0037453277 -0.00025400007 -0.0022387519
0.0062147677 -0.0011430004 -0.00029999984
0.0072848541 -0.0011429996 -0.0012487496
0.0067459554 -0.00023812511 -0.000270352
0.0042401254 -0.0007507109 -0.00033483363
0.0032514336 -0.00076199975 -0.00032062538
0.0067498139 -0.0011429994 -0.00075374951
0.0062147677 -0.00075045449 -0.00034499995
0.0067498214 0.00021166683 -0.0022387505
0.0067498111 -0.00075045443 -0.0003450003
