# .PCD v0.7 - Point Cloud Data file format
VERSION 0.7
FIELDS x y z
SIZE 4 4 4
TYPE F F F
COUNT 1 1 1
WIDTH 1172
HEIGHT 1
VIEWPOINT 0 0 0 1 0 0 0
POINTS 1172
DATA ascii
-0.015757265 -0.0011641667 -0.00021103455
-0.015255441 -0.0011641666 -0.00021103455
-0.015255441 -0.0011641667 -0.0012144828
-0.014753616 -0.0011641666 -0.0012144828
-0.013749968 -0.0011641666 -0.00021103444
-0.01274632 0.00074083329 -0.002217931
-0.012746321 0.00021166664 -0.0022179307
-0.013248146 0.00074083335 -0.002217931
-0.014151428 0.00010583329 -0.0037231038
-0.014151428 0.00010583339 -0.0047265519
-0.026697021 -0.00021166673 -0.0077368971
-0.020273678 -0.0011641666 -0.0022179312
-0.020273678 -0.0011641666 -0.0017162072
-0.021377688 -0.00021166661 -0.0052282759
-0.021377688 -0.00021166664 -0.0047265519
-0.018968936 -0.00021166667 -0.0077368971
-0.018768204 -0.0011641666 -0.0012144828
-0.019270027 -0.0011641667 -0.0012144828
-0.018768206 -0.0011641667 -0.0017162071
-0.018266384 -0.0011641666 -0.0012144828
-0.026295563 -0.0011641667 -0.0012144828
-0.018266382 -0.0011641668 -0.00071275875
-0.018266382 -0.0011641667 -0.00021103455
-0.015757265 -0.0011641667 -0.00071275875
-0.01676091 -0.0011641667 -0.0017162072
-0.016760912 -0.0011641667 -0.002217931
-0.024187902 -0.00021166669 -0.0080379313
-0.023987172 -0.00021166673 -0.0077368971
0.0065237079 -0.00021166666 -0.0080379313
0.0065237079 7.0555565e-05 -0.0081048282
-0.031715259 -0.0002116667 -0.004224828
-0.032016352 -0.00021166663 -0.0037231036
0.011541945 0.00010583339 0.0007924136
0.011541945 -0.00021166669 0.0017958618
0.011541945 0.00010583331 0.001795862
0.011541945 -0.00021166669 0.0022975863
0.011341215 -0.00021166666 0.001795862
0.011255188 9.0714282e-05 0.0022832509
0.011341215 0.00010583339 0.0025986205
0.011341215 -0.00021166667 0.0022975863
0.011240851 0.0001058334 0.0017958618
0.0088320971 0.00010583333 -0.0072351727
0.0088320971 -0.00021166669 -0.0072351727
0.0088320971 -0.00021166672 -0.0067334482
0.0091331908 0.00010583336 -0.0067334482
0.0088320971 0.00010583329 -0.0067334478
0.0065237079 0.00010583329 -0.0077368966
0.0065237074 0.00010583334 -0.0072351727
0.0088464348 9.0714224e-05 -0.0081239417
0.0088320971 0.00010583331 -0.0077368971
0.0088320971 -0.00021166666 -0.0077368966
0.0091331908 -0.00021166673 -0.0073355176
0.013850334 0.00010583329 -0.0067334478
0.023987172 -0.00021166663 -0.0080379313
0.024187902 -0.00021166666 -0.0080379313
0.023987172 -0.00021166667 -0.0077368971
0.023987172 0.00010583337 -0.0077368966
0.023987172 7.0555565e-05 -0.0081048282
0.023987172 -0.00021166661 -0.0072351727
0.024187902 -0.00021166672 -0.0072351727
0.013950698 7.0555594e-05 -0.0081048282
0.014151428 7.0555579e-05 -0.0081048282
0.013950698 -0.00021166661 -0.0080379313
0.024187902 7.0555521e-05 -0.0081048282
0.024254812 7.0555507e-05 -0.0077368966
0.026395926 3.2741809e-11 -0.0077368971
0.027691543 -0.0011545456 -0.0021996868
0.026697019 0.00010583337 -0.0062317248
0.026395926 4.0017767e-11 -0.0057300003
0.026697021 0.00010583339 -0.0057299999
0.026395926 -1.8189894e-11 -0.0062317238
0.029165993 -0.00021166663 -0.0057099313
0.024790091 0.0011641667 -0.0017162071
0.024288267 0.0011641667 -0.0017162071
0.023786442 0.0011641667 -0.0017162071
0.024288267 0.0011641666 -0.002217931
0.024288265 -0.0011641667 -0.0017162071
0.023786442 -0.0011641666 -0.0017162072
0.023786442 -0.0011641667 -0.0012144828
0.02479009 -0.0011641667 -0.002217931
0.024288265 -0.0011641667 -0.002217931
0.02328462 -0.0011641667 -0.00071275875
0.023786442 -0.0011641667 -0.00071275886
0.02328462 -0.0011641666 -0.00021103455
0.011742674 0.0011641666 -0.0012144828
0.014151428 0.00010583337 -0.0077368971
-0.024288267 0.0011641667 -0.00021103455
-0.023786444 0.0011641666 -0.00021103467
-0.024790091 0.0011641667 -0.00071275886
-0.02479009 0.0011641667 -0.00021103444
-0.02328462 0.0011641667 -0.00021103455
-0.022782795 0.0011641666 -0.0012144828
-0.025291912 0.0011641666 -0.00071275875
-0.02479009 0.0011641666 -0.0012144827
-0.025291914 0.0011641667 -0.0017162071
-0.023786442 0.0011641667 -0.0017162069
-0.027700668 -0.0007620001 -0.00025117258
-0.028202493 -0.00076199992 -0.00025117269
-0.028202495 -0.0011641667 -0.00021103455
-0.026697019 -0.00021166663 0.0007924136
-0.027299207 -0.00076200004 -0.00025117258
0.016259087 0.0011641667 -0.00071275863
0.015757265 0.0011641666 -0.00071275875
0.015757263 0.0011641665 -0.00021103444
0.014151427 0.0001058334 0.0007924136
0.014753616 0.0011641666 -0.00021103444
0.014251792 0.0011641666 -0.00021103467
0.011240851 0.0011641667 -0.00021103467
0.010739028 0.0011641667 -0.00021103455
0.011240851 0.0011641668 -0.00071275886
0.01124085 0.00010583337 0.0012941378
0.010739028 0.0011641667 -0.00071275875
0.010237203 0.0011641666 -0.00021103455
0.008932462 0.00010583329 0.0025986205
0.0088320971 -0.00021166663 0.0022975863
0.0088320971 0.00010583331 0.0022975858
0.008932462 -0.00021166664 0.0025986205
0.0091331908 0.00010583339 0.0022975863
0.011541945 -0.0002116667 0.0025986205
0.011541945 0.00010583334 0.0025986205
0.0037536412 -0.00021166661 0.0022775172
0.011341215 -0.00021166666 0.0007924136
0.010739028 -0.00079375005 -0.00026120699
0.010237203 -0.00079374993 -0.00026120711
0.010237203 -0.0002645833 -0.00026120699
0.031715259 -0.00021166661 0.0012941378
0.024254812 7.0555543e-05 0.0007924136
0.017764561 0.0011641666 -0.00021103467
0.017764559 0.0011641667 -0.00071275875
0.018266382 0.0011641667 -0.00021103455
0.020273678 0.0011641667 -0.0012144828
0.019270029 0.0011641666 -0.00071275886
0.019771853 0.0011641666 -0.0012144828
0.019270027 0.0011641667 -0.0012144828
0.022782795 0.0011641667 -0.0017162069
0.019771853 0.0011641667 -0.00021103455
0.020273676 0.00079375005 -0.00026120699
0.024187902 -0.00021166661 0.0007924136
0.024790091 -0.0011641666 -0.00021103455
0.024288267 -0.0011641667 -0.00021103455
0.023987172 -0.00021166666 0.0007924136
0.024187902 -0.00021166661 0.0012941378
0.025291912 -0.0011641667 -0.00071275875
0.023786444 -0.0011641666 -0.00021103455
0.024288267 -0.0011641667 -0.00071275875
0.019169664 -0.00021166672 0.0025986205
0.018968936 -0.00021166672 0.0025986205
0.018968936 -0.00021166666 0.0022975863
0.018893663 0.00013229165 0.0022975858
0.019169664 0.00010583336 0.0022975863
0.018968936 0.0001058333 0.0025986205
0.01664621 0.00015119048 0.0017958618
0.016660547 -0.00021166673 0.001795862
0.014151428 5.6388672e-11 0.0025986205
0.014151428 -0.0002116667 0.0022975863
0.013950698 -0.00021166673 0.0025986205
0.013950698 0.00010583337 0.0025986205
0.026697019 -0.00021166663 0.0007924136
0.027299207 -0.001143 -0.00025117258
0.03019724 0.00072760414 -0.00023612077
0.030209783 0.00021166669 -0.00021103467
0.029696809 0.000729074 -0.0002779311
0.030209787 0.0011641667 -0.0012144826
0.02729921 0.00079375011 -0.00026120699
0.030197978 -0.00032372549 -0.002206126
0.029206136 -0.0011641666 -0.0012144828
0.028704314 -0.0011641667 -0.0012144828
0.028704314 -0.0011641666 -0.0017162071
0.029717086 -0.00075045449 -0.0021996866
0.030711612 -0.0011641667 -0.0012144828
0.026395926 -0.0002116667 0.0012941378
0.024187902 -0.0002116667 0.001795862
0.024254812 7.0555572e-05 0.0012941378
0.024242647 0.00013469694 0.001795862
0.023987172 -0.00021166663 0.001795862
0.027299207 -0.0011641667 -0.00071275875
0.027299207 -0.0007620001 -0.00025117258
0.026697019 -0.00021166666 0.001795862
0.026295563 -0.0011641666 -0.00071275875
0.028704312 -0.00076199998 -0.00025117258
0.029206136 -0.00021166673 0.0007924136
0.02771182 -0.00030574069 -0.0002779311
0.029719114 0.0011524074 -0.00027793122
0.030711612 -0.00074083329 -0.00031137944
-0.025291914 -0.0011641667 -0.0017162072
-0.026395926 -0.00021166663 -0.0037231036
-0.028202491 -0.00074083317 -0.002217931
-0.027700668 -0.00031749997 -0.002217931
-0.02729921 -0.00074083341 -0.002217931
-0.027700668 -0.00074083341 -0.002217931
-0.027700668 0.0011641665 -0.0012144828
-0.028704314 0.00074083335 -0.002217931
-0.028704319 -0.0007620001 -0.00025117258
-0.028715469 0.00075259263 -0.00027793122
-0.016760912 -0.0011641666 -0.00071275875
-0.016660547 -0.00021166666 0.0012941378
-0.016660547 -0.0002116667 0.0022975863
-0.018902026 7.0555507e-05 0.0022975863
0.0041149543 -5.8207661e-11 -0.0064324141
0.0092335558 -0.0011641667 -0.00071275886
0.0087317321 -0.0011641666 -0.00071275875
0.008731734 -0.0011641666 -0.00021103455
0.0092335558 -0.0011641666 -0.00021103455
0.0097353794 -0.0011641667 -0.00021103455
0.0082299085 -0.0011641667 -0.00071275886
0.0082299085 -0.0011641666 -0.00021103467
0.007728084 -0.0011641666 -0.00021103467
0.010237203 -0.0011641667 -0.00021103444
0.010237203 -0.0011641667 -0.00071275875
0.0082299085 -0.0011641666 -0.0017162071
0.0087317331 -0.0011641667 -0.0022179307
0.0067244372 -0.0011641666 -0.002217931
0.0062226146 -0.0011641667 -0.002217931
0.0063229785 -0.00021166667 0.0025986205
0.0065237079 -3.4560799e-11 0.0025986205
0.0063229785 7.0555616e-05 0.0026655169
0.0062226141 -0.0011641667 -0.0017162071
0.0067244372 -0.0011641666 -0.0012144828
0.007728084 0.0011641666 -0.00021103455
0.0072262608 0.0011641667 -0.00021103467
0.0072262608 0.0011641667 -0.00071275886
0.0087317331 0.0011641667 -0.00071275886
0.0092335558 0.0011641667 -0.00021103455
0.0087317331 0.0011641666 -0.00021103467
0.0032116715 -0.0011641667 -0.002217931
0.0032116715 -0.0011641667 -0.0017162071
0.0027098476 -0.00074083329 -0.0022179312
0.0032116715 -0.00074083335 -0.002217931
0.0038138602 -0.00021166664 -0.0032213796
0.0065237079 0.00010583336 -0.0067334482
0.0062226136 -0.00021166661 -0.0032213794
0.0062226136 -0.00021166663 -0.0037231038
0.007728084 -0.00074083323 -0.002217931
0.0077280849 -0.00031749997 -0.0022179312
0.0082299085 -0.00074083341 -0.0022179312
0.0042153192 0.0011641667 -0.002217931
0.003723054 0.00015119046 -0.0032022656
0.0037134956 0.0011641667 -0.0022179312
0.0037134958 0.00010583334 -0.0037231036
0.0037536412 -0.00021166664 -0.0037030347
0.0041149543 5.6388672e-11 -0.0032213794
0.0041149543 5.2916665e-05 -0.004224828
0.0037134956 0.00010583333 -0.0042248284
0.0037134958 0.0001058333 -0.0047265519
0.0041149543 8.4666724e-05 -0.005268414
0.0032116715 -0.0011641666 -0.0012144828
0.0042153192 -0.0011641666 -0.0012144828
0.0042153187 -0.0011641667 -0.0017162071
0.0037134956 -0.0011641666 -0.002217931
0.0042153192 -0.0011641667 -0.0022179312
0.0037134958 -0.0011641667 -0.0017162071
0.0022080243 -0.00026458336 -0.00026120699
0.00572079 -0.0011641667 -0.00071275886
0.00572079 -0.0011641666 -0.00021103455
0.0052189659 -0.0011641666 -0.00021103455
0.0062226136 -0.0011641667 -0.00021103467
0.0062226141 -0.0011641668 -0.00071275875
0.0037134956 -0.0011641665 -0.00021103467
0.0027098474 0.00021166667 -0.00021103467
0.0022080243 0.00079375011 -0.00026120711
0.0027098476 0.00079374999 -0.00026120699
0.0022080238 0.00021166664 -0.00021103467
0.0027098481 -0.00026458327 -0.00026120699
0.0037317434 0.00016356062 0.00077416922
0.0037134958 0.00013025648 0.001286419
0.0027098479 0.0011641666 -0.00021103455
0.0047171428 0.0011641667 -0.00021103455
0.0052189664 0.0011641667 -0.00021103455
0.0052189659 0.00079374999 -0.00026120699
0.0041149543 0.0001058334 0.0007924136
0.0047171419 0.00079374999 -0.00026120699
0.0041149543 1.2732926e-11 0.0013944827
0.0047171428 -0.0011641667 -0.00021103455
0.0047171419 -0.00079374993 -0.00026120699
0.0052189659 -0.00026458333 -0.00026120699
0.0047171419 -0.00026458333 -0.00026120699
-0.030209783 -0.0011641666 -0.0022179312
-0.030209787 -0.00074083335 -0.002217931
-0.030717513 0.00022411766 -0.002206126
-0.030711612 -0.0011641667 -0.0017162071
-0.030209785 -0.0011641666 -0.00071275898
-0.029707961 -0.0011641667 -0.00071275875
-0.0037134953 -0.00021166663 0.0012941378
-0.0065237074 0.00010583329 0.0017958618
-0.0062226136 -0.00021166664 0.0017958618
-0.0063229785 -0.00021166673 0.0025986205
-0.0065237079 -0.00021166661 0.001795862
-0.013850333 -0.00021166661 -0.0067334487
-0.013861486 0.00014111109 -0.0067445971
-0.013850332 -0.00021166663 -0.0052282759
-0.0088398177 0.00013025636 -0.0032059413
-0.012244497 0.0011641667 -0.002217931
-0.011541945 0.00010583336 -0.0047265519
-0.011541945 -0.00021166672 -0.0047265519
-0.011541945 0.0001058334 -0.004224828
-0.011541945 0.0001058334 -0.0037231036
-0.011274305 7.0555499e-05 -0.004224828
-0.01124085 -0.00021166672 -0.0047265519
-0.01124085 -0.00021166666 -0.004224828
-0.015757265 0.0011641666 -0.0022179307
-0.016649395 0.0001411111 -0.0067445976
-0.016359452 0.00010583334 -0.0067334487
-0.01664621 0.00015119048 -0.0062317248
-0.016760912 0.0011641666 -0.0012144827
-0.015255441 0.0011641666 -0.0012144828
-0.015757265 0.0011641666 -0.00071275863
-0.026757237 8.4666652e-05 -0.0077368966
-0.026730472 9.4074072e-05 -0.0067222989
-0.026730474 9.4074065e-05 -0.0057188505
-0.026720179 9.7692347e-05 -0.0042093904
-0.027700668 0.00074083335 -0.002217931
-0.026395926 0.00010583337 -0.0047265519
-0.019169664 0.00016933338 -0.007716828
-0.019169664 0.0002116667 -0.0072351727
-0.019169664 -0.00021166667 -0.0072351727
-0.021377688 0.00010583339 -0.0072351731
-0.020775501 0.0011641666 -0.0017162071
-0.020775501 0.0011641665 -0.0022179312
-0.020775501 0.00074083335 -0.0022179312
-0.022782795 0.0011641667 -0.0017162071
-0.022782795 0.0011641666 -0.002217931
-0.022280971 0.0011641667 -0.002217931
-0.022280971 0.0011641667 -0.0012144828
-0.021658711 0.00016933339 -0.0072351717
-0.021779148 0.0011641666 -0.0017162069
-0.02177915 0.0011641667 -0.0012144827
-0.021277323 0.0011641667 -0.0012144828
-0.016760912 0.0011641666 -0.00021103467
-0.016649395 0.0001411111 0.0012829885
-0.017764559 0.00021166664 -0.00021103455
-0.019771852 0.0011641668 -0.0012144828
-0.018768206 0.0011641667 -0.00071275886
-0.018266384 0.0011641666 -0.00071275886
-0.018266385 0.0011641667 -0.00021103444
-0.018768206 0.0011641667 -0.0017162071
-0.017764559 0.0011641667 -0.00071275875
-0.019771852 0.0011641667 -0.00021103467
-0.023987172 0.00010583334 -0.0052282759
-0.023987172 -0.00021166667 -0.0057300003
-0.021664446 0.00015119041 -0.0052282759
-0.021377688 0.00010583331 -0.0052282759
-0.017262734 0.00074083329 -0.002217931
-0.017764561 0.0011641666 -0.0022179312
-0.017764561 0.00074083323 -0.002217931
-0.026395926 -0.00021166673 0.0007924136
-0.025291916 0.00021166669 -0.00021103455
-0.024288267 -0.00021166664 0.00079241383
-0.025291912 -0.0002645833 -0.00026120699
-0.025291914 -0.00079375005 -0.00026120711
-0.025291912 0.00079374999 -0.00026120711
-0.024790091 0.00079374999 -0.00026120699
-0.025793739 0.00079374999 -0.00026120699
-0.025291914 0.0011641667 -0.00021103455
-0.02729921 0.0011641666 -0.00021103455
-0.02425481 7.0555587e-05 0.001795862
-0.024288267 -0.00021166673 0.0017958618
-0.024254812 7.0555499e-05 0.0012941378
-0.023987172 -0.00021166664 0.001795862
-0.023987172 -0.00021166667 0.0012941378
-0.023987172 0.0001058334 0.0017958618
-0.021277323 -0.0011641666 -0.00021103455
-0.021678783 -0.00021166666 0.0007924136
-0.021377688 -0.00021166669 0.0007924136
-0.020775501 -0.0011641666 -0.00021103455
-0.024254812 -0.00021166669 0.0022641378
-0.023987172 -0.00021166666 0.0022975863
-0.025793739 -0.0011641667 -0.00021103467
-0.026295563 -0.0011641667 -0.00021103455
-0.025291914 -0.0011641667 -0.00071275875
-0.02920614 -0.0011641665 -0.00021103455
-0.027299209 -0.0011641667 -0.00021103455
-0.022782791 0.00021166664 -0.00021103467
-0.023987172 -0.00021166673 0.0007924136
-0.023987172 0.00010583339 0.0007924136
-0.021658713 0.0001693333 0.00079241383
-0.020273678 0.00079374993 -0.00026120699
-0.019169664 0.00021166663 0.0007924136
-0.021377688 0.00010583331 0.0012941378
-0.021664446 0.00015119044 0.0018101967
-0.021377688 0.00010583333 0.0017958618
-0.019771853 -0.0011641667 -0.0012144827
-0.019771853 -0.0011641665 -0.00071275886
-0.020273678 -0.0011641666 -0.00071275875
-0.019270029 -0.0011641666 -0.00071275886
-0.030209787 0.0011641667 -0.0017162072
-0.0012187148 0.00015119047 0.0017815271
0.032718904 0.0010583334 -0.00071275875
0.032176934 0.001143 -0.00071275875
0.03071161 0.0011430001 -0.0021777933
0.031715259 0.0011641667 -0.00071275875
0.026395926 -0.00021166667 -0.0072351727
0.024187902 -0.00021166669 -0.0077368971
0.024187902 -0.00021166666 -0.0032213796
0.025291914 -0.00074083341 -0.002217931
0.025291914 -0.0011641666 -0.002217931
0.027700668 -0.0011641667 -0.0012144828
0.026797384 -0.0011641667 -0.0017162072
0.02729921 -0.0011641667 -0.0017162072
0.029206136 0.00010583329 -0.0052282754
0.030209785 0.0011641667 -0.0017162071
0.023987172 0.0001058333 -0.0072351727
0.023987172 0.00010583331 -0.0062317238
0.023987172 0.00010583329 -0.0057300003
0.029206136 -0.00021166673 -0.0072351727
0.02920614 0.00010583329 -0.0072351727
0.026395926 -0.00021166673 -0.0067334482
0.026295563 -0.0011641668 -0.002217931
0.026295563 -0.0011641667 -0.0017162071
0.026697021 -0.00021166672 -0.0067334487
0.026697021 -0.00021166672 -0.0047265519
0.026697021 0.00010583339 -0.0047265519
0.026697023 0.0001058333 -0.0052282754
0.023987172 0.00010583339 -0.0052282759
0.024254814 7.0555587e-05 -0.0052282759
0.026395926 -2.0008883e-11 -0.0052282759
0.026395926 3.8198777e-11 -0.0072351727
0.026395926 -5.8207661e-11 -0.0067334482
0.027299209 0.00074083335 -0.002217931
0.029125845 -0.00021166666 -0.0032615173
0.029105775 -0.00021166666 -0.0037231036
0.025793739 0.00074083335 -0.002217931
0.026295563 0.00074083335 -0.002217931
0.031715255 0.00010583331 -0.004224828
0.031715255 -0.00021166666 -0.0077368971
0.032016352 -0.00021166663 -0.0077368971
0.032016352 -0.00021166666 -0.004224828
0.031715255 -0.00021166667 -0.0042248275
0.031715259 -0.00021166663 -0.0047265519
-0.00070255314 -0.0011641666 -0.0012144828
0.0027098476 0.00074083335 -0.0022179312
0.0027098476 0.00021166669 -0.002217931
0.001505471 0.0001058334 -0.0032213794
0.0032116715 0.00074083329 -0.002217931
-0.00070255314 -0.00074083323 -0.0022179314
0.0017062004 -0.0011641666 -0.0012144826
-0.00020072951 -0.0011641666 -0.0017162072
0.00020072947 -0.0011641667 -0.0012144828
0.00070255314 0.0011641666 -0.0022179312
0.00070255314 0.00074083323 -0.002217931
-0.0015054711 2.1827873e-11 -0.0080379313
-0.0062303343 0.00013025645 -0.0052282759
-0.0065237079 0.00010583337 -0.0047265519
-0.0065237079 -0.00021166664 -0.0047265519
-0.0062226136 -0.0002116667 -0.0047265519
-0.0065237079 -0.00021166673 -0.0042248275
-0.0037134953 -0.00021166666 -0.0067334487
-0.0062226141 -0.0011641667 -0.0017162071
-0.0057207895 -0.0011641666 -0.0022179312
-0.0062226136 -0.0011641666 -0.002217931
-0.0065237079 -0.00021166666 -0.0037231036
-0.0065237079 -0.00021166663 -0.0032213796
-0.0015054712 -0.0002116667 -0.0062317238
-0.0015054711 -0.00021166667 -0.0057300003
-0.001505471 0.00010583334 -0.0062317238
-0.0015054711 0.00010583333 -0.0057300003
-0.0012043767 -0.00021166669 -0.0057300003
-0.0012155285 0.00014111117 -0.0057411497
-0.0012043769 0.0001058334 -0.0052282759
-0.0047171423 -0.0011641666 -0.0017162071
-0.0042153187 -0.0011641667 -0.0017162071
-0.0047171423 -0.0011641667 -0.002217931
-0.0052189664 -0.00079375005 -0.00026120699
-0.0077280849 -0.0011641667 -0.0012144828
-0.0047171423 -0.00079375005 -0.00026120699
-0.002208024 -0.0011641667 -0.0012144828
-0.0037134958 -0.0011641667 -0.001716207
-0.0042153192 -0.0011641667 -0.0012144828
-0.0047171428 -0.0011641666 -0.0012144828
-0.010237202 0.0011641667 -0.0012144828
-0.010739028 0.0011641667 -0.0012144828
-0.010739026 0.0011641666 -0.0017162072
-0.0082299085 0.0011641667 -0.0017162071
-0.0092335558 0.0011641666 -0.0012144828
-0.0012187148 0.0001511905 -0.0062317248
-0.0062226141 0.0001058333 -0.0047265519
-0.0047171419 0.0011641667 -0.0017162071
-0.0042153187 0.0011641667 -0.002217931
-0.0047171423 0.0011641668 -0.002217931
-0.0032116715 0.0011641667 -0.0017162071
-0.0037134956 0.0011641667 -0.002217931
-0.0032116715 0.0011641667 -0.002217931
-0.0027098479 0.0011641667 -0.0022179312
0.00070255314 0.0011641667 -0.00021103455
0.00020072948 0.0011641666 -0.00021103455
0.00020072953 0.00079375011 -0.00026120699
-0.0037134956 0.0011641668 -0.00021103455
-0.0032116715 0.0011641667 -0.00021103467
-0.0027098474 0.0011641666 -0.00021103467
-0.0072262608 0.0011641667 -0.00021103455
-0.0062226136 0.0011641667 -0.00021103467
0.00572079 0.0011641667 -0.0017162072
0.00572079 0.0011641666 -0.0022179312
0.0052189659 0.0011641667 -0.002217931
0.0052189659 0.0011641666 -0.0017162071
0.0062226136 0.0011641667 -0.002217931
0.0062226141 0.0011641667 -0.0017162071
0.0052189659 0.0011641667 -0.0012144828
0.0047171419 0.0011641667 -0.0017162071
0.0047171428 0.0011641666 -0.002217931
0.0012187148 0.00015119041 -0.0072495067
0.0012043768 -0.00021166666 -0.0047265519
0.0015054712 -0.0002116667 -0.0052282759
0.0012043768 -0.00021166669 -0.0052282759
0.0015054711 0.00010583337 -0.0057300003
0.001505471 0.0001058333 -0.0052282759
0.0015054712 -0.00021166663 -0.0062317238
0.001505471 0.0001058334 -0.0062317238
0.0017062003 0.0011641667 -0.0012144827
0.0012043769 0.0011641667 -0.0017162071
0.0012043769 0.0011641666 -0.0012144828
-0.00020072941 0.00074083335 -0.002217931
-0.00070255314 0.0011641666 -0.002217931
-0.00020072953 0.0011641668 -0.002217931
-0.00070255314 0.00074083323 -0.0022179307
-0.0067244363 0.0011641666 -0.00071275886
-0.007728084 0.00074083335 -0.0022179307
-0.0072262618 0.00074083335 -0.002217931
-0.0088320971 0.00010583336 -0.0047265515
-0.0091331908 0.00010583329 -0.0037231036
-0.013749969 0.0011641666 -0.00071275886
-0.013248146 0.0011641667 -0.00071275875
0.00070255314 -0.0011641667 -0.0017162071
0.0015054711 0.00010583337 -0.0077368971
0.0015054711 0.00010583331 -0.0072351727
0.0037134953 0.00012254379 -0.0072351717
-0.014753616 -0.0011641667 -0.0017162071
-0.014753616 -0.0011641666 -0.0022179312
-0.014251792 -0.0011641667 -0.0022179312
-0.014251793 -0.0011641667 -0.0017162072
-0.014151428 -0.00021166664 -0.0052282759
-0.018902026 7.0555623e-05 -0.004224828
-0.016660547 -0.00021166664 -0.004224828
0.0062226141 0.00010583337 -0.0037231036
0.0027098476 0.0011641667 -0.0022179307
0.011341215 -0.00021166672 -0.0067334482
0.011541945 -0.00021166661 -0.0072351727
0.011341215 -0.00021166664 -0.0072351727
0.010739028 -0.0011641666 -0.0012144828
0.010237203 -0.0011641667 -0.0022179312
0.0097353794 -0.0011641667 -0.0022179307
0.010237203 -0.0011641667 -0.0017162071
0.0092335558 -0.0011641667 -0.002217931
0.0097353794 -0.0011641666 -0.0017162071
0.011240851 -0.0011641667 -0.00021103455
0.013850333 -0.00021166661 -0.0077368971
0.011541945 -0.00021166667 -0.0067334482
0.011541945 0.00010583329 -0.0067334487
0.01525544 -0.0011641666 -0.002217931
0.015757263 -0.0011641666 -0.002217931
0.016359452 7.0555587e-05 -0.0081048282
0.016560182 0.0001058333 -0.0081382766
0.016560182 -0.00021166661 -0.0081382766
0.016359452 -0.00021166667 -0.0080379313
0.0091331908 -0.00021166672 -0.0068337931
0.0091331908 -0.00021166673 -0.0064324141
0.0091331908 0.00010583334 -0.0072351727
0.011742674 -0.0011641667 -0.00071275875
0.011742674 -0.0011641666 -0.00021103455
0.012244497 -0.0011641667 -0.00071275875
0.012746321 -0.0011641667 -0.0012144826
0.01274632 -0.0011641667 -0.00071275886
0.014251792 -0.0011641667 -0.00021103467
0.014753616 -0.0011641667 -0.00071275875
0.014753616 -0.0011641666 -0.00021103455
0.01274632 -0.0011641667 -0.00021103467
0.013749968 -0.0011641667 -0.0017162072
0.013248146 -0.0011641666 -0.002217931
0.01374997 -0.0011641666 -0.0022179312
0.013248145 -0.0011641667 -0.00071275875
0.013248145 -0.0011641667 -0.00021103455
0.013248146 -0.0011641666 -0.0012144828
-0.0015054712 7.0555558e-05 0.0022641378
-0.001505471 0.00010583329 0.001795862
-0.0037134953 -0.00021166675 0.0025986205
-0.0037317439 9.6212068e-05 0.002288464
-0.0037937872 8.4666717e-05 0.0026387586
-0.011742674 -0.0011641667 -0.00071275886
-0.011240851 -0.0011641667 -0.00021103455
-0.011742675 -0.0011641668 -0.00021103455
-0.0091331908 -0.0002116667 0.0007924136
-0.010739028 -0.0011641666 -0.00021103455
-0.011274305 -0.00021166663 0.001327586
-0.010739028 -0.0011641666 -0.00071275886
-0.011541945 -0.00021166669 -0.0032213796
-0.0087317331 -0.0011641666 -0.00021103455
-0.011742676 -0.0011641667 -0.002217931
-0.01124085 -0.0011641667 -0.002217931
-0.01124085 -0.00021166669 -0.0062317248
-0.01124085 -0.00021166669 -0.0057300003
-0.013850334 -0.00021166672 -0.0042248275
-0.010739027 -0.0011641667 -0.0022179312
-0.010237203 -0.0011641668 -0.0017162071
-0.010237203 -0.0011641667 -0.0022179312
-0.010739026 -0.0011641666 -0.0017162069
-0.01124085 -0.0011641666 -0.0017162071
-0.011341215 -0.00021166672 -0.0077368971
-0.0042153192 -0.0011641666 -0.0022179312
-0.0088320971 0.00010583334 -0.0062317252
-0.0091331908 0.00010583336 -0.0057300003
-0.011274304 7.0555601e-05 -0.0062317243
-0.0088398177 0.00013025645 -0.0072506103
-0.01124085 -0.00021166673 -0.0052282759
-0.011541945 -0.00021166663 -0.0052282759
-0.0072262608 -0.00074083341 -0.0022179312
-0.0072262618 -0.00031750006 -0.002217931
-0.014251791 -0.0011641667 -0.0012144828
-0.014753616 -0.0011641666 -0.00071275886
-0.016359452 -0.00021166666 0.0007924136
-0.016359452 -0.00021166667 0.0012941378
-0.016259087 -0.0011641667 -0.00021103467
-0.012244496 -0.0011641667 -0.00021103455
-0.01274632 -0.0011641666 -0.00021103479
-0.013248146 -0.0011641667 -0.00021103455
-0.011541945 -0.00021166672 0.0012941378
-0.011541945 -0.00021166672 0.001795862
-0.011541945 0.00010583329 0.0017958618
-0.011301069 8.4666644e-05 0.0022775172
-0.011541945 0.00010583337 0.0022975863
-0.011260923 -0.00021166672 0.0018359997
-0.016359452 -0.00021166664 0.001795862
-0.01525544 0.00079374999 -0.00026120699
-0.014151427 0.00010583331 -0.0032213794
-0.014151427 0.00010583331 -0.0052282759
-0.026697021 -0.00021166663 -0.0080379313
-0.026697019 -0.00021166666 -0.0072351727
-0.028202491 -0.0011641667 -0.0017162071
-0.028704315 -0.0011641666 -0.0012144828
-0.027700668 -0.0011641666 -0.002217931
-0.027700668 -0.0011641666 -0.0017162072
-0.026797384 -0.0011641666 -0.0017162071
-0.019169664 -0.0002116666 -0.0077368971
-0.020775503 -0.0011641667 -0.00071275886
-0.020775501 -0.0011641667 -0.0012144828
-0.025291914 -0.0011641667 -0.002217931
-0.024790091 -0.0011641667 -0.0017162072
-0.024790091 -0.0011641666 -0.0022179307
-0.024288267 -0.0011641667 -0.002217931
-0.021678783 -0.00021166672 -0.0042248275
-0.021779148 -0.0011641667 -0.0012144828
-0.021277325 -0.0011641667 -0.0012144828
-0.02177915 -0.0011641667 -0.00071275875
-0.021377688 -0.00021166663 -0.0057300003
-0.018968936 -0.00021166672 -0.0072351727
-0.016660547 -0.00021166661 -0.0077368971
-0.018902026 7.0555565e-05 -0.0077368966
-0.018940261 9.0714282e-05 -0.0072351731
-0.019270027 -0.0011641666 -0.0017162071
-0.018266382 -0.0011641667 -0.0017162071
-0.017764561 0.00021166664 -0.0022179314
-0.016660547 -0.00021166661 -0.0067334482
-0.016660547 -0.00021166672 -0.0062317238
-0.018266382 -0.00079375005 -0.00026120699
-0.018266382 0.00074083335 -0.0022179312
0.0088320971 0.00010583333 -0.0057299999
0.0091331908 0.00010583331 -0.0052282759
0.008832098 0.00010583327 -0.0052282759
0.0072262608 0.0011641667 -0.0017162071
0.0072262618 0.0011641666 -0.0022179312
0.0077280831 0.0011641666 -0.002217931
0.0015054711 0.00010583329 -0.0080379313
0.0041149543 5.0931703e-11 -0.0076365522
0.0038138602 7.0555565e-05 -0.0081048282
0.00381386 -0.00021166666 -0.0080379313
0.010739026 0.00079374999 -0.00026120699
0.014151428 0.00010583329 0.0012941378
0.015255441 0.0011641666 -0.00021103455
0.011341215 -0.00021166663 0.0012941378
0.0091331908 -0.00021166675 0.001795862
0.0065237079 -0.0002116667 -0.0077368971
0.0088320971 -0.00021166661 -0.0052282759
0.0088320971 -0.00021166667 -0.0057300003
0.011541945 0.00010583334 -0.0072351727
0.021377688 -0.00021166667 -0.0080379313
0.02164533 0.0001058334 -0.0081048282
0.021678783 -0.00021166664 -0.0080379313
0.021377688 0.00010583334 -0.0080379313
0.025793737 0.00079374987 -0.00026120699
0.026697019 0.00010583329 -0.0067334482
0.02479009 0.0011641666 -0.0022179312
0.023987172 0.00010583337 -0.0047265519
0.02328462 0.0011641667 -0.0017162071
0.02328462 0.0011641667 -0.002217931
0.023786442 0.0011641666 -0.0022179312
0.023786442 0.0011641666 -0.0012144828
0.024288269 -0.0011641666 -0.0012144828
0.024790088 -0.0011641667 -0.0012144827
0.024790088 -0.0011641667 -0.0017162069
0.019771853 -0.0011641667 -0.002217931
0.020273676 -0.0011641667 -0.0017162071
0.019771853 -0.0011641667 -0.0017162072
0.015255441 -0.0011641667 -0.00021103479
0.015757263 -0.0011641666 -0.00021103467
0.015255441 -0.00079375011 -0.00026120699
0.016359452 -0.0002116667 0.0007924136
0.016259087 -0.0011641667 -0.00021103467
0.01676091 -0.0011641667 -0.00021103455
0.016359452 -0.00021166667 0.0012941378
0.015757265 -0.00079374987 -0.00026120699
0.014251793 0.0011641667 -0.00071275886
0.013749968 0.0011641666 -0.00021103455
0.013749969 0.0011641667 -0.00071275875
0.011742674 0.0011641666 -0.0017162071
0.011742674 0.0011641667 -0.0022179312
0.011240851 0.0011641667 -0.002217931
0.014151427 0.00010583334 -0.0072351727
0.013858056 0.00013025639 -0.0062162871
0.013850334 0.00010583337 -0.0052282768
0.014151428 0.0001058334 -0.0047265519
0.013850334 0.00010583334 -0.0047265515
0.013248146 0.0011641667 -0.00071275875
0.013248146 0.0011641666 -0.00021103455
0.010739027 0.0011641667 -0.002217931
0.010237203 0.00074083335 -0.002217931
0.011240851 0.00010583336 -0.0032213796
0.010237203 0.0011641667 -0.002217931
0.0097353794 0.00074083329 -0.002217931
0.0097353794 0.0011641668 -0.002217931
0.010237203 0.0011641668 -0.0017162072
0.012244497 0.0002116667 -0.00021103444
-0.02177915 0.0011641667 -0.00071275886
-0.022280971 0.0011641667 -0.00071275863
-0.022280971 0.0011641667 -0.00021103444
-0.023987172 0.00010583329 0.0022975863
-0.023987172 0.00010583329 0.0012941378
-0.02328462 0.0011641667 -0.00071275875
-0.022782795 0.0011641667 -0.00021103455
-0.022782795 0.0011641667 -0.00071275886
-0.024288265 0.0011641666 -0.00071275875
-0.024288267 0.0011641667 -0.0012144828
-0.022280971 -0.0011641667 -0.0012144828
-0.02328462 0.00079375005 -0.00026120699
-0.021377688 0.00010583337 0.0022975863
-0.021578418 -0.00021166666 0.0025986205
-0.021645328 -5.8207661e-11 0.0026655169
-0.021377688 -0.00021166663 0.0022975863
-0.021678783 0.00010583334 0.0022975863
-0.019169664 -0.00021166661 0.0022975863
-0.021678783 -0.0002116667 0.0017958618
-0.018968936 -0.00021166661 0.0017958618
-0.018918755 7.9374964e-05 0.0017958618
-0.019771853 -0.0011641666 -0.00021103467
-0.019169664 -0.00021166673 0.0007924136
-0.019771855 -0.00079374993 -0.00026120699
-0.026697019 0.00010583336 0.0012941378
-0.015757261 -0.00074083329 -0.0022179312
0.01124085 0.0011641667 -0.0017162071
0.011541945 0.00010583339 0.0022975863
0.0022080243 0.0011641666 -0.00021103455
0.0032116715 0.0011641666 -0.00021103467
0.0037134956 0.0011641667 -0.00021103455
0.0027098479 0.0011641667 -0.00071275886
0.0027098476 0.0011641666 -0.0012144828
0.0042153187 0.0011641666 -0.00021103455
0.0097353794 0.0011641666 -0.00021103455
0.010237203 0.00079375005 -0.00026120699
0.010237203 0.0011641665 -0.00071275875
0.010237202 0.0011641667 -0.0012144828
0.022280971 0.0011641667 -0.00021103455
0.022280971 0.0011641668 -0.00071275875
0.024288269 0.0011641667 -0.00021103455
0.024790088 0.00079374993 -0.00026120699
0.018266382 0.0011641665 -0.00071275875
0.018266382 0.0011641668 -0.0012144828
0.015757263 0.00079374999 -0.00026120699
0.01635945 0.0001058333 0.00079241383
0.019270027 0.0011641666 -0.00021103467
0.019771853 0.0011641666 -0.00071275886
0.022280971 0.0011641667 -0.0012144828
0.020775504 0.0011641667 -0.0012144828
0.020775499 0.0011641667 -0.0017162071
0.02177915 0.0011641668 -0.0017162069
0.021678783 0.00010583342 -0.0037231036
0.021678783 -0.00021166667 -0.0037231036
0.021678783 -0.00021166669 -0.0042248275
0.020273678 0.0011641667 -0.0017162072
0.021277323 0.0011641667 -0.002217931
0.020775503 0.0011641666 -0.002217931
0.020273676 0.0011641667 -0.002217931
0.019771853 0.0011641666 -0.0022179307
0.025291914 -0.0011641667 -0.0012144828
0.026295559 -0.0011641667 -0.0012144828
0.024790091 -0.00079374993 -0.00026120688
0.025291912 -0.00026458333 -0.00026120699
0.025291914 -0.00079375005 -0.00026120699
0.024790091 -0.0011641667 -0.00071275886
0.019169664 -1.6370905e-11 0.0025986205
0.019169664 -0.0002116666 0.0022975863
0.019169664 -0.00021166663 0.001795862
0.019236572 7.0555572e-05 0.0017958618
0.016359452 0.00010583331 0.0012941378
0.016652826 0.00013025641 0.000776976
0.014151428 0.00010583329 0.0022975863
0.014151428 -0.00021166667 0.0017958618
0.029206136 -0.0011641666 -0.00071275886
0.026784839 -0.0011509375 -0.00023612077
0.028704315 -0.0011641666 -0.00031137944
0.028202495 -0.00029633337 -0.00025117246
-0.025291914 -0.0011641667 -0.0012144828
-0.024790091 -0.0011641667 -0.00071275898
-0.029206136 0.00074083323 -0.0022179312
-0.028202495 0.0011641667 -0.0017162071
-0.01635945 0.00010583334 0.0007924136
-0.015255441 0.00021166663 -0.00021103455
-0.018266382 0.00079375005 -0.00026120688
-0.01826638 0.00021166667 -0.00021103455
-0.02920614 -0.0011641667 -0.0012144828
-0.016259087 -0.0011641666 -0.00071275863
-0.016760912 -0.0011641665 -0.0012144829
0.0041149543 -3.6379788e-11 -0.0057300003
0.0037385868 -0.00021166669 -0.0052282759
0.0082299085 -0.0011641667 -0.0012144828
0.0077280831 -0.0011641666 -0.0012144828
0.0077280835 -0.0011641666 -0.00071275875
0.0097353794 -0.0011641668 -0.00071275886
0.0062226136 -0.00021166661 -0.0067334482
0.0062226136 -0.00021166673 -0.0062317248
0.0065237079 -0.00021166673 0.0022975863
0.0062226136 -0.00021166672 0.0022975863
0.0065237079 -0.00021166673 0.001795862
0.0062226136 -0.0002116667 0.0017958618
0.0062337657 0.00014111106 0.0022864365
0.0047171423 -0.0011641665 -0.0022179312
0.00572079 -0.0011641667 -0.0017162072
0.0062226136 -0.0011641667 -0.0012144828
0.0057207895 -0.0011641666 -0.0012144827
0.0077280835 0.0011641666 -0.00071275875
0.0072262608 0.00079375005 -0.00026120711
0.0082299085 0.0011641667 -0.00071275875
0.0082299085 0.0011641667 -0.00021103455
0.0077280845 0.00021166667 -0.0022179307
0.0088320971 0.00010583331 -0.0032213794
0.0027098476 -0.0003175 -0.0022179312
0.0062303343 0.00013025642 -0.0062317252
0.0072262608 -0.00031750003 -0.002217931
0.0052189659 -0.00074083329 -0.002217931
0.0052189659 -0.0011641666 -0.002217931
0.003723532 0.00013758329 -0.0052483445
0.0041149543 4.7293724e-11 -0.0046262071
0.0027098474 -0.0011641666 -0.0012144828
0.0052189659 -0.0011641667 -0.0012144828
0.0032116715 0.00079375005 -0.00026120699
0.001505471 0.00010583333 0.0007924136
0.0041149543 7.0555492e-05 0.0018627584
0.0062426869 0.00016933332 0.0017958618
0.0052189659 0.00021166667 -0.00021103467
-0.029707963 -0.00074083323 -0.002217931
-0.031213431 -0.00074083335 -0.0021928449
-0.031213433 -0.0011641667 -0.0017162072
-0.030711612 -0.0011641667 -0.00071275863
-0.028704317 -0.00074083329 -0.002217931
-0.030209787 -0.00031750006 -0.0022179307
-0.0015054712 0.00010583333 0.0012941378
-0.001505471 0.00010583337 0.00079241383
-0.0037134956 -0.00021166663 0.0017958618
-0.003738587 9.2604219e-05 0.0017833189
-0.0065237079 -0.00021166664 0.0022975863
-0.0065237079 -0.00021166666 0.0012941378
-0.011541945 -0.00021166664 -0.0067334482
-0.013749969 -0.0011641667 -0.002217931
-0.013248146 -0.0011641667 -0.0022179312
-0.014151428 0.00010583337 -0.0077368966
-0.013850333 -0.00021166667 -0.0077368971
-0.013858055 0.00013025648 -0.0072506098
-0.0091331908 0.0001058334 -0.0032213796
-0.011541945 0.00010583329 -0.0052282759
-0.011274305 7.0555529e-05 -0.0047265519
-0.016660549 0.00010583342 -0.0047265519
-0.016359452 0.00010583339 -0.0047265519
-0.019771852 0.00074083335 -0.0022179312
-0.01892879 8.466663e-05 -0.0067535168
-0.01676091 0.0011641667 -0.00071275886
-0.023987172 0.0001058334 -0.0032213794
-0.026740033 9.0714311e-05 -0.0062317248
-0.028202491 0.00074083323 -0.002217931
-0.024254812 7.0555558e-05 -0.0052282759
-0.024254812 7.0555536e-05 -0.0047265519
-0.026395926 0.00010583334 -0.0052282759
-0.020273676 0.00074083323 -0.0022179312
-0.019169664 0.00010583334 -0.0037231036
-0.019169664 0.00010583336 -0.004224828
-0.019169664 -0.0002116666 -0.0042248275
-0.022280971 0.0011641666 -0.0017162071
-0.022280971 0.00074083329 -0.002217931
-0.021664446 0.00015119047 -0.0062460597
-0.016660547 -0.0002116667 0.00079241383
-0.017764557 -0.00026458327 -0.00026120688
-0.017262734 -0.00079374999 -0.00026120699
-0.018918755 7.9374957e-05 0.00079241383
-0.01892879 8.4666601e-05 0.001274069
-0.018768204 0.0011641667 -0.00021103455
-0.019270027 0.0011641667 -0.0012144828
-0.018266384 0.0011641667 -0.0017162071
-0.019169664 0.00018520837 0.0018209481
-0.019771853 0.00079374999 -0.00026120699
-0.024288267 -0.00021166664 -0.0072351731
-0.021678783 0.00010583331 -0.0047265519
-0.021678783 0.00010583336 -0.004224828
-0.021377688 -0.00021166666 -0.0032213796
-0.021377688 0.00010583339 -0.0037231036
-0.018968936 -0.00021166663 -0.0057300003
-0.018902026 7.0555616e-05 -0.0057299999
-0.018968936 -0.00021166669 -0.0062317238
-0.019169664 -0.00021166672 -0.0062317238
-0.019771853 -0.00074083329 -0.0022179314
-0.025793739 -0.00079374987 -0.00026120711
-0.024288267 -0.00021166664 0.0012941378
-0.025793741 0.0011579413 -0.00022283988
-0.021377688 0.0001058334 0.0007924136
-0.020775499 -0.00079374999 -0.00026120699
-0.023987172 -0.00021166664 0.0025986205
-0.025291914 -0.0011641666 -0.00021103455
-0.02479009 -0.0011641666 -0.00021103467
-0.028704315 -0.0011641666 -0.00021103455
-0.027700668 -0.0011641667 -0.00021103455
-0.026797382 -0.0011641666 -0.00021103455
-0.024254814 7.0555572e-05 0.0007924136
-0.02328462 -0.0011641666 -0.00021103455
-0.023786444 -0.0011641667 -0.00021103455
-0.023284618 -0.00079374999 -0.00026120699
-0.02328462 -0.0011641667 -0.00071275875
-0.024288267 -0.0011641667 -0.00021103455
-0.02328462 -0.00026458336 -0.00026120699
-0.021667631 0.00014111116 0.0013052871
-0.020273676 -0.0011641665 -0.0012144828
-0.029707961 0.0011641667 -0.0017162072
0.032718904 0.00074083335 -0.00031137944
0.032016352 0.00010583339 -0.0057300003
0.032016352 -0.00021166669 -0.0062317238
0.032016352 0.00010583337 -0.0062317238
0.030702488 0.00075045455 -0.0021996866
0.031213431 0.00074705883 -0.0022061258
0.031213431 0.0011641666 -0.00071275886
0.024187902 -0.00021166669 -0.0037231036
0.023987172 -0.00021166667 -0.0037231036
0.024187902 -0.00021166666 -0.0042248275
0.028202491 -0.0011641668 -0.0012144828
0.027700668 -0.0011641667 -0.0017162071
0.032016352 0.0001058334 -0.0067334482
0.031715259 0.00010583329 -0.0062317248
0.031715259 0.0001058333 -0.0067334482
0.031715259 0.0001058333 -0.0072351717
0.029206136 0.00010583334 -0.0057299999
0.028704315 0.0011641668 -0.002217931
0.02920614 0.00010583331 -0.0037231036
0.029206136 0.00010583337 -0.0042248275
0.031227769 0.0011490479 -0.0021605913
0.026697019 -0.00021166664 -0.0052282759
0.026697021 -0.00021166666 -0.0037231036
0.026697019 0.00010583337 -0.0042248284
0.02425481 7.0555594e-05 -0.0072351727
0.031715259 0.00010583333 -0.0047265515
0.032016352 0.0001058333 -0.0047265519
0.032016352 -0.00021166663 -0.0057300003
0.031715255 -0.00021166669 -0.0057300003
0.031715255 -0.0002116667 -0.0062317238
0.031715259 -0.00021166669 -0.0067334482
0.031715255 -0.00021166673 -0.0072351731
0.0022080243 0.00074083335 -0.0022179312
0.0022080238 0.00021166669 -0.0022179307
-0.00020072948 0.00021166666 -0.0022179307
0.00020072948 0.00074083335 -0.002217931
0.00020072953 0.0011641667 -0.002217931
-0.0012043768 -0.00021166667 -0.004224828
-0.0012043768 -0.00021166672 -0.0037231036
-0.0012043768 0.00010583329 -0.0037231036
-0.0015054712 -0.0002116667 -0.0042248275
-0.001505471 0.00010583336 -0.0052282759
-0.0012043769 -0.00021166669 -0.0052282759
-0.0065237079 -0.00021166664 -0.0052282759
-0.0065237079 -0.00021166661 -0.0057300003
-0.0037134956 -0.00021166673 -0.0072351727
-0.0057207891 -0.0011641667 -0.0012144828
-0.0037536419 8.4666615e-05 -0.0052282754
-0.0037536416 8.466663e-05 -0.0047265515
-0.0037134953 -0.0002116667 -0.0047265515
-0.0037134956 -0.0002116667 -0.0052282759
-0.0037134953 -0.00021166666 -0.0057299999
-0.0062226136 -0.00021166672 -0.0037231038
-0.0065237079 0.00010583337 -0.0037231038
-0.0037134956 -0.00021166661 -0.0032213791
-0.0032116715 -0.00074083341 -0.002217931
-0.0027098479 -0.00074083317 -0.002217931
-0.0052189659 -0.0011641667 -0.0017162071
-0.0052189659 -0.0011641667 -0.0022179312
-0.0072262618 -0.0011641667 -0.0012144828
-0.0022080243 -0.0011641665 -0.0017162071
-0.0088320971 -0.00021166663 0.00079241383
-0.0077280849 -0.00079374993 -0.00026120699
-0.0082299085 -0.00079375005 -0.00026120699
-0.0077280845 -0.0002645833 -0.00026120699
-0.0067244372 -0.0011641666 -0.0012144828
-0.0082299085 0.0011641667 -0.0012144828
-0.010237203 0.0011641667 -0.00071275886
-0.010739028 0.0011641666 -0.00071275875
-0.010237203 0.0011641667 -0.00021103455
-0.0097353794 0.0011641666 -0.00021103455
-0.010237203 0.00079375005 -0.00026120699
-0.010739026 0.00079374999 -0.00026120699
-0.0088398177 0.00013025639 0.000776976
-0.0077280849 0.00021166669 -0.00021103455
-0.0097353794 0.0011641666 -0.0012144828
-0.0017062005 0.0011641668 -0.0017162071
-0.0012043769 0.0011641666 -0.0022179312
-0.0017062002 0.0011641666 -0.002217931
-0.0022080243 0.0011641667 -0.002217931
0.0012187146 0.00015119041 -0.0062460601
0.0012043768 -0.00021166661 -0.0062317238
-0.001505471 0.00010583336 -0.0032213796
-0.002208024 0.00074083341 -0.002217931
-0.0052189659 0.0011641667 -0.0017162071
-0.0052189659 0.0011641667 -0.002217931
-0.00572079 0.0011641667 -0.002217931
-0.0047171419 0.0011641667 -0.00071275875
-0.0042153192 0.0011641666 -0.00071275875
-0.0042153187 0.0011641667 -0.0012144828
-0.0032116715 0.0011641667 -0.00071275875
0.0012043769 0.0011641666 -0.00021103455
0.0007025532 0.0011641668 -0.0017162071
0.00070255314 0.0011641667 -0.0012144828
0.0002007295 0.0011641667 -0.00071275863
-0.00020072953 0.0011641667 -0.00021103455
0.0002007294 0.0011641667 -0.0012144828
0.00020072953 0.00021166666 -0.00021103455
0.00070255314 0.00079374999 -0.00026120699
-0.0042153187 0.0011641666 -0.00021103455
-0.0022080243 0.0011641667 -0.00021103455
-0.0017062007 0.0011641667 -0.00071275886
-0.0022080243 0.0011641667 -0.00071275863
-0.0032116715 0.00079375011 -0.00026120711
-0.0027098476 0.00021166664 -0.00021103455
0.0062226136 0.0011641667 -0.0012144828
0.0042153187 0.0011641667 -0.0017162071
0.0047171433 0.0011641666 -0.0012144828
0.0042153192 0.00074083329 -0.0022179312
0.0012043769 0.00010583339 -0.0037231036
0.0015054711 0.0001058334 -0.0037231038
0.0012043768 0.00010583337 -0.0047265515
0.0012120972 0.00013025641 -0.0052437135
0.0015054711 -0.00021166661 -0.0047265519
0.0015054712 -0.00021166661 -0.0042248275
0.0012043768 -0.00021166667 -0.004224828
0.0012043768 -0.00021166669 -0.0037231036
0.0015054711 -0.00021166664 -0.0057300003
0.0017062005 0.0011641666 -0.0017162071
-0.0062226141 0.0011641666 -0.00071275886
-0.0091331908 0.00010583339 -0.0047265519
-0.0091331908 -0.0002116667 -0.004224828
-0.012746322 0.0011641667 -0.0012144828
-0.012244498 0.0011641666 -0.00071275875
-0.012746322 0.00079375005 -0.00026120699
-0.012746321 0.00021166673 -0.00021103455
-0.012244497 0.00079374999 -0.00026120699
-0.011541945 0.00010583336 0.0007924136
0.0015054712 -0.00021166666 -0.0037231036
0.0015054711 -0.00021166673 -0.0067334482
-0.014151428 -0.00021166669 -0.0067334482
-0.014151428 -0.00021166661 -0.0072351727
-0.014151428 0.0001058334 -0.0067334482
-0.014151428 -0.0002116667 -0.0047265519
-0.016359452 -0.00021166663 -0.0037231036
-0.01635945 0.00015119044 -0.0031927093
-0.016646208 -0.00024190478 -0.0031927098
0.0022080243 -0.00074083329 -0.0022179312
0.0062303343 0.00013025646 -0.0032059418
0.0057207895 0.00074083323 -0.0022179307
0.0041149543 7.0555579e-05 -0.003756552
0.0027098481 0.0011641667 -0.0017162072
0.0032116715 0.0011641665 -0.0012144828
0.011541945 -0.00021166664 -0.0047265519
0.011541945 0.00010583339 -0.004224828
0.011541945 -0.00021166673 -0.004224828
0.011341215 -0.00021166673 -0.0062317238
0.011541945 -0.00021166667 -0.0062317238
0.01124085 0.0001058333 -0.0072351727
0.011240851 -0.0011641665 -0.0012144828
0.010237202 -0.0011641667 -0.0012144828
0.011541945 -0.00021166667 -0.0077368971
0.012244497 -0.00074083329 -0.002217931
0.011541945 -0.00021166663 -0.0032213796
0.012746321 -0.00074083323 -0.0022179307
0.013850333 -0.00021166661 -0.0047265519
0.013850334 -0.0002116667 -0.0052282759
0.014151428 -0.00021166673 -0.0067334482
0.013850334 -0.0002116667 -0.0062317238
0.014151428 -0.00021166664 -0.0072351727
0.0091331908 0.00010583336 -0.0077368971
0.014151428 -0.00021166664 -0.0077368971
0.014753615 -0.0011641666 -0.0012144829
0.012244497 -0.0011641666 -0.0012144828
0.01374997 -0.0011641667 -0.00021103467
0.013850334 -0.00021166664 0.001795862
0.013850333 -0.00021166673 0.0012941378
0.012244497 -0.0011641666 -0.00021103467
0.012244498 -0.00079375005 -0.00026120699
0.013850333 -0.0002116667 0.0022975863
0.01274632 -0.00079374987 -0.00026120699
0.013248145 -0.00079375005 -0.00026120699
0.012244497 -0.00026458327 -0.00026120699
0.014251793 -0.0011641667 -0.0017162072
0.013749969 -0.0011641667 -0.00071275886
-0.011240851 -0.0011641666 -0.00071275886
-0.011240851 -0.0011641666 -0.0012144828
-0.013861486 0.00014111106 0.0022864365
-0.014151428 7.0555579e-05 0.0022641378
-0.010237203 -0.0011641666 -0.0012144828
-0.011260923 -0.00021166661 -0.0032615173
-0.010237203 -0.00031750006 -0.0022179312
-0.011541945 -0.0002116667 -0.0037231036
-0.013864672 -0.00024190477 -0.0031927095
-0.01274632 -0.0011641667 -0.0022179312
-0.0092335558 -0.0011641667 -0.00021103455
-0.0091331908 -0.00021166669 0.0012941378
-0.010237203 -0.00074083329 -0.002217931
-0.0097353794 -0.0011641667 -0.002217931
-0.011260923 -0.00021166672 0.0007924136
-0.010739026 -0.00079374987 -0.00026120711
-0.011274305 7.0555616e-05 0.0012941378
-0.010237203 -0.0002645833 -0.00026120699
-0.010237203 0.00021166663 -0.00021103455
-0.010739028 -0.00074083323 -0.0022179307
-0.0065237079 -0.00021166664 -0.0072351727
-0.0065237079 -0.00021166673 -0.0067334482
-0.0065237079 -0.00021166672 -0.0062317238
-0.011541945 -0.00021166672 -0.0057300003
-0.011742676 -0.0011641666 -0.0012144828
-0.014151428 -0.00021166666 -0.0037231036
-0.011541945 -0.00021166663 -0.0072351727
-0.0097353794 -0.0011641666 -0.0012144827
-0.0097353784 -0.0011641667 -0.0017162069
-0.0037134953 -0.00021166666 -0.0037231038
-0.0037536416 8.4666623e-05 -0.0037231036
-0.0037536419 8.4666644e-05 -0.0042248275
-0.0037134956 -0.00021166672 -0.004224828
-0.0088320971 -0.00021166667 -0.0062317238
-0.0091331908 -0.00021166675 -0.0057300003
-0.013749969 -0.0011641666 -0.0012144828
-0.01525544 -0.0002645833 -0.00026120699
-0.014151428 -0.00021166661 0.0007924136
-0.011541945 -0.00021166667 0.0022975863
-0.015757263 0.00079374993 -0.00026120699
-0.014753615 0.00079374999 -0.00026120699
-0.028202491 -0.0011641666 -0.0012144829
-0.02729921 -0.0011641667 -0.002217931
-0.028202491 -0.0011641666 -0.0022179312
-0.026797382 -0.0011641666 -0.0012144829
-0.021277323 -0.0011641667 -0.00071275875
-0.02177915 -0.0011641667 -0.00021103455
-0.020775501 -0.0011641667 -0.0017162072
-0.024288267 -0.0011641667 -0.0017162071
-0.023786442 -0.0011641668 -0.001716207
-0.024288267 -0.0002116667 -0.0042248275
-0.024288267 -0.00021166672 -0.0047265519
-0.024288267 -0.00021166672 -0.0037231036
-0.024254812 7.0555507e-05 -0.0037231038
-0.023987172 -0.00021166669 -0.0037231036
-0.021678783 -0.00021166667 -0.0047265519
-0.021779146 -0.0011641667 -0.002217931
-0.021678783 -0.00021166661 -0.0032213796
-0.021277325 -0.0011641667 -0.0017162071
-0.019169664 -0.00021166669 -0.0067334482
-0.018968936 -0.0002116667 -0.0067334482
-0.016359452 -0.00021166673 -0.0067334482
-0.016660547 -0.00021166673 -0.0057300003
-0.016359452 -0.00021166664 -0.0057300003
-0.014151428 -0.00021166666 -0.0057300003
-0.015757265 -0.00079374993 -0.00026120688
0.0077280835 0.0011641666 -0.0017162072
0.0082299085 0.0011641667 -0.002217931
0.0087317331 0.0011641667 -0.002217931
0.0082299085 0.00074083329 -0.002217931
0.0067244368 0.0011641665 -0.002217931
0.0065237079 0.00010583329 -0.0037231036
