# .PCD v0.7 - Point Cloud Data file format
VERSION 0.7
FIELDS x y z
SIZE 4 4 4
TYPE F F F
COUNT 1 1 1
WIDTH 1169
HEIGHT 1
VIEWPOINT 0 0 0 1 0 0 0
POINTS 1169
DATA ascii
0.024177037 0.00019538461 -0.0077813114
-0.021260738 -0.0011723078 -0.0011980329
-0.021731108 -0.0011723078 -0.0011980329
-0.020696294 -0.0011723078 -0.00072098372
-0.020225925 -0.0011723078 -0.0011980329
-0.014111111 -0.00019538461 -0.0077813119
-0.026717037 -0.00019538462 0.0012826229
-0.026679408 0.00017584617 0.0012826229
-0.029257037 0.00019538462 0.0012826229
-0.030197777 0.00078153849 -0.00033934426
-0.027751852 0.000801077 -0.00028209842
-0.027743299 0.0011634267 -0.00026128173
-0.027292551 0.0011665612 -0.0002551591
0.011665185 9.7692311e-05 -0.0077813119
0.028974814 -9.7692311e-05 -0.0080675408
0.02669993 -0.0001865035 -0.0077726389
0.026685679 0.00016282051 -0.0080993446
0.026685679 -0.00016282051 -0.0080993446
0.0015051852 9.7692304e-05 -0.0080675408
0.001222963 0.00016282051 -0.0081311474
0.0015051852 0.00019538461 -0.0077813119
0.0015051852 -9.7692318e-05 -0.0080675408
0.029257037 -0.0010746154 -0.00033934426
0.028786665 -0.0011723078 -0.00033934426
0.029727407 -0.0010746154 -0.00033934426
0.030254221 -0.00076200004 -0.00072098372
0.030229134 -0.00077068375 -0.00034994539
0.030280786 -0.00028158372 -0.00034495653
0.030291852 -0.00029307694 -0.00072098372
-0.029257039 0.00019538461 -0.0073042638
-0.024158221 -0.00013676923 -0.0081438692
-0.024177035 -0.00019538461 -0.0077813119
-0.023894815 -0.00016282051 -0.0077495086
-0.023894815 9.7692318e-05 -0.0080675408
-0.02413 0.00014653846 -0.008115246
0.023894815 0.00019538461 -0.0076859021
-0.030103702 0.0010746154 -0.00072098372
-0.029257037 0.0011723076 -0.00072098372
-0.029689776 0.0011527693 -0.0011980329
-0.029689772 0.0011527693 -0.0017704919
-0.028236696 0.00078905321 -0.00031732663
-0.028222224 0.0011723078 -0.00033934426
-0.028974814 9.7692311e-05 0.0012826229
-0.029257037 0.00019538462 0.0017596722
-0.029257039 0.00019538461 0.0022367216
-0.029257039 -0.00019538462 0.0022367216
-0.029257037 -9.7692311e-05 0.0026183608
-0.029257037 -0.00019538461 0.0017596722
-0.028974814 0.00014653846 0.0021890164
-0.021448888 -0.00019538461 0.0012826229
-0.021637037 -9.7692304e-05 0.0026183608
-0.028974814 9.7692311e-05 -0.0080675408
-0.026717037 -0.00019538461 -0.0077813114
-0.026717037 9.7692304e-05 -0.008115246
-0.026717037 -9.7692318e-05 -0.008115246
-0.0077140736 -0.0011723078 -0.00072098372
-0.0072437036 -0.0011723078 -0.0011980329
-0.0067733335 -0.0011723078 -0.00072098372
-0.0077140736 -0.0011723079 -0.00024393445
-0.0057385187 -0.0011723078 -0.0011980329
-0.0077140736 -0.0011723078 -0.0017704921
-0.0077140736 -0.0011723078 -0.0011980326
-0.0062088892 -0.0011723078 -0.0011980329
-0.0062088887 -0.0011723078 -0.0017704921
-0.0052681481 -0.0011723078 -0.0017704921
-0.0042333337 -0.0011723078 -0.00024393445
-0.003762963 -0.0011723078 -0.00072098372
-0.0015051852 -9.7692304e-05 0.0026183608
-0.0012417777 -0.00017584614 0.0026565245
-0.001254321 0.00016282051 0.0026183608
0.0097837038 -0.0011723078 -0.00024393445
0.010254074 -0.0011723078 -0.00024393445
0.010254074 -0.0011723076 -0.00072098372
0.010254074 -0.00080107694 -0.00028209842
0.026246669 -0.0011723078 -0.0011980329
0.025776297 -0.0011723078 -0.00033934438
0.026717035 -0.0011723078 -0.00033934426
-0.0082785189 -0.0011723078 -0.0011980331
-0.015240001 -0.0011723079 -0.0017704918
-0.01524 -0.0011723078 -0.0022475412
-0.014769629 -0.0011723078 -0.0017704918
-0.014299258 -0.0011723078 -0.002247541
-0.028222224 -0.0011723079 -0.0017704921
-0.027281484 -0.0011723078 -0.00072098372
-0.0042333337 -0.0011723078 -0.0011980329
-0.0042333337 -0.0011723078 -0.0017704918
-0.0047037029 -0.0011723078 -0.0017704918
-0.0057385191 -0.0011723078 -0.0017704921
-0.0090311104 0.00019538461 0.0017596722
-0.0087802466 0.00016282052 0.0022367216
-0.0087802475 0.00016282051 0.0017596722
-0.0090311104 0.00019538461 0.0022367216
-0.011382963 -0.00019538462 0.0022367216
-0.01141432 0.00016282051 0.0026183608
-0.011382963 0.00019538462 0.0022367216
-0.011665185 9.7692311e-05 0.0022367216
-0.01141432 -9.7692304e-05 0.0026819673
-0.0090938257 -0.00016282051 0.0017596722
-0.030254224 -0.00076199992 -0.0011980329
-0.030254224 -0.00076199992 -0.0017704919
-0.030103702 -0.0010746154 -0.0022475412
-0.030254221 -0.00076199992 -0.0022475412
-0.030103704 -0.0010746154 -0.0017704921
-0.029703887 -0.0011234616 -0.0022713935
-0.02775185 -0.00029307694 -0.002247541
-0.02822222 0.00029307694 -0.002247541
-0.028222224 -0.00029307691 -0.002247541
-0.028974814 -9.7692304e-05 -0.0032970493
0.016557036 -0.00016282051 -0.0081311474
0.016368888 0.00019538461 -0.0080675408
0.016557036 0.00019538461 -0.0080675408
0.016368888 -9.7692318e-05 -0.0080675408
0.023894815 -9.7692311e-05 -0.0080675408
0.026734142 0.0001865035 -0.007772638
0.026717037 0.00019538462 -0.0073042619
0.026717037 -0.00019538462 -0.0073042628
0.011382963 -9.7692304e-05 0.0026183608
0.011382964 0.00019538461 0.0022367216
0.011477036 0.00019538461 0.0026183608
0.011665185 9.7692318e-05 0.0022367216
0.0063029635 0.00019538465 0.0022367216
0.0063343211 9.7692318e-05 0.0026819673
0.0063343211 -9.7692311e-05 0.0026819673
0.0090311104 0.00019538461 -0.0042511476
0.0090311104 0.00019538461 -0.0047281971
0.0090311104 -0.00019538461 -0.0047281971
0.012229631 -0.0011723079 -0.0017704921
0.011759258 -0.0011723076 -0.002247541
0.011288889 -0.0011723078 -0.002247541
0.01222963 -0.0011723078 -0.002247541
0.014111111 9.7692318e-05 0.0026183608
0.014111111 -9.7692318e-05 0.0026183608
0.013922962 9.7692311e-05 0.0026183608
-0.02173111 -0.0011723076 -0.00072098372
0.011382963 0.00019538464 -0.0077813119
-0.028974814 -9.7692311e-05 0.0012826229
-0.028974814 9.7692311e-05 0.0017596722
-0.028974814 0.00019538461 0.00071016385
-0.028240141 0.00028377291 -0.00029845443
-0.029257039 -0.00019538462 0.0012826229
-0.030238096 0.00026516482 -0.00033934438
-0.026679408 0.00017584614 0.00071016385
0.028974814 9.7692311e-05 -0.0080675408
0.028974814 9.7692311e-05 -0.0077813119
0.028974814 -9.7692311e-05 -0.0077813119
0.0012417778 -0.00013676923 -0.0081438692
0.00094074069 9.7692311e-05 -0.0080675408
0.0012229629 -0.00019538464 -0.0077813119
0.0027281481 -0.0011723079 -0.0017704921
0.0031985184 -0.0011723079 -0.0011980329
0.0016933333 -0.0011723079 -0.0011980329
0.0022577778 -0.0011723078 -0.0011980329
0.0027281484 -0.0011723078 -0.0011980329
-0.021731112 0.00019538464 0.0017596722
-0.021722557 0.0001865035 0.0022193743
-0.023894815 9.7692311e-05 0.0012826229
-0.023894815 9.7692304e-05 0.0017596722
-0.024177035 0.00019538462 0.0012826229
-0.023706667 0.0011723078 -0.00024393445
-0.023236297 0.0011723078 -0.00024393445
-0.02220148 -0.0011723078 -0.00072098372
-0.022201482 -0.0011723078 -0.0011980329
-0.027294919 -0.00079549447 -0.00029845431
-0.023894815 -0.00019538462 0.00071016385
-0.022765929 -0.000801077 -0.00028209842
-0.023236297 -0.00080107694 -0.00028209842
-0.022765927 -0.0011723078 -0.00024393445
-0.022765925 -0.00026865385 -0.00026778691
-0.023894815 -0.00017584614 0.0021985574
-0.023894815 0.00017584614 0.0021985574
-0.023894815 -0.00019538461 0.0017596722
-0.024177037 -0.00019538462 0.0017596722
-0.024177035 -0.00019538461 0.0022367216
-0.024177035 0.00019538462 0.0022367216
0.029257037 0.00019538461 0.0017596722
0.030229134 0.00077068369 -0.00034994539
0.029257037 0.00019538461 0.0012826229
0.030291852 0.00029307691 -0.00033934426
-0.026699932 0.00018650349 -0.007772638
-0.028974814 0.00014653846 -0.0073042624
-0.029257037 0.00019538462 -0.006731804
-0.021448888 -0.00019538461 -0.0077813119
-0.021637037 -9.7692318e-05 -0.0081629511
-0.021448888 -9.7692311e-05 -0.0081629511
0.02173111 0.00019538461 -0.0077813123
0.021684075 -0.00014653846 -0.008115246
0.021637037 0.00016282051 -0.0081311474
0.013922962 0.00016282051 -0.0081311474
0.013922962 -9.7692311e-05 -0.0080675408
0.014111111 -0.00019538461 -0.0080675408
0.014111111 9.7692304e-05 -0.0080675408
0.0090311104 0.00019538461 -0.0080675408
0.008762328 0.00018142855 -0.0077676824
0.0087959254 0.00014653846 -0.008115246
0.0090311104 0.00019538461 -0.0077813114
0.0087959263 -0.00014653846 -0.008115246
0.0090311104 -0.00019538461 -0.0080675408
0.0090311104 -0.00019538461 -0.0077813114
0.006585185 0.00019538461 -0.0077813114
0.0063029625 0.00016282051 -0.0081311474
0.006302963 0.00019538462 -0.0077813114
0.006585185 9.7692304e-05 -0.0080675408
-0.028207749 -0.00078905321 -0.00031732663
-0.02775185 0.0011723076 -0.00072098372
0.029257037 0.00019538462 -0.0073042624
0.029257039 -0.00019538459 -0.0073042628
0.029257039 0.00019538462 -0.006731804
0.029257039 -0.00019538461 0.00071016385
-0.030103704 0.0010746154 -0.0017704921
-0.030103702 0.0010746154 -0.0022475412
-0.026679408 0.00017584614 0.0017596722
-0.026679406 0.00017584614 0.0022367216
-0.026717037 -0.00019538464 0.0022367216
-0.030291852 -0.00029307694 -0.002247541
-0.030291852 -0.00029307691 -0.0017704922
-0.028786665 0.0011723078 -0.00033934438
-0.025776297 0.0011723078 -0.00024393445
-0.026717037 0.0011723078 -0.00072098372
-0.02673151 0.0011647929 -0.00031732663
-0.029225677 9.7692311e-05 0.0026819673
-0.028212322 -0.00029307694 -0.00032427954
-0.02775185 -0.0011723076 -0.00072098372
-0.021637037 0.00016282051 -0.0081311474
-0.018814815 -9.7692311e-05 -0.0077813119
-0.019097036 0.00016282051 -0.0081311474
-0.019097038 -9.7692311e-05 -0.0081629511
-0.019097038 -0.00019538464 -0.0077813119
0.014111111 0.00019538461 -0.0077813114
0.016368888 0.00019538461 -0.0077813114
0.008762328 -0.00018142855 -0.0077676824
0.0090311104 0.00019538461 -0.0073042624
-0.019097038 -0.00019538462 0.0022367216
-0.019097038 9.7692311e-05 0.0026183608
-0.019097038 -9.7692318e-05 0.0026183608
-0.029257039 -0.00019538461 -0.0052052462
-0.029257037 0.00019538461 -0.0047281971
-0.029257039 0.00019538462 -0.0052052462
-0.029257039 0.00019538462 -0.005777705
-0.029257037 -0.00019538462 -0.0057777055
-0.019097036 0.00019538462 -0.0052052462
-0.019097038 -0.00019538461 -0.005777705
-0.019097036 0.00019538461 -0.0057777055
-0.016368888 -9.7692304e-05 -0.0080675408
-0.016368888 9.7692311e-05 -0.0080675408
-0.016557036 9.7692311e-05 -0.0081629511
-0.016557036 -0.00016282051 -0.0081311474
-0.021448888 -9.7692311e-05 0.0026183608
0.030103704 -0.0010746154 -0.0011980329
-0.024145678 -9.7692318e-05 0.0026819673
-0.023236295 -0.0011723078 -0.00024393445
-0.02220148 -0.0011723078 -0.00024393445
-0.024741484 -0.0011723078 -0.00024393445
-0.024177035 -0.00019538462 0.00071016385
-0.02521185 -0.0011723078 -0.00024393445
-0.026717037 -0.0011723078 -0.00024393445
-0.026246669 -0.0011723078 -0.00024393445
-0.026717037 -0.0011723078 -0.00072098372
-0.023706667 -0.0011723078 -0.00024393445
-0.0065851854 -0.00017584614 0.0021985574
-0.006302963 -9.7692318e-05 0.0026183608
-0.0063029635 -0.00019538461 0.0022367216
-0.0063970368 9.7692311e-05 0.0026183608
-0.006302963 -0.00019538464 0.0017596722
-0.006585185 -0.00019538461 0.0017596722
-0.020696294 -0.0011723078 -0.00024393445
-0.0072437036 -0.0011723078 -0.00024393445
-0.0052681481 -0.0011723078 -0.00024393445
-0.0057385191 -0.0011723078 -0.00024393445
-0.0057385187 -0.0011723076 -0.00072098372
0.01128889 -0.0011723078 -0.00024393445
0.012794074 -0.0011723079 -0.00024393445
0.0097837029 -0.00080107694 -0.00028209842
0.0087802457 -0.00016282051 0.00071016385
0.0077140741 -0.00026865385 -0.00026778691
0.0077140746 -0.00080107694 -0.00028209842
0.008278518 -0.00080107694 -0.00028209842
0.0090311104 -0.00019538461 0.00071016385
0.0092192581 -0.0011723079 -0.00024393445
0.0090311104 0.00019538462 0.00071016385
0.0090311104 0.00019538461 0.0012826229
0.0090311104 0.00019538461 0.0017596722
0.0090311104 -0.00019538461 0.0017596722
0.0087574413 0.00018650349 0.0012826229
0.027281485 -0.0011723078 -0.00033934438
0.026717037 -0.0011723079 -0.0022475412
0.02728148 -0.0011723078 -0.00072098372
0.028974814 -9.7692304e-05 0.0022367216
0.026705969 -0.00018963803 0.0022254968
0.026622962 -9.7692304e-05 0.0026183608
0.026717037 0.00019538465 0.0022367216
0.026622962 9.7692304e-05 0.0026183608
0.025776297 -0.00078153843 -0.00033934426
0.025225293 -0.0011583518 -0.00029845443
0.025776295 -0.0011723078 -0.0011980329
0.02427111 -0.0011723079 -0.00024393445
-0.0052681481 -0.0011723078 -0.0011980331
-0.0057385187 -0.00080107694 -0.00028209842
-0.0067733331 -0.0011723078 -0.0011980329
-0.010724444 -0.0011723078 -0.002247541
-0.011288889 -0.0011723078 -0.002247541
-0.010724444 -0.0011723079 -0.0011980329
-0.012229629 -0.0011723078 -0.0022475412
-0.009783702 -0.0011723078 -0.002247541
-0.0077140736 -0.0011723078 -0.0022475412
-0.0082785189 -0.0011723078 -0.002247541
0.0062088887 -0.0011723078 -0.0017704921
0.0052681486 -0.0011723078 -0.0022475414
0.0062088887 -0.0011723078 -0.002247541
0.0057385182 -0.0011723076 -0.002247541
0.0067733321 -0.0011723079 -0.0017704921
0.0077140741 -0.0011723078 -0.0022475412
0.0072437036 -0.0011723078 -0.0017704918
0.0077140746 -0.0011723079 -0.0017704921
0.0072437031 -0.0011723076 -0.0022475412
0.0072437041 -0.0011723078 -0.00024393445
0.0047037033 -0.0011723078 -0.0017704921
0.003762963 -0.0011723079 -0.00024393445
0.0022577776 -0.0011723079 -0.0022475412
-0.013860247 0.00016282051 -0.0077813114
-0.011382963 -0.00019538461 -0.006731804
-0.011665185 -0.00019538462 -0.0073042624
-0.011665185 -0.00019538462 -0.0067318031
-0.014769629 -0.0011723076 -0.0022475412
-0.01411111 -0.00019538462 -0.0073042628
-0.013837441 -0.00018650349 -0.0072869156
-0.027281484 -0.0011723078 -0.0011980329
-0.02775185 -0.0011723078 -0.0011980329
-0.028786665 -0.0011723078 -0.0022475412
-0.028786667 -0.00078153843 -0.0022475412
-0.028222224 -0.0011723078 -0.002247541
-0.029257039 -0.00019538461 -0.006731804
-0.029257037 0.00019538461 -0.006254754
-0.028786663 -0.0011723078 -0.0017704921
-0.028974814 -9.7692318e-05 -0.0062547545
-0.028974814 -9.7692304e-05 -0.005777705
-0.019755552 -0.0011723078 -0.0011980331
-0.003762963 -0.0011723078 -0.0011980329
-0.0022577778 -0.0011723079 -0.00024393445
-0.0022577778 -0.0011723079 -0.0017704921
-0.027281484 -0.0011723078 -0.0017704918
-0.02728148 -0.0011723078 -0.0022475414
-0.02775185 -0.0011723076 -0.002247541
-0.02775185 -0.0011723078 -0.0017704918
-0.0087802457 0.00016282054 0.0012826229
-0.0090311104 0.00019538462 0.0012826229
-0.0090938266 -0.00016282051 0.0012826229
-0.0090579884 -0.00018142855 0.0022094613
-0.0090311104 9.7692311e-05 0.0026183608
-0.008762328 -0.00018142855 0.0017733021
-0.006585185 0.00019538461 0.0017596722
-0.013264445 -0.0011723078 -0.0011980329
-0.012794073 -0.0011723078 -0.00072098372
-0.012794074 -0.0011723078 -0.0011980329
-0.011288888 -0.0011723078 -0.0017704921
-0.01222963 -0.0011723078 -0.0011980329
-0.029257037 -0.0010746154 -0.0017704918
-0.030103704 -0.0010746154 -0.0011980329
0.030291853 0.00029307697 -0.0011980329
0.030254224 0.00076199998 -0.00072098372
0.030291855 0.00029307694 -0.0017704924
0.030291855 0.00029307688 -0.002247541
0.030291852 0.00029307691 -0.00072098372
0.029257037 -0.0011397436 -0.0022157377
-0.029257039 -0.00019538462 -0.0032970489
-0.030238096 0.00026516482 -0.002247541
-0.029257039 0.00019538462 -0.0032970489
0.010254074 -0.0011723076 -0.0022475412
0.010254074 -0.0011723078 -0.0017704921
0.0097837038 -0.0011723078 -0.002247541
0.016368888 -0.00019538461 -0.0077813114
0.016637672 -0.00018142858 -0.007767682
0.024177035 -0.00019538461 -0.0077813114
0.01524 -0.0011723078 -0.0022475412
0.014769629 -0.0011723079 -0.0017704918
0.015804444 -0.0011723078 -0.002247541
0.019755553 -0.0011723079 -0.0011980331
0.019191111 -0.0011723078 -0.00024393445
0.020696294 -0.0011723078 -0.00024393445
0.019191111 -0.0011723078 -0.002247541
0.020696295 -0.0011723078 -0.002247541
0.019755555 -0.0011723078 -0.0022475412
0.027751848 -0.0011723078 -0.0017704918
0.02775185 -0.0011723078 -0.0011980329
0.027281484 -0.0011723078 -0.0017704921
-0.011288889 -0.0011723078 -0.00072098372
-0.010724444 -0.0011723078 -0.00072098372
-0.010724444 -0.0011723078 -0.00024393445
0.029257039 -0.00019538462 -0.006731804
0.029257037 -0.00019538461 -0.0052052462
0.029257039 -0.00019538462 -0.0057777055
0.029257039 0.00019538462 -0.0052052462
0.029257039 -0.00019538462 -0.0047281971
0.028974814 -9.7692304e-05 -0.005777705
0.029257039 0.00019538461 -0.005777705
0.029539259 9.7692311e-05 -0.0025337706
0.029257039 -0.00019538461 -0.0032970493
0.030254221 0.00076199998 -0.0022475407
0.029257037 0.00019538462 -0.0037740986
0.029257037 0.00019538462 -0.0042511481
0.029257037 -0.00019538462 -0.0042511476
0.030103702 0.0010746154 -0.0022475412
0.029689778 0.0011527693 -0.0022475412
0.003762963 -0.0011723078 -0.0011980331
0.003762963 -0.0011723078 -0.00072098372
0.0027281484 -0.0011723079 -0.00024393445
0.0038005926 -0.00017584613 0.0022367216
0.0037629625 0.00019538462 0.0022367216
0.0038570368 9.7692311e-05 0.0026183608
0.0077140736 -0.0011723078 -0.00024393445
0.0072437031 -0.00080107694 -0.00028209842
0.013922962 -9.7692311e-05 0.0026183608
0.006585185 -0.00019538461 0.00071016385
0.009219259 -0.0011723078 -0.002247541
0.008748889 -0.0011723076 -0.002247541
0.0090311104 -0.00019538461 -0.0037740986
0.0090311104 -0.00019538462 -0.0042511476
0.0087574413 -0.0001865035 -0.0042511476
0.0087802475 -0.00016282051 -0.0047281967
0.0087802466 -0.00016282052 -0.0052052457
0.0090311104 -0.00019538461 -0.0052052462
0.0087574413 -0.0001865035 -0.0057950523
0.0090311104 -0.00019538461 -0.0032970493
0.008748889 0.0011723076 -0.0022475412
0.0090311104 0.00019538462 -0.0032970493
0.009219259 0.0011723079 -0.0022475412
0.0090311104 0.00019538461 -0.0037740986
0.016368888 -0.00019538462 -0.0032970493
-0.020225925 -0.0011723076 -0.00072098372
0.011396402 -0.00018142858 -0.0077676815
-0.011665185 -9.7692311e-05 -0.0080675408
-0.011401777 -0.00017584614 -0.0081057046
-0.011401777 0.00013676923 -0.0081438692
-0.011665185 9.7692311e-05 -0.0080675408
-0.011382964 -0.00019538462 -0.0073042624
-0.011382963 0.00019538461 -0.0073042638
-0.011382963 -0.00019538462 -0.0077813119
-0.026717037 -0.00019538461 0.0017596722
-0.028974814 -9.7692318e-05 0.0022367216
-0.011382963 0.00019538462 -0.0077813119
-0.011665185 9.7692318e-05 -0.0077813119
-0.019097038 0.00019538462 -0.0077813119
-0.021448888 -0.00019538461 -0.0073042624
-0.021448888 0.00019538461 -0.0073042624
0.028974814 -9.7692304e-05 -0.0073042624
-0.023894815 9.7692318e-05 0.00071016385
-0.009219259 0.0011723078 -0.00072098372
-0.0097837029 0.0011723078 -0.00072098372
-0.0097837038 0.0011723078 -0.00024393445
-0.0065851854 0.00017584614 0.0021985574
-0.022765927 -0.0011723078 -0.00072098372
-0.023706667 -0.0011723078 -0.0011980329
-0.023236295 -0.0011723078 -0.0017704921
-0.023236295 -0.0011723078 -0.0011980329
-0.028974814 0.00014653846 -0.0052529513
-0.026693517 -0.00018317309 -0.0052052462
-0.026679408 0.00017584617 -0.0052052462
-0.026699932 -0.00018650349 -0.0047368705
-0.026699932 0.0001865035 -0.0047195237
-0.028974814 9.7692311e-05 -0.0067318031
-0.026693517 0.00018317308 -0.006719877
-0.026699932 0.00018650349 -0.0062460811
-0.026717037 -0.00019538462 -0.0062547536
-0.028974814 0.00016282051 -0.0077495086
-0.026705967 0.00018963801 -0.0073042624
0.021448888 0.00019538461 -0.0077813119
0.019078221 0.00013676923 -0.0081438692
0.018814815 9.7692311e-05 -0.0080675408
0.019097038 -9.7692304e-05 -0.0081629511
0.019097038 -0.00019538464 -0.0077813119
0.019097036 0.00019538462 -0.0077813114
0.018814815 0.00016282051 -0.0077495086
0.006585185 -9.7692311e-05 -0.0080675408
0.0063217776 -0.00017584614 -0.0081057046
-0.02728148 0.0011723078 -0.00072098372
0.0097837038 0.0011723078 -0.0022475414
0.0097837029 0.00078153843 -0.0022475412
0.010254074 0.00078153849 -0.0022475412
0.029257039 0.00019538461 0.00071016385
0.02974188 0.00078905321 -0.00031732663
0.029698459 0.0011347339 -0.00027329137
0.030103702 0.0010746154 -0.00033934426
0.029257039 -0.00019538462 0.0012826229
0.028974814 -9.7692318e-05 0.0012826229
0.029689778 0.0011527693 -0.00072098372
-0.029257037 0.0011397436 -0.0022157377
0.029257037 0.00019538462 -0.0077813114
-0.030197779 0.00078153843 -0.0017704918
0.029257037 0.0011723076 -0.0022475412
0.028786665 0.0011723078 -0.0022475412
-0.024177037 0.00019538462 0.0017596722
-0.024177035 -0.00019538462 0.0012826229
-0.009219259 0.0011723078 -0.00024393445
0.0088429628 -9.7692318e-05 0.0026183608
0.0088429628 0.00019538461 0.0026183608
0.0090311104 0.00019538461 0.0022367216
0.0065851854 0.00017584614 0.0021985574
0.006585185 -0.00019538461 0.0021413118
-0.016368888 0.00019538462 0.0012826229
-0.016368888 0.00019538462 0.00071016385
-0.016651111 0.00019538462 0.00071016385
-0.016651111 0.00019538461 0.0012826229
-0.010254074 0.0011723078 -0.00024393445
-0.028786665 0.0011723078 -0.00072098372
-0.024177037 9.7692318e-05 0.0026183608
-0.028222224 -0.0011723078 -0.0011980329
-0.018814815 -0.00019538461 -0.0073042624
-0.019097036 -0.00019538462 -0.0073042624
-0.019097036 0.00019538462 -0.006254754
-0.018814815 0.00014653846 -0.0058254097
0.013828888 0.00019538461 -0.0077813119
0.0090311104 -0.00019538462 -0.0073042624
0.0087574413 -0.00018650349 -0.0067144572
0.0090311104 -0.00019538462 -0.0067318031
0.0090311104 0.00019538462 -0.006731804
0.0087677045 -0.00017584614 -0.0073042624
-0.0077140746 0.0011723079 -0.0011980329
-0.0077140741 0.0011723078 -0.00072098372
-0.0072437036 0.0011723078 -0.0011980329
-0.0077140736 0.0011723078 -0.0017704921
-0.0067733326 0.0011723078 -0.0017704921
-0.0062088887 0.0011723078 -0.0011980329
-0.0062088887 0.0011723078 -0.0017704921
0.010724443 -0.0011723078 -0.00072098372
0.010724444 -0.00080107694 -0.00028209842
-0.019097038 0.00019538461 0.00071016385
-0.019097036 -0.00019538461 0.00071016385
-0.019097036 -0.00019538461 0.0012826229
-0.021448888 0.00019538462 -0.006731804
-0.019097036 0.00019538461 -0.0032970493
-0.019097038 -0.00019538461 -0.0032970493
-0.019097036 0.00019538464 -0.0037740986
-0.021699755 -0.00016282051 -0.006254755
-0.021699753 -0.00016282052 -0.005777705
-0.021448888 -0.00019538461 -0.0062547545
-0.021448888 -0.00019538461 -0.0067318031
-0.021448888 0.00019538461 -0.0062547545
-0.021448888 -0.00019538462 -0.0032970493
-0.020225925 -0.00029307691 -0.002247541
-0.020696294 -0.00029307691 -0.0022475412
-0.021448888 0.00019538461 -0.0032970493
-0.02220148 -0.00080107694 -0.00028209842
-0.025776297 -0.0011723078 -0.00024393445
-0.027269721 -0.0011723078 -0.00026778691
-0.011759259 -0.0011723078 -0.00024393445
-0.011759259 -0.0011723078 -0.0011980329
-0.011382963 -0.00019538461 0.0017596722
-0.023706665 -0.0011723078 -0.00072098372
-0.024271112 -0.0011723078 -0.0011980329
-0.02427111 -0.0011723078 -0.00072098372
-0.013734814 -0.0011723078 -0.00024393445
-0.012794074 -0.0011723078 -0.00024393445
-0.020225925 -0.0011723078 -0.00024393445
-0.019755555 -0.0011723078 -0.00024393445
-0.020225925 -0.00080107694 -0.00028209842
-0.020696294 -0.00080107694 -0.00028209842
-0.015804445 -0.0011723078 -0.00024393445
-0.016745185 -0.0011723079 -0.0017704921
-0.016745185 -0.0011723078 -0.00024393445
-0.016368888 -0.00019538462 0.00071016385
0.019755552 -0.0011723078 -0.00024393445
0.016368888 -9.7692311e-05 0.0026183608
0.016368888 9.7692304e-05 0.0026183608
0.016557036 9.7692304e-05 0.0026183608
0.016557036 -9.7692311e-05 0.0026183608
0.016368888 -0.00019538461 0.0022367216
-0.0063029635 -0.00019538462 0.00071016385
-0.0062088892 -0.0011723078 -0.00024393445
-0.0062088892 -0.0011723078 -0.00072098372
-0.0067733331 -0.0011723078 -0.00024393445
-0.006585185 -0.00019538462 0.0012826229
-0.0037629625 -0.0011723078 -0.00024393445
-0.0031985184 -0.0011723078 -0.00024393445
-0.0047037033 -0.0011723078 -0.00024393445
-0.0037740301 -0.00018963801 0.0022254968
-0.0036688887 -9.7692311e-05 0.0026183608
-0.0038570368 9.7692304e-05 0.0026183608
0.010724445 -0.0011723078 -0.00024393445
0.011382964 -0.00019538462 0.0012826229
0.011361253 0.00018786982 0.0012826229
0.011382964 -0.00019538462 0.0017596722
0.009783702 -0.0011723078 -0.00072098372
0.0097837038 -0.0011723078 -0.0017704921
0.0087677035 0.00017584616 0.0022176397
0.0012229629 -0.0011723078 -0.0011980329
0.00075259252 -0.0011723078 -0.00072098372
0.00075259269 -0.0011723078 -0.0011980331
-0.0027281484 -0.0011723078 -0.0011980329
-0.0022577776 -0.0011723078 -0.0011980329
-0.003762963 -0.00019538461 0.00071016408
-0.0037629625 -0.00019538462 0.0012826229
-0.0027281484 -0.0011723078 -0.00024393445
0.028222224 -0.0011723078 -0.00072098372
0.028222224 -0.0011723078 -0.00033934438
0.027751852 -0.0011723076 -0.00033934438
0.028974814 9.7692318e-05 0.0022367216
0.028974814 9.7692304e-05 0.0017596722
0.026717035 -0.00019538462 0.0012826229
0.026717035 -0.00019538461 0.0017596722
0.026717037 0.00019538461 0.0012826229
0.026246667 -0.0011723076 -0.00072098372
-0.015240001 -0.00026865382 -0.00026778691
-0.013922962 -9.7692318e-05 0.0026183608
-0.013922962 9.7692311e-05 0.0026183608
-0.013837441 -0.0001865035 0.0022193743
-0.008278518 -0.0011723078 -0.0017704921
-0.009219259 -0.0011723078 -0.00072098372
-0.00921926 -0.0011723078 -0.0011980331
-0.009219259 -0.0011723078 -0.00024393445
-0.0072437041 -0.00080107694 -0.00028209842
-0.0097837038 -0.0011723078 -0.0017704921
-0.009219259 -0.0011723078 -0.0022475412
-0.010254074 -0.0011723076 -0.0022475412
-0.011665185 9.7692318e-05 -0.0032970493
-0.011382964 0.00019538461 -0.0032970493
-0.011665185 9.7692311e-05 -0.0037740986
-0.01175926 0.0011723076 -0.002247541
-0.011382964 0.00019538461 -0.006731804
0.0038005922 -0.00017584616 -0.0077813128
0.0038570368 -9.7692311e-05 -0.0081629511
0.0038167194 0.00015351649 -0.0081220614
0.0037629625 0.00019538461 -0.0077813123
0.013734814 -0.0011723079 -0.0017704921
0.0052681486 -0.0011723078 -0.0017704921
0.0057385177 -0.0011723078 -0.0011980329
0.0062088887 -0.0011723078 -0.0011980329
0.0062088892 -0.0011723078 -0.00072098372
0.0067733331 -0.0011723078 -0.0011980329
0.0067733326 -0.0011723078 -0.00072098372
0.0062088887 -0.0011723078 -0.00024393445
0.0037629625 -0.0011723078 -0.002247541
0.003762963 -0.0011723078 -0.0017704921
0.0047037038 -0.0011723078 -0.0022475412
-0.026246665 -0.0011723079 -0.0017704918
-0.02521185 -0.0011723078 -0.00072098372
-0.026246665 -0.0011723078 -0.0011980329
0.012794073 -0.0011723078 -0.002247541
0.013734815 -0.0011723078 -0.0022475412
0.010724444 -0.0011723079 -0.002247541
0.008278518 -0.0011723078 -0.002247541
0.0097837038 -0.0011723078 -0.0011980329
0.010724445 -0.0011723078 -0.0017704921
0.010254074 -0.00078153849 -0.002247541
0.010724444 -0.00078153843 -0.0022475412
0.00018814813 -0.0011723079 -0.0017704921
-0.0002822222 -0.0011723078 -0.0011980329
0.00018814813 -0.0011723078 -0.0011980329
-0.0002822222 -0.0011723078 -0.0017704918
-0.00075259263 -0.0011723078 -0.0017704921
0.00018814813 -0.0011723078 -0.00072098372
-0.0012229629 -0.0011723078 -0.0011980329
-0.0002822222 -0.0011723076 -0.0022475412
0.00018814813 -0.0011723078 -0.002247541
-0.00075259252 -0.0011723078 -0.00072098372
0.0027281481 -0.0011723076 -0.0022475412
0.0031985184 -0.0011723078 -0.002247541
0.0022577778 -0.0011723078 -0.0017704921
0.0015051852 -0.00019538461 -0.0077813114
0.0016933331 -0.0011723078 -0.002247541
0.0016933333 -0.0010746154 -0.0025337706
0.0037629625 0.00019538461 -0.0073042628
-0.02173111 -0.00019538462 -0.0077813114
-0.021699751 -0.00016282054 -0.0073042628
-0.011665185 -0.00019538461 -0.0077813114
-0.013837442 -0.0001865035 -0.0032970493
-0.012794074 -0.0011723078 -0.0022475412
-0.013264444 -0.0011723076 -0.002247541
-0.013264444 -0.00078153843 -0.002247541
-0.011665185 -0.00019538461 -0.0062547545
-0.011665185 9.7692311e-05 -0.0062547545
-0.011665185 -0.00019538461 -0.0057777055
-0.013828889 -0.00019538462 -0.006731804
-0.026717035 -0.00019538462 -0.0073042628
-0.022765925 -0.0011723078 -0.0017704918
-0.022201482 -0.0011723078 -0.0017704918
0.02822222 -0.0011723078 -0.0022475412
0.028769558 -0.0011634267 -0.0022388676
0.028786663 -0.0011723079 -0.0017704921
0.028222224 -0.0011723078 -0.0017704921
0.028222224 -0.0011723078 -0.0011980329
-0.02822222 -0.00078153849 -0.002247541
-0.028974814 -9.7692311e-05 -0.0042511476
-0.029257037 -0.00019538462 -0.006254754
-0.028974814 -9.7692311e-05 -0.0067318031
-0.029257037 -0.00019538462 -0.0073042624
-0.018814815 -0.00019538461 -0.0052052462
-0.019097038 -0.00019538462 -0.0052052462
-0.019097038 -0.00019538462 -0.006731804
-0.018814815 -0.00019538461 -0.0032970493
-0.019191111 -0.0011723078 -0.002247541
-0.018814815 -0.00019538461 -0.005777705
-0.019755553 -0.0011723078 -0.0017704918
-0.01872074 -0.0011723079 -0.0017704921
-0.0037629625 -0.0011723078 -0.0017704921
-0.0031985182 -0.0011723078 -0.0017704921
-0.0042333333 -0.0011723076 -0.002247541
-0.0031985184 -0.0011723078 -0.002247541
-0.0042333333 -0.0011723076 -0.00072098372
-0.02775185 0.00029307691 -0.00033934438
-0.020225925 0.00029307691 -0.002247541
-0.020696294 0.00029307691 -0.002247541
-0.0090311104 0.00019538462 0.00071016385
-0.0090781469 -0.00017096155 0.00071016385
-0.010254074 0.00026865385 -0.00026778691
-0.0097837048 0.00026865388 -0.00026778691
-0.0090311104 -9.7692318e-05 0.0026183608
-0.0088429628 -0.00019538461 0.0026183608
-0.0088429628 9.7692311e-05 0.0026183608
-0.0087677035 -0.00017584617 0.0022367216
-0.013734814 -0.0011723078 -0.0017704921
-0.013734815 -0.0011723078 -0.0022475412
-0.011288889 -0.0011723078 -0.0011980331
-0.011759259 -0.0011723078 -0.0017704921
-0.011759258 -0.0011723076 -0.0022475412
-0.022765927 0.00026865385 -0.00026778691
-0.023236293 0.00026865382 -0.00026778691
-0.029257037 -0.0010746154 -0.0011980329
-0.029727409 -0.0010746154 -0.0017704918
-0.028974814 9.7692318e-05 -0.0032970493
-0.029257037 0.00019538464 -0.0037740986
-0.028974814 9.7692304e-05 -0.0042511476
-0.028974814 9.7692318e-05 -0.0037740986
-0.028222226 0.00078153843 -0.002247541
-0.028222224 0.0011723078 -0.002247541
-0.026717035 -0.00019538461 -0.0042511481
-0.02775185 -0.00078153843 -0.002247541
0.0016933331 -0.0011723078 -0.00072098372
0.001222963 -0.0011723076 -0.00072098372
0.0015051852 -0.00017584614 0.0021985574
0.001222963 -9.7692311e-05 0.0026183608
0.0015051852 9.7692311e-05 0.0026183608
0.0012315151 -0.0001865035 0.0022193743
0.0097837038 0.00029307691 -0.002247541
0.010254074 0.00029307691 -0.002247541
0.010254074 -0.00029307688 -0.002247541
0.011326518 0.00020189745 -0.0052179676
0.011665185 9.7692304e-05 -0.0047281971
0.011326519 0.00019538461 -0.0047472785
0.011665185 9.7692311e-05 -0.0052052462
0.013860245 -0.00016282051 -0.005777705
0.013860246 -0.00016282051 -0.0052052457
0.01411111 -0.00019538461 -0.0052052462
0.011382964 -0.00019538462 -0.0047281971
0.011312407 0.00019538461 -0.0042511481
0.011665185 9.7692311e-05 -0.0042511476
0.015804445 -0.0011723078 -0.0017704921
0.015240002 -0.0011723078 -0.0017704921
0.020225925 -0.00078153843 -0.0022475412
0.020225925 -0.0011723076 -0.0022475412
0.026705969 0.00018963803 -0.0067205788
0.026717037 -0.00019538462 -0.0067318031
0.026246667 -0.0011723078 -0.0017704921
0.025776295 -0.0011723078 -0.002247541
0.026246667 -0.0011723076 -0.002247541
0.023894815 -0.00019538461 -0.0077813114
0.02521185 -0.00078153843 -0.00033934438
0.025211848 -0.0011723078 -0.00072098372
0.024731031 -0.001161453 -0.00030754099
0.02521185 -0.0011723078 -0.0011980329
0.02775185 -0.0011723076 -0.002247541
0.02728148 -0.0011723078 -0.002247541
0.029257037 -0.00019538462 -0.006254754
0.029257037 0.00019538462 -0.0032970493
0.029257037 -0.00019538462 -0.0037740986
0.028974814 -9.7692311e-05 -0.0037740986
0.028974814 -9.7692304e-05 -0.0047281971
0.029257037 0.00019538464 -0.0047281967
0.028974814 9.7692304e-05 -0.0052052462
0.028974814 9.7692311e-05 -0.0047281971
0.0022577778 -0.00080107694 -0.00028209842
0.0022577776 -0.0011723078 -0.00024393445
0.00018814813 -0.0011723078 -0.00024393445
0.0022577776 -0.0011723078 -0.00072098372
0.0027281484 -0.0011723076 -0.00072098372
0.00127 0.00014653846 0.0026660655
0.0038570368 -9.7692318e-05 0.0026183608
0.0042333333 -0.0011723076 -0.00072098372
0.0042333337 -0.0011723078 -0.00024393445
0.0082785189 -0.0011723078 -0.00024393445
0.011665185 9.7692311e-05 0.0017596722
0.011665185 -9.7692304e-05 0.0022367216
0.010254074 0.00080107694 -0.00028209842
0.010254074 0.0011723078 -0.00024393445
0.011382963 0.00019538461 0.0017596722
0.011665185 9.7692311e-05 0.0012826229
0.006585185 -0.00019538461 0.0012826229
0.006585185 0.00019538461 0.00071016385
0.0063029635 -0.00019538461 -0.0032970493
0.006302963 -0.00019538462 -0.0037740986
0.0042333333 -0.00078153843 -0.0022475412
0.0042333333 -0.0011723076 -0.0022475412
0.0047037038 -0.00078153843 -0.002247541
0.0097837038 -0.00026865388 -0.00026778691
0.0077140736 0.00026865385 -0.00026778691
0.0090311104 -0.00019538462 -0.005777705
0.0097837029 -0.00078153849 -0.0022475412
0.008762328 0.00018142858 -0.0037604682
0.0087802475 -0.00016282051 -0.0037740984
0.016368888 0.00019538461 -0.0032970493
0.016368888 -0.00019538461 -0.0037740986
0.016368888 0.00019538461 -0.0037740986
-0.01411111 0.00019538461 -0.0073042624
-0.022765927 0.00080107694 -0.00028209842
-0.022765921 0.0011723076 -0.00024393445
-0.02173111 0.00019538462 0.00071016385
-0.028974814 -9.7692304e-05 0.0017596722
-0.02173111 0.00019538464 -0.0077813114
-0.02173111 0.00019538462 -0.0073042624
-0.021448888 0.00019538461 -0.0077813119
-0.018814815 9.7692318e-05 -0.0052052462
-0.01411111 -0.00019538461 -0.006731804
-0.013828889 -0.00019538461 -0.006254754
-0.016368888 0.00019538461 -0.0077813114
-0.016651111 0.00019538461 -0.0077813114
-0.018814815 0.00016282051 -0.0077495086
0.028974814 9.7692304e-05 -0.0073042624
0.008762328 0.00018142855 -0.0062683835
0.0087574413 0.0001865035 -0.0067491503
0.00094074069 0.00019538461 -0.0077813119
0.001222963 0.00019538461 -0.0077813114
0.001222963 -0.00019538462 -0.0073042624
-0.023894815 -0.00017584614 0.0012826229
-0.02173111 -0.00019538461 0.00071016385
-0.0062088892 0.0011723078 -0.00072098372
-0.0067733326 0.0011723078 -0.00072098372
-0.009219259 0.0011723078 -0.0011980329
-0.028974814 9.7692311e-05 -0.0062547545
-0.026679408 0.00017584614 -0.0057777041
0.024177037 0.00019538461 -0.0073042638
0.02173111 0.00019538461 -0.0073042638
0.021448888 -9.7692311e-05 -0.0080675408
0.0087574413 0.0001865035 -0.0032797018
0.0082785189 0.0011723078 -0.002247541
0.0077140741 0.0011723078 -0.0022475412
0.0087488899 0.0011723078 -0.0017704921
0.008278518 0.0011723078 -0.0017704921
0.008748889 -0.00019538461 -0.006254754
0.0087574413 0.0001865035 -0.005777705
0.0090311104 -0.00019538461 -0.006254754
0.006585185 -0.00019538462 -0.0073042624
0.0063029635 -0.00019538462 -0.0067318031
0.0063029635 -0.00019538461 -0.0073042624
0.006585185 -0.00019538462 -0.006731804
0.006585185 -0.00019538461 -0.0077813114
-0.028786663 0.0011723078 -0.0017704921
-0.028222224 0.0011723078 -0.0017704921
-0.027281478 0.0011723078 -0.0011980331
0.011382964 -0.00019538461 -0.0032970489
0.015240001 0.0011723078 -0.002247541
0.01524 0.00078153843 -0.002247541
0.015804444 0.0011723079 -0.002247541
0.015804444 0.00078153843 -0.0022475412
0.028974814 9.7692304e-05 -0.005777705
0.029257037 -0.00019538464 0.0017596722
0.030254221 0.00076199992 -0.0011980329
-0.028786665 0.0011723078 -0.0022475412
-0.028786667 0.00078153843 -0.0022475412
-0.030197777 0.00078153849 -0.002247541
-0.029727405 0.00078153843 -0.0022475412
-0.030238096 0.00026516482 -0.0017704921
0.023706667 0.00078153843 -0.0022475412
0.024177035 0.00019538461 -0.0032970493
0.023236297 0.00078153849 -0.002247541
0.023706665 0.0011723078 -0.0022475412
0.029257035 0.0011723076 -0.00033934438
0.019191111 0.0011723078 -0.00072098372
0.018720739 0.0011723078 -0.00024393445
0.01872074 0.0011723076 -0.00072098372
0.019755555 -0.0011723078 -0.0017704921
-0.026236214 0.001161453 -0.00030754099
-0.025776295 0.00080107694 -0.00028209842
-0.02521185 0.00026865388 -0.00026778691
-0.025776297 0.0011723078 -0.00072098372
-0.008748889 0.0011723078 -0.00024393445
-0.008278518 0.0011723078 -0.00024393445
-0.0097837038 0.00080107694 -0.00028209842
-0.0067733326 0.0011723078 -0.00024393445
-0.0072437036 0.0011723078 -0.00024393445
-0.0062088892 0.0011723078 -0.00024393445
-0.0072437036 0.0011723076 -0.00072098372
-0.0077140736 0.0011723079 -0.00024393445
0.0087488899 0.0011723078 -0.00024393445
0.0092192609 0.0011723078 -0.00024393445
0.0097837038 0.0011723079 -0.00024393445
0.0097837038 0.0011723078 -0.00072098372
0.0097837029 0.00080107694 -0.00028209842
0.0090311104 -0.00019538461 0.0022367216
-0.024271108 0.0011723078 -0.00024393445
-0.024271114 0.0011723078 -0.00072098372
-0.024741484 0.0011723078 -0.00024393445
-0.025211852 0.0011723078 -0.00024393445
-0.024271112 0.0011723078 -0.0011980329
-0.023706667 0.0011723078 -0.0011980329
-0.020225925 0.00080107694 -0.00028209842
-0.019755553 0.00080107694 -0.00028209842
-0.019755555 0.0011723078 -0.00024393445
-0.019191111 0.0011723078 -0.00024393445
-0.021731108 0.00019538462 0.0012826229
-0.021448888 0.00019538461 0.00071016385
-0.021731108 0.0011723078 -0.00024393445
-0.016557036 9.7692311e-05 0.0026183608
-0.016632296 0.00017584619 0.0022176397
-0.016368888 0.00019538462 0.0022367216
-0.016368888 9.7692311e-05 0.0026183608
-0.016557036 -9.7692318e-05 0.0026183608
-0.018814815 9.7692311e-05 0.0022367216
-0.01825037 0.0011723078 -0.00024393445
-0.018814815 9.7692311e-05 0.00071016385
-0.018250372 0.00080107694 -0.00028209842
-0.01778 0.00080107694 -0.00028209842
-0.0067733335 0.0011723078 -0.0022475412
-0.014769629 0.0011723078 -0.00024393445
-0.015240001 0.0011723078 -0.00072098372
-0.015239999 0.0011723078 -0.00024393445
-0.01411111 0.00019538462 0.0012826229
-0.01429926 0.0011723078 -0.00024393445
-0.013734814 0.0011723078 -0.00024393445
-0.028222226 0.0011723078 -0.00072098372
-0.02665432 -9.7692318e-05 0.0026819673
-0.021637037 9.7692311e-05 0.0026183608
-0.026622962 9.7692304e-05 0.0026183608
-0.025776295 0.00026865385 -0.00026778679
-0.029703889 0.0011234616 -0.0022236884
-0.028786663 -0.0011723078 -0.0011980329
-0.025211854 0.0011723078 -0.0022475412
-0.025776295 0.0011723078 -0.002247541
-0.025776295 0.00078153843 -0.0022475414
0.006585185 0.00019538461 0.0017596722
-0.003786481 0.00018317308 0.0022367216
-0.016651111 -0.00019538464 -0.0077813114
-0.016651111 0.00019538464 -0.006254754
-0.016368888 0.00019538462 -0.005777705
-0.016651111 0.00019538461 -0.0057777055
-0.016368888 0.00019538461 -0.0062547545
-0.019097038 -0.00019538464 -0.0062547545
0.016368888 -0.00019538461 -0.005777705
0.016368888 -0.00019538461 -0.0052052462
0.016651111 -0.00019538462 -0.0052052466
0.016651111 -0.00019538461 -0.005777705
0.016651111 -0.00019538462 -0.006254754
0.016368888 -0.00019538461 -0.006254754
0.016368888 -0.00019538461 -0.0047281971
0.016651111 -0.00019538462 -0.0042511486
0.016368888 -0.00019538462 -0.0042511476
0.02126074 0.0011723078 -0.002247541
0.021637037 0.00019538461 -0.0037740986
0.02173111 0.0011723076 -0.0022475412
0.016651111 -0.00019538461 -0.0067318031
0.016642557 0.0001865035 -0.0067144562
0.016368888 -0.00019538462 -0.006731804
0.0087574394 0.00018650349 -0.0072869151
-0.0072437036 0.0011723078 -0.0017704918
-0.0067733331 0.0011723078 -0.0011980329
-0.0082785189 0.0011723078 -0.00072098372
-0.0082785189 0.0011723078 -0.0017704921
-0.019097036 0.00019538461 0.0012826229
-0.018814815 9.7692311e-05 0.0012826229
-0.019755555 -0.00080107694 -0.00028209842
-0.02173111 0.00019538461 -0.0032970493
-0.021637037 0.00068384613 -0.0025337706
-0.02220148 0.00078153843 -0.002247541
-0.022765927 0.00078153843 -0.002247541
-0.022765927 0.00029307691 -0.002247541
-0.02173111 0.00019538462 -0.0057777055
-0.02173111 0.00019538462 -0.006254754
-0.021448888 0.00019538462 -0.005777705
-0.021448888 0.00019538461 -0.0037740986
-0.023894815 -0.00019538461 -0.0052052462
-0.024177035 -0.00019538462 -0.0047281971
-0.023894815 -0.00019538461 -0.0047281971
-0.023894815 9.7692304e-05 -0.0047281971
-0.021699755 -0.00016282052 -0.006731804
-0.021722557 -0.0001865035 -0.0042511476
-0.021699755 -0.00016282051 -0.0047281967
-0.021731112 0.00019538464 -0.0047281971
-0.023894815 9.7692318e-05 -0.0042511476
0.028786661 0.00078153843 -0.00033934438
0.028222224 0.00078153843 -0.00033934438
0.028974814 9.7692304e-05 0.00071016385
-0.01222963 -0.0011723078 -0.00024393445
-0.011288888 -0.0011723078 -0.00024393445
-0.011382963 -0.00019538462 0.0012826229
-0.012229629 -0.0011723078 -0.00072098372
-0.008748889 -0.0011723078 -0.00024393445
-0.008748889 -0.0011723076 -0.00072098372
-0.008748888 -0.00019538461 0.00071016385
-0.010254074 -0.0011723078 -0.00024393445
-0.010254074 -0.00080107694 -0.00028209842
-0.010724444 -0.00080107694 -0.00028209842
-0.011382964 0.00019538461 0.0017596722
-0.011759258 0.0011723078 -0.00024393445
-0.011382964 0.00019538462 0.0012826229
-0.011288887 0.0011723076 -0.00024393445
-0.010724444 0.0011723079 -0.00024393445
-0.024271108 -0.0011723078 -0.00024393445
-0.013734814 -0.0011723078 -0.0011980331
-0.02126074 -0.0011723078 -0.00024393445
-0.019755553 -0.0011723078 -0.00072098372
-0.014769629 -0.0011723078 -0.00024393445
-0.014299258 -0.0011723078 -0.00072098372
-0.014299259 -0.0011723078 -0.00024393445
-0.016274815 -0.0011723078 -0.00024393445
-0.01524 -0.0011723078 -0.00072098372
-0.014769629 -0.0011723078 -0.0011980329
-0.019097038 -0.00019538462 0.0017596722
-0.019097038 0.00019538462 0.0017596722
-0.016642557 -0.00018650349 0.0022193743
-0.014111111 -0.00019538461 0.0017596722
-0.014111111 -0.00017584614 0.0021985574
-0.014111111 0.00019538461 0.0017596722
0.015240001 -0.0011723078 -0.00072098372
0.015804444 -0.0011723078 -0.0011980329
0.015804445 -0.0011723078 -0.00072098372
0.016745184 -0.0011723078 -0.00024393445
0.016274814 -0.0011723078 -0.00024393445
0.015240001 -0.0011723078 -0.0011980329
0.018720739 -0.0011723078 -0.00024393445
0.020225925 -0.0011723078 -0.00024393445
-0.0063029635 -0.00019538462 0.0012826229
-0.0052681481 -0.00080107694 -0.00028209842
-0.006585185 -0.00019538461 0.00071016385
-0.0015051852 -0.00017584614 0.0021985574
-0.001222963 -0.00019538461 0.0022367216
-0.0027281481 -0.00026865385 -0.00026778691
-0.0027281484 0.00026865385 -0.00026778691
0.011759259 -0.0011723078 -0.00024393445
0.014299259 -0.0011723078 -0.00024393445
0.014769629 -0.0011723078 -0.00024393445
0.01411111 -0.00019538462 0.0022367216
0.015240001 -0.0011723078 -0.00024393445
0.015804445 -0.0011723076 -0.00024393445
0.008748889 -0.0011723078 -0.0017704918
0.008748889 -0.0011723078 -0.0011980329
0.008278518 -0.0011723078 -0.00072098372
0.009219259 -0.0011723078 -0.00072098372
0.008762328 0.00018142859 0.0017733023
0.0087802466 -0.00016282051 0.0017596722
0.0082785171 0.0011723079 -0.00024393445
0.0087677035 0.00017584616 0.00069108198
-0.0031985184 -0.0011723078 -0.00072098372
-0.0031985184 -0.0011723078 -0.0011980329
-0.0027281484 -0.0011723078 -0.0017704918
-0.0027281484 -0.0011723076 -0.002247541
0.026717037 -0.0011723078 -0.00072098372
0.026717037 -0.0011723078 -0.0011980329
0.028974814 9.7692318e-05 0.0012826229
0.028974814 -9.7692311e-05 0.0017596722
0.026236214 -0.001161453 -0.00030754099
-0.015240001 0.00080107694 -0.00028209842
-0.015804444 0.00080107694 -0.00028209842
-0.014111111 -9.7692304e-05 0.0026183608
-0.013264445 -0.0011723078 -0.00024393445
-0.004139259 -9.7692311e-05 -0.0052052462
-0.0037629625 -0.00019538462 -0.0052052457
-0.0037629625 -0.00019538462 -0.0047281967
-0.0031985184 -0.00078153843 -0.002247541
-0.0072437036 -0.0011723078 -0.0017704921
-0.0072437036 -0.0011723076 -0.002247541
-0.008748888 -0.0011723078 -0.0017704918
-0.008748889 -0.0011723076 -0.0022475412
-0.010254074 -0.0011723078 -0.0011980329
-0.0097837038 -0.0011723078 -0.0011980329
-0.0072437036 -0.0011723076 -0.00072098372
-0.0077140746 -0.000801077 -0.00028209842
-0.0082785189 -0.0011723078 -0.00024393445
-0.008278518 -0.00080107694 -0.00028209842
-0.010254074 0.00029307694 -0.0022475412
-0.0090781469 -0.00017096155 -0.0033209017
-0.010254073 -0.00029307691 -0.0022475412
-0.010254074 0.00078153849 -0.0022475412
-0.0097837048 0.00029307691 -0.002247541
-0.0097837038 -0.00078153843 -0.002247541
-0.011382964 0.00019538462 -0.0052052462
-0.011382963 0.00019538461 -0.0047281971
-0.011665185 9.7692311e-05 -0.0047281971
-0.011665185 9.7692311e-05 -0.0067318031
-0.013860245 0.00016282051 -0.0062547545
-0.013860246 0.00016282051 -0.005777705
-0.01411111 0.00019538462 -0.005777705
-0.013860246 0.00016282051 -0.0067318031
0.014299259 -0.0011723078 -0.0022475412
0.0052681486 -0.0011723078 -0.0011980331
0.0047037029 -0.0011723078 -0.0011980329
0.0057385191 -0.0011723078 -0.00024393445
0.0067733326 -0.0011723078 -0.00024393445
0.0072437041 -0.0011723076 -0.00072098372
0.0042333337 -0.0011723078 -0.0017704918
-0.026717037 -0.0011723078 -0.0011980329
-0.026717037 -0.0011723078 -0.002247541
-0.026717037 -0.00019538462 -0.0037740984
-0.025776297 -0.0011723078 -0.0022475412
-0.0047037038 -0.0011723078 -0.0022475412
-0.0052681486 -0.00078153843 -0.002247541
-0.0047037038 -0.00078153843 -0.002247541
-0.0042333333 -0.00078153843 -0.002247541
-0.004139259 -0.00029307691 -0.0025337706
-0.02173111 -0.0011723076 -0.002247541
-0.021260738 -0.0011723078 -0.0022475412
-0.020696295 -0.0011723078 -0.002247541
-0.020696295 -0.00078153849 -0.002247541
-0.018250369 -0.0011723078 -0.0022475412
0.010724444 -0.0011723078 -0.0011980329
0.001222963 -0.0011723078 -0.0017704918
0.00075259252 -0.0011723078 -0.002247541
-0.00075259269 -0.0011723078 -0.0011980329
-0.001222963 -0.0011723076 -0.00072098372
-0.0022577776 -0.0011723078 -0.002247541
-0.0016933331 -0.0011723078 -0.002247541
-0.0016933333 -0.0011723078 -0.0017704918
-0.00075259252 -0.0011723078 -0.002247541
-0.001222963 -0.0011723076 -0.0022475412
-0.00062716048 -0.00074897433 -0.0025337706
-0.001222963 -0.0011723078 -0.0017704918
-0.02173111 0.00019538462 -0.0052052462
-0.020225925 -0.00078153849 -0.0022475412
-0.0052681481 0.00029307691 -0.002247541
-0.0052681481 -0.00029307691 -0.0022475407
-0.004139259 9.7692311e-05 -0.0025337706
-0.0038005924 0.00017584614 -0.0032970491
-0.0031985184 0.00078153849 -0.0022475412
-0.0027281484 0.00078153843 -0.0022475412
-0.0027281484 0.00029307691 -0.002247541
-0.0027281484 0.0011723076 -0.002247541
-0.013860246 0.00016282051 -0.0052052462
-0.013842328 -0.00018142858 -0.0077676815
-0.011382963 -0.00019538462 -0.0032970493
-0.011382963 -0.00019538462 -0.0037740981
-0.013828889 -0.00019538462 -0.005777705
-0.01411111 -0.00019538462 -0.005777705
-0.02427111 -0.0011723078 -0.0017704921
-0.023706665 -0.0011723078 -0.0022475412
-0.023236295 -0.0011723076 -0.002247541
-0.026717037 -0.00019538461 -0.0057777045
-0.022765927 -0.0011723078 -0.0011980329
0.028786665 -0.0011723078 -0.00072098372
-0.028974814 -9.7692318e-05 -0.0037740986
-0.028974814 -9.7692311e-05 -0.0073042624
-0.01872074 -0.0011723076 -0.002247541
-0.01825037 -0.00078153849 -0.0022475412
-0.019191111 -0.0011723078 -0.0017704921
-0.019191112 -0.0011723078 -0.0011980329
-0.006585185 0.00019538462 0.0012826229
-0.0063029635 0.00019538461 0.0012826229
-0.023706665 0.0011723078 -0.00072098372
-0.023236297 0.0011723078 -0.0011980329
-0.027745577 -0.00028005129 -0.00028209842
-0.0087802475 0.00016282052 0.00071016385
-0.0087574413 -0.0001865035 0.0012826229
-0.014769629 -0.00078153843 -0.0022475412
-0.01222963 -0.0011723078 -0.0017704921
-0.012794074 -0.0011723078 -0.0017704918
-0.014299259 -0.0011723078 -0.0017704921
-0.013264445 -0.0011723078 -0.0017704918
-0.024741482 -0.000801077 -0.00028209842
-0.028974814 9.7692311e-05 -0.0047281971
-0.026679408 0.00017584616 -0.0037740984
-0.026679406 0.00017584614 -0.0032970491
-0.00094074075 -9.7692318e-05 0.0022367216
0.00094074069 0.00017584614 0.0021985574
0.00094074069 0.00019538461 0.0017596722
-0.0012315151 0.00018650349 0.0022193743
-0.001222963 0.00019538462 0.0017596722
-0.0012229629 -0.00019538461 0.0017596722
0.0097837038 -0.00029307694 -0.002247541
0.01411111 -0.00019538461 -0.005777705
0.011382964 -0.00019538462 -0.0042511481
0.015239999 -0.00078153843 -0.0022475412
0.016651111 -0.00019538462 -0.0047281971
0.020225925 -0.0011723078 -0.0017704918
0.020696294 -0.0011723078 -0.0017704918
