# .PCD v0.7 - Point Cloud Data file format
VERSION 0.7
FIELDS x y z
SIZE 4 4 4
TYPE F F F
COUNT 1 1 1
WIDTH 1180
HEIGHT 1
VIEWPOINT 0 0 0 1 0 0 0
POINTS 1180
DATA ascii
-0.02287966 -0.00018142856 0.0026341933
-0.012751115 0.00011164835 0.0012553846
-0.012714942 -0.00025399998 0.0012624194
-0.012751115 0.0001050376 0.0017100507
-0.010196369 0.00015875 0.0012624192
-0.01019637 0.00015875003 0.00080516119
-0.010182803 -0.00025399998 0.0012624194
-0.010182803 -0.00025400001 0.00080516119
-0.027220463 -0.0011792857 -0.00074951618
-0.028757831 -0.00072571426 -0.0022127419
-0.0281248 7.257142e-05 -0.0066938712
-0.0281248 9.0714282e-05 0.0017196774
-0.020528391 9.0714282e-05 0.002268387
-0.020302307 4.5357145e-05 0.0026799194
-0.020264046 0.00011164835 0.002268387
0.027763067 0.0011792857 -0.00038370979
0.027763067 0.0011792857 -0.0007495163
0.027763067 0.0011792857 -0.0012067743
0.019288164 0.0011792857 -0.0022519357
0.019262321 0.0011792857 -0.001755484
0.018719723 0.0011792857 -0.0022127416
-0.024236159 0.0011792857 -0.0017554839
-0.023783995 0.0011792857 -0.0007495163
-0.024236159 0.0011792857 -0.0012067743
-0.024236161 0.0011792857 -0.00074951624
-0.023241395 0.0011792858 -0.00029225822
-0.022254847 0.0011875324 -0.0003088857
0.017453654 -5.4569682e-12 0.0020854839
0.017815387 9.0714282e-05 0.0026341933
0.017815387 -0.00018142856 0.0026341933
0.028283058 -0.0011339285 -0.00077237922
0.028269494 -0.0011611428 -0.0012067745
0.029074349 -0.00068035704 -0.0012067743
0.029054971 -0.0006997959 -0.00039677438
0.027220463 -0.0011792858 -0.001755484
0.026768297 -0.0011792857 -0.0022127419
0.026768297 -0.0011792857 -0.001755484
0.027220463 -0.0011792857 -0.0022127419
0.027763067 -0.0011792857 -0.001755484
0.027763067 -0.0011792857 -0.0022127416
-0.029029135 -0.00072571426 -0.001755484
-0.015231575 -0.00023326531 -0.0076606455
0.0024417029 -0.00018142856 -0.0066938712
0.0023512694 9.0714282e-05 -0.0062366128
0.0024417029 -0.00018142856 -0.0062366128
0.0023512694 9.0714282e-05 -0.0066938712
0.0026828588 0.00010079365 -0.0077506453
0.002396486 9.0714282e-05 -0.0077455644
0.0024417029 -0.00018142856 -0.0076998388
0.0026828588 -0.00018142856 -0.0076693553
0.002713003 9.0714282e-05 -0.0066938712
9.043343e-05 -5.4569682e-12 -0.0081570968
-0.00013565016 -0.00018142856 -0.0077455649
-0.012751115 0.00011792859 -0.0072425813
-0.012389381 -0.00018142856 -0.0072425809
-0.012389381 -0.00018142856 -0.0066938712
-0.012727001 9.6761898e-05 -0.0077425153
-0.017272787 0.0011792856 -0.001755484
-0.017272787 0.0011792857 -0.0022127416
-0.016730187 0.0011792857 -0.0017554839
-0.025592661 9.0714268e-05 -0.0057793553
-0.025592662 -0.00018142856 -0.0057793544
-0.025592661 9.0714282e-05 -0.0052306452
-0.023060527 -0.00018142856 -0.0076998388
-0.023060527 9.0714268e-05 -0.0076998388
-0.022797449 8.2467523e-05 -0.0077746627
-0.025592662 -0.00018142856 -0.0072425809
-0.025592662 -0.00018142856 -0.0066938712
-0.025592661 9.0714268e-05 -0.0066938712
-0.025351509 -0.00024190475 -0.0062366128
-0.025592662 -0.00018142856 -0.0062366128
-0.027866421 -0.00020734694 -0.0067199999
-0.027883645 -0.00024190478 -0.0057793553
-0.0281248 -0.00018142856 -0.0072425809
-0.025592661 9.0714282e-05 -0.0037674194
-0.025592662 -0.00018142856 -0.0037674194
-0.025592662 -0.00018142856 -0.0032187097
-0.025592661 9.0714282e-05 -0.0032187097
-0.027853502 9.0714268e-05 -0.0032187097
-0.026768297 -0.00027214285 -0.0022127419
-0.0281248 9.0714282e-05 -0.0037674194
-0.02907435 0.00068035716 -0.0022127419
-0.02872769 0.0011490475 -0.0022127419
-0.0281248 9.0714282e-05 -0.0052306452
-0.0281248 -0.00018142856 -0.0052306452
-0.0281248 9.0714282e-05 -0.0057793553
-0.0281248 -0.00018142856 -0.0047733872
-0.027853502 -0.00018142856 -0.0037674194
0.013293714 0.0011792857 -0.0022127416
0.013293715 0.0011792857 -0.0017554839
0.012751116 0.0011792857 -0.0022127416
0.0056973067 0.0011792858 -0.0023041936
0.0056973072 0.0011792858 -0.001755484
0.0062399078 0.0011792857 -0.0023041936
0.025592661 9.0714282e-05 -0.0057793553
0.0281248 9.0714282e-05 -0.0057793553
0.0281248 -0.00018142856 -0.0062366128
0.0281248 -0.00018142856 -0.0057793553
0.0281248 9.0714282e-05 -0.0062366133
0.027871588 0.00014514285 -0.0062366128
0.025592661 9.0714282e-05 -0.0072425809
0.025592662 -0.00018142856 -0.0072425809
0.027871588 0.00014514287 -0.0066938708
0.027853498 -0.00018142856 -0.0062366128
0.025592662 -0.00018142856 -0.0066938712
0.025351508 -0.00024190475 -0.0066938712
0.0281248 -0.00018142856 -0.0032187097
0.028305667 -0.0010885714 -0.0022127419
0.028757831 -0.00072571426 -0.0022127419
-0.025351508 -0.00024190478 -0.0037674191
-0.025351508 -0.00024190478 -0.0043161288
-0.025339447 0.00014514287 -0.0037674196
-0.025339449 0.00014514285 -0.0043161288
-0.025592661 9.0714282e-05 -0.0043161293
-0.025230929 0.0011792857 -0.0022127421
-0.02532832 0.00011164835 0.00081923069
-0.024679288 0.00074385706 -0.00035627431
-0.024236159 0.00018142856 -0.0002922581
-0.023060527 7.2759576e-12 0.0026341933
-0.023060529 9.0714282e-05 0.002268387
-0.019804923 0.00072571426 -0.0022127419
-0.026768297 -0.0011792857 -0.00074951624
-0.027220463 -0.0011792857 -0.00038370979
-0.01419805 -0.00027214288 -0.00029225822
-0.014921517 -1.8189894e-12 0.00098806433
-0.013745882 0.00018142856 -0.00029225822
-0.013745882 -0.00027214285 -0.0002922581
-0.014921517 5.4569682e-12 0.0017196774
-0.015247079 -0.00025400001 0.0012624194
-0.012714941 -0.00025400001 0.0017196774
-0.015273732 0.00011458648 0.0022491342
-0.012741067 0.00010079365 0.0022582258
-0.012690826 6.0476184e-05 0.0026341933
-0.012660681 -0.00018142856 0.0026341933
-0.018719723 -0.00072571426 -0.0022127419
-0.017815387 -0.00022678573 -0.0032187097
-0.01871972 -0.00027214285 -0.0022127416
-0.027220462 -0.00072571426 -0.0022127423
-0.0076642334 9.0714282e-05 0.0022455244
-0.0076868418 9.0714268e-05 0.0017196774
-0.00018086687 -0.00018142856 0.002268387
0.00018086686 -0.00018142856 0.002268387
0.0023512694 9.0714282e-05 -0.0072425813
0.00018086687 -0.00018142856 -0.0072425809
0.00018086687 -0.00018142856 -0.0066938712
-0.020279698 -0.00022678569 0.002245524
0.015260644 0.00015875003 -0.0052306447
0.015283252 -0.00018142856 -0.0052306452
0.015267524 0.00014987578 -0.0057714032
0.01528325 -0.00018142856 -0.0057793548
0.012734673 -0.00023090911 -0.0072592092
0.0127059 0.00013607142 -0.0076693543
0.01272097 -0.00021166664 -0.0076693553
-0.0076868408 9.0714282e-05 -0.0072425809
-0.0076506687 -0.00018142856 -0.0076815486
-0.0076451036 8.373626e-05 -0.0077490811
-0.010182803 -0.00025400001 -0.0066938708
-0.010182803 -0.00025400001 -0.0062366128
0.012751115 0.0011792857 -0.0017554839
0.011293542 0.0011846218 -0.0022934345
0.013293714 0.0011792857 -0.0012067743
0.012208513 0.0011792857 -0.0012067743
0.012751115 0.0011792856 -0.0012067743
0.012208515 0.0011792856 -0.0017554839
-0.0024417029 7.257142e-05 -0.0077547096
-0.0026903949 6.8035704e-05 -0.0077227014
-0.0026949164 -0.00018142856 -0.0077547096
-0.00018086687 9.0714282e-05 -0.0072425813
-0.013293715 0.0011792857 -0.001755484
-0.012194603 0.0011862639 -0.0022338461
-0.013745883 0.0011792857 -0.0022127419
-0.013745881 0.0011792857 -0.0017554839
-0.012751115 0.0011792856 -0.0017554839
-0.012751115 0.0011792857 -0.0022127416
-0.02025106 0.00014514284 0.0017318707
-0.020528391 9.0714282e-05 0.0017196774
-0.020528391 -0.00018142856 0.002268387
-0.020528391 -0.00018142856 0.0017196774
-0.020347524 -0.00018142856 0.0026341933
-0.022789225 9.0714282e-05 0.002268387
-0.022789225 -0.00018142856 0.0017196771
-0.012751115 0.00012959185 0.00080516119
-0.012208517 0.00074839289 -0.00031512114
-0.012389381 9.0714282e-05 7.354829e-05
-0.01019637 0.00015875 0.0017196774
-0.017453654 3.6379788e-12 0.0020854839
-0.017815387 -0.00018142856 0.0026341933
-0.017815387 -1.8189894e-12 0.0026341933
-0.017815385 0.00011792858 0.0022592419
-0.025773527 0.0011792857 -0.0022127419
-0.026316131 0.0011792857 -0.0022127419
-0.024698971 0.0011846218 -0.00030301721
-0.024688331 0.0011792857 -0.0007495163
-0.029054971 0.0006997959 -0.00073645171
-0.025592662 -0.00018142856 0.002268387
-0.025411796 -0.00018142856 0.0026341933
-0.025411796 9.0714282e-05 0.0026341933
-0.027853498 -0.00018142856 0.0012624194
0.029029135 0.00072571426 -0.0012067743
0.0281248 -0.00018142856 -0.0047733872
0.0281248 9.0714282e-05 -0.0047733872
0.0281248 9.0714268e-05 -0.0043161293
0.025592662 -0.00018142856 -0.0057793553
0.027853498 -0.00018142856 -0.0057793553
0.0281248 -0.00018142856 -0.0052306452
0.027853498 -0.00018142856 -0.0052306452
-0.016730187 0.0011792857 -0.0012067743
-0.017272787 0.0011792858 -0.0012067743
-0.019262319 0.0011792857 -0.0012067745
-0.018719722 0.0011792857 -0.001755484
-0.020709258 0.0011792857 -0.00074951618
-0.020709256 0.0011792856 -0.00029225822
-0.020257087 0.0011792857 -0.00029225822
-0.021241218 0.0011739497 -0.00030301721
0.027220463 0.0011792857 -0.00038370979
0.02722046 0.0011792857 -0.00074951618
0.022698792 0.0011792857 -0.0012067743
0.022698792 0.0011792857 -0.0007495163
0.022246625 0.0011792857 -0.00074951624
0.015274641 0.00012959185 0.0022509675
0.015283251 -0.00018142856 0.0026341933
0.015222962 0.00012095238 0.0026341933
0.017453654 -5.4569682e-12 0.0017196774
0.01778955 -0.00024622449 0.0017196771
0.017815387 9.0714282e-05 0.0017196771
0.028757831 -0.00072571426 -0.00038370979
0.0281248 -0.00018142856 0.00080516119
0.028269496 -0.001161143 -0.001755484
0.028757833 -0.0010885714 -0.0012067743
0.027853498 -0.00018142856 0.0017196774
0.0281248 -0.00018142856 0.0017196774
0.0281248 9.0714282e-05 0.0017196774
0.027763067 -0.0011792857 -0.0012067743
0.019804923 -0.0011792857 -0.0022127416
0.020257087 -0.0011792857 -0.0017554839
0.019804923 -0.0011792857 -0.0017554839
0.021251857 -0.0011792857 -0.0022127416
0.021794461 -0.0011792857 -0.0022127419
0.021794461 -0.0011792857 -0.001755484
0.021251857 -0.0011792857 -0.001755484
0.022807313 0.00014514285 -0.0032187102
0.022264713 0.0011792857 -0.0022676128
0.022686733 0.0011732382 -0.0022676131
0.022240596 0.00074990472 -0.0022676128
0.021794461 0.0011792857 -0.0022127419
-0.017815385 0.00012959185 -0.00321871
-0.016730187 -0.0002721429 -0.0022127419
-0.019262319 0.00018142856 -0.0022127416
-0.017272787 0.00072571426 -0.0022127419
-0.016730187 0.0011792857 -0.0022127416
-0.017453654 1.8189894e-12 -0.0061451616
-0.017806342 0.00012700001 -0.0052306443
-0.017815385 0.00012959185 -0.0057793553
-0.020528391 6.0476192e-05 -0.0076693553
-0.020528391 9.0714268e-05 -0.0072425809
-0.020275176 0.00010885714 -0.0077181295
-0.017815385 0.00012959182 -0.0062366133
-0.022246625 0.0011792857 -0.0022127419
-0.021794461 0.0011792857 -0.0022127419
-0.022698792 0.0011792857 -0.0022127416
-0.026768297 0.00018142856 -0.0022127416
0.0024417029 -0.00018142856 -0.0072425809
0.0027130032 9.0714282e-05 -0.0072425813
0.0027130032 -0.00018142856 -0.0072425804
0.0023512694 9.0714282e-05 -0.0057793553
0.0027130032 9.0714268e-05 -0.0062366128
0.0073251086 9.0714268e-05 -0.0076083872
0.0076451027 8.373626e-05 -0.0077490807
0.0075964089 -0.00018142856 -0.0077912905
0.0076868418 9.0714282e-05 -0.0066938708
0.0073251082 7.257142e-05 -0.0066938712
0.017815385 9.0714268e-05 -0.0072425818
0.017815385 -0.00022678573 -0.0072425813
0.017453654 5.4569682e-12 -0.0067853229
0.017815387 -0.00022678573 -0.0066938712
0.012389381 0.00018142856 -0.0066938712
0.012710008 0.00016493509 -0.0072592082
0.012728508 0.00015875 -0.0066938717
0.012389381 9.0714268e-05 -0.0072425809
0.015267525 0.00014987579 -0.0072425813
0.015283252 -0.00018142856 -0.0066938712
0.015267525 0.00014987579 -0.0066859187
-0.024674417 -0.0011723078 -0.0022338459
-0.025230929 -0.0011792857 -0.0022127416
-0.025351508 -0.00024190475 -0.0032187097
-0.018710203 0.00073526317 -0.0022271816
-0.023060529 9.0714282e-05 -0.0072425809
-0.023060525 -0.00018142856 -0.0066938712
-0.023060529 9.0714282e-05 -0.0066938712
-0.023060527 -0.00018142856 -0.0062366128
-0.020528391 9.0714282e-05 -0.0066938712
-0.020257089 9.0714282e-05 -0.0062366128
-0.020528391 9.0714268e-05 -0.0062366133
-0.020257087 9.0714282e-05 -0.0066938712
-0.025592662 9.0714282e-05 -0.0047733872
-0.025331413 0.00012095238 -0.0047632256
-0.025592662 -0.00018142856 -0.0043161293
-0.025592662 -0.00018142856 -0.0047733872
-0.025592662 -0.00018142856 -0.0052306452
-0.027853498 -0.00018142856 -0.0047733872
-0.025592662 9.0714282e-05 -0.0062366128
-0.022807311 -0.00018142856 -0.0077547096
-0.020275177 -0.00021771427 -0.0076815486
-0.027853502 -0.00018142856 -0.0072425809
-0.0281248 -0.00018142856 -0.0062366128
-0.027853502 9.0714268e-05 -0.0037674189
-0.027763067 0.0011792858 -0.0022127419
0.022246627 -0.0011792858 -0.0017554839
0.022246627 -0.0011792857 -0.0022127419
0.021794461 -0.00072571426 -0.0022127419
0.022246627 -0.00072571426 -0.0022127416
0.019262323 -0.0011792857 -0.0022127421
0.019804923 -0.00072571426 -0.0022127419
0.020275176 -0.0011792857 -0.0022676128
0.020528391 -0.00018142856 -0.0037674194
0.020528391 -0.00018142856 -0.0032187097
0.020528391 9.0714282e-05 -0.0032187097
0.020528391 9.0714282e-05 -0.0037674194
0.020270009 -0.00020734694 -0.00321871
0.013763967 0.0011792857 -0.0022676128
0.013293714 0.00072571426 -0.0022127416
0.013752838 0.00073967042 -0.0022338459
0.012687813 0.00017235716 -0.0052306447
0.012389381 0.00018142856 -0.0057793544
0.012710011 0.00016493507 -0.0057793558
0.013745882 0.0011792857 -0.0012067743
0.012208514 0.0011792857 -0.0007495163
0.015260645 0.00015875 -0.0037674187
0.014766489 0.0011792857 -0.0022519354
0.015283252 0.0011792857 -0.0022127419
0.01528325 -0.00018142856 -0.0043161293
0.015260645 0.00015875 -0.0043161293
0.015283252 -0.00018142856 -0.0037674196
0.015283252 -0.00018142856 -0.0047733872
0.015260642 0.00015874999 -0.0047733877
0.014740651 0.0011792857 -0.001755484
0.0062399078 0.0011792857 -0.0017554839
0.01528325 0.0011792858 -0.0007495163
0.015283252 0.0011792857 -0.00029225822
0.015735419 0.0011792857 -0.00029225822
0.015735418 0.0011792857 -0.00074951624
0.015735418 0.0011792857 -0.0012067743
0.015283252 0.0011792856 -0.0012067745
0.0052451398 0.0011792857 -0.0017554838
0.0056973067 0.0011792857 -0.0012067743
0.0052451398 0.0011792857 -0.0012067743
0.0052451398 0.0011792857 -0.0007495163
0.0056973062 0.0011792857 -0.0007495163
0.0047929729 0.0011792857 -0.0022127416
0.0052551879 0.0011692063 -0.0022432257
0.0052451398 9.0714282e-05 -0.0032187097
0.0052451394 0.00072571426 -0.0023041936
0.017815387 0.0011792857 -0.001755484
0.017815385 0.0011792857 -0.0012067743
0.017272785 0.0011792857 -0.0017554839
0.017272789 0.0011792857 -0.0012067743
0.010182804 -0.00025400001 -0.00321871
0.0093146451 -0.00072571426 -0.0022127416
0.0092905285 -0.0011853334 -0.0022676131
0.0087720426 -0.0011846218 -0.0022934345
0.022246627 0.0011792857 -0.001755484
0.022698792 0.0011792857 -0.0017554839
0.025592662 -0.00018142856 -0.0052306452
0.027871588 0.00014514285 -0.0057793553
0.027871588 0.00014514287 -0.0052306443
0.027871588 0.00014514285 -0.0047733872
0.025321363 9.0714282e-05 -0.0066938712
0.025351508 -0.00024190475 -0.0062366128
0.027871588 0.00014514287 -0.0072425823
0.027853498 -0.00018142856 -0.0066938712
0.027220463 0.0011792857 -0.001755484
0.0281248 9.0714282e-05 -0.0037674194
0.0281248 9.0714268e-05 -0.0032187102
0.022807311 0.00014514285 -0.0057793553
0.022807311 0.00014514287 -0.0052306447
0.022789225 -0.00018142856 -0.0057793553
-0.023060529 9.0714282e-05 -0.0032187097
-0.023783995 0.0011792857 -0.0022127416
-0.023241393 0.0011792857 -0.0022127421
-0.023793513 0.00072571432 -0.0022271816
-0.025592661 9.0714282e-05 0.0017196774
-0.025592662 -0.00018142856 0.0017196774
-0.020264046 0.00011164835 -0.0072425818
-0.025773527 -0.0011792857 -0.0012067743
-0.026316132 -0.0011792857 -0.0012067743
-0.025773527 -0.0011792857 -0.0017554839
-0.025773527 -0.0011792857 -0.0007495163
-0.025230929 -0.0011792857 -0.00074951618
-0.022789225 9.0714268e-05 -0.0032187102
-0.022246627 0.00072571432 -0.0022127416
-0.0052149952 -0.00018142856 -0.0076693553
-0.0052149948 6.0476184e-05 -0.0072425804
-0.0049135508 6.0476184e-05 -0.0072425809
-0.0076868418 -0.00018142856 0.0017196774
-0.010761579 -0.0011792857 -0.001755484
-0.010232892 -0.0011723078 -0.0022338459
-0.0087720435 -0.0011792857 -0.0017554839
-0.0087859556 -0.0011723076 -0.0022338459
-0.0097668115 -0.0011792857 -0.0022127419
-0.0093267011 -0.0011732382 -0.0022676128
-0.016187584 0.00018142861 -0.00029225822
-0.015283252 9.0714282e-05 0.00080516096
-0.016187584 0.00074839283 -0.00031512114
-0.017453654 -5.4569682e-12 0.00080516119
-0.017815385 0.0011723078 -0.0022338463
-0.014921517 -1.8189894e-12 0.0012624194
-0.026316131 -0.0011792857 -0.0007495163
-0.026768299 -0.0011792857 -0.0017554839
-0.018275779 -0.0011875326 -0.002287566
-0.026316134 -0.0011792857 -0.0022127416
-0.026316132 -0.0011792857 -0.001755484
-0.020257087 9.0714282e-05 0.00080516119
-0.020287232 -0.00024190475 0.0012624194
-0.020287232 -0.00024190475 0.00080516119
-0.020257089 9.0714282e-05 0.0012624194
-0.0076868422 -0.00018142856 -0.0047733872
-0.0073251086 -0.00018142856 -0.0046819355
-0.0076868418 -0.00018142856 -0.0043161293
-0.0073251086 0 0.0020854839
-0.0073251086 -0.00018142856 0.0020854839
-0.0092910519 -0.00073360244 -0.0022723842
-0.0087806564 -0.0007257142 -0.0022519354
0.00018086686 -0.00018142856 0.0017196774
-0.00018086686 -0.00018142856 0.0017196774
-0.015283253 -0.0011792857 -0.00029225822
-0.01474065 -0.0011792858 -0.00029225822
-0.01272329 -0.00023725274 0.002240248
-0.019804925 -0.0011792857 -0.0012067745
-0.019804925 -0.0011792857 -0.0017554839
-0.020257089 -0.0011792857 -0.001755484
-0.0048834062 -0.00018142856 -0.0066938712
-0.0049014925 -0.00018142856 -0.0072060004
-0.0052451398 -0.00018142856 -0.0066938712
0.015735418 0.0011792857 -0.0017554839
0.014740651 0.0011792857 -0.0012067743
0.015283252 -0.00018142856 -0.0032187097
0.016178066 -0.00072571426 -0.0022271816
0.016187586 -0.0011792857 -0.0022127416
0.011756347 -0.0011792857 -0.00029225822
0.012208515 -0.0011792856 -0.0002922581
0.012194602 -0.0011862637 -0.0022338461
-0.012208513 0.0011792857 -0.0017554839
-0.014740651 0.0011792857 -0.0017554839
-0.01528325 0.0011792858 -0.0022127416
-0.01419805 0.0011792857 -0.0022127419
-0.014726738 0.0011723076 -0.0022338459
-0.015735418 0.0011792857 -0.0017554838
-0.0076868422 -0.00018142856 -0.0062366128
-0.0076868418 9.0714282e-05 -0.0066938708
-0.0075964089 -0.00018142856 -0.0066938712
0.005713034 0.00072571426 -0.0022723847
0.0062152441 0.000733961 -0.0022626247
0.0048834062 9.0714282e-05 -0.0032187097
0.0037005364 0.00072571426 -0.0022895613
0.00371729 0.00019097744 -0.0022271818
-0.0027130032 9.0714268e-05 -0.0072425813
-0.0023814137 6.0476192e-05 -0.0072425809
-0.013293714 0.0011792857 -0.0022127419
-0.022698792 0.0011792857 -0.00029225822
-0.022789225 9.0714282e-05 0.00080516119
-0.022789227 9.0714282e-05 0.0012624194
-0.023060527 9.0714268e-05 0.0012624194
-0.020287234 -0.00024190475 0.0017196774
-0.017815385 -0.00019957141 0.0022500968
-0.020528391 -0.00018142856 0.0012624194
-0.012714943 -0.00025400001 0.00080516119
-0.012389381 -0.00018142856 7.354829e-05
-0.025592662 9.0714282e-05 -0.0076083872
-0.025339453 0.00014514287 -0.0032187102
-0.025592661 9.0714282e-05 -0.0072425809
-0.025230935 0.0011792857 -0.0017554839
-0.025217015 0.0011723076 -0.00036260555
-0.025773527 0.0011792857 -0.00038370979
-0.02872769 0.0011490476 -0.0017554839
-0.02906202 0.00069272728 -0.0012067743
-0.02872769 0.0011490476 -0.0012067743
-0.02907435 0.00068035716 -0.0017554839
-0.02872769 0.0011490475 -0.00038370979
-0.028757831 0.00072571426 -0.0022127416
-0.028305667 0.0011792857 -0.0022127416
-0.028727688 0.0011490475 -0.0007495163
-0.0281248 9.0714282e-05 0.0012624194
-0.029029135 -0.00072571426 -0.0012067743
-0.027220465 -0.00072571432 -0.00038370979
-0.026768297 -0.0011792857 -0.00032883883
-0.026761342 -0.00073967036 -0.00036260567
-0.02830567 0.0011792857 -0.0012067743
-0.02830567 0.0011792856 -0.001755484
-0.025351508 -0.00024190475 0.0012624192
-0.025351508 -0.00024190478 0.00080516119
-0.025331412 0.00012095238 0.0012725806
-0.027853502 -0.00018142856 0.00080516119
-0.026774326 0.00016933332 -0.00032883883
-0.026758248 -0.00026206346 -0.00035322586
-0.027853502 9.0714282e-05 0.00080516119
-0.0278535 9.0714268e-05 0.0012624194
0.025351508 -0.00024190478 -0.0057793548
0.018719725 -0.0011792857 -0.00029225822
0.017815387 -0.00022678573 0.00080516119
0.018719723 -0.00074839283 -0.00031512114
0.019262319 -0.00074839283 -0.00031512114
0.019262321 -0.0011792857 -0.0002922581
0.017815387 -0.0011792857 -0.00074951618
0.017272789 -0.0011792857 -0.00029225822
0.017815387 -0.0011792857 -0.0002922581
0.0052369186 9.8961027e-05 0.0022517592
0.004973839 9.0714282e-05 0.0026341933
0.0051547061 5.4569682e-12 0.0026341933
0.004901493 7.257142e-05 0.0022500968
0.0052451398 9.0714282e-05 0.0017196774
0.0052451398 -0.00018142856 0.0017196771
0.0052451398 9.0714282e-05 0.0012624194
-0.0218051 0.0011739496 -0.00030301721
0.0001808669 9.0714282e-05 0.0017196774
0.00016278017 9.0714282e-05 0.0022318065
-0.00018086686 9.0714282e-05 0.0017196774
-0.012208514 0.0011792857 -0.00074951618
-0.012751116 0.0011792857 -0.00074951618
-0.012751116 0.0011792857 -0.00029225822
-0.011756347 0.0011792857 -0.0012067743
-0.011756347 0.0011792857 -0.0007495163
-0.011756347 0.00074839283 -0.00031512114
-0.01130418 0.00074839289 -0.00031512114
-0.011756347 0.00018142859 -0.00029225822
-0.020709258 0.0011792858 -0.0012067743
-0.020257087 0.0011792857 -0.0017554839
-0.020257087 0.0011792857 -0.0012067743
0.022802146 0.00012959183 0.0022553224
0.023060529 9.0714282e-05 0.002268387
0.02281937 6.0476184e-05 0.0026341933
0.022807311 0.00014514287 0.0017196774
0.023060529 9.0714282e-05 0.0017196774
-0.023783995 0.0011792857 -0.0012067743
-0.023241395 0.0011792857 -0.0012067743
-0.023241395 0.0011792857 -0.00074951618
0.017453654 -5.4569682e-12 0.0012624194
0.017815387 9.0714282e-05 0.0012624192
0.017272787 0.0011792857 -0.0002922581
0.015283252 -0.00022678571 0.0017349194
0.015275031 0.00014019482 0.0017196774
0.027871588 0.00014514287 0.0017196774
0.027871588 0.00014514285 0.0012624194
0.0278535 -0.00018142856 0.0012624194
0.0281248 -0.00018142856 0.0012624194
0.024688331 -0.0011792857 -0.0007495163
0.024244381 -0.0011875324 -0.0003088857
0.025230929 -0.0011792857 -0.00038370979
0.024664216 -0.001173238 -0.00032883883
0.022789225 -0.00018142856 0.00080516119
0.022807311 0.00014514285 0.0012624192
0.022789225 -0.00018142856 0.0012624194
0.027763067 -0.0011792857 -0.00074951618
0.028305667 -0.0010885714 -0.00038370979
0.026316132 -0.0011792857 -0.001755484
0.025773527 -0.0011792857 -0.0007495163
0.025773527 -0.0011792857 -0.0012067745
0.026316131 -0.0011792857 -0.00074951618
0.025773527 -0.0011792857 -0.00038370979
0.026316131 -0.0011792857 -0.00038370979
0.025230929 -0.0011792857 -0.0007495163
0.025230927 -0.0011792857 -0.0012067743
0.024688331 -0.0011792857 -0.0012067743
0.023060527 -0.00018142856 -0.0062366128
0.023060527 9.0714282e-05 -0.0062366133
0.023060529 9.0714282e-05 -0.0057793553
0.023060525 -0.00018142856 -0.0057793544
0.025773527 -0.0011792857 -0.001755484
0.024688331 -0.0011792856 -0.0017554839
0.020528391 -0.00018142856 -0.0043161293
0.020528391 9.0714282e-05 -0.0043161293
0.020528391 9.0714268e-05 -0.0047733872
0.018267557 -0.0011792857 -0.00029225822
0.01871972 -0.0011792857 -0.00074951618
0.017815387 -0.00022678571 0.0012624194
0.016730187 -0.0011792857 -0.00029225822
0.016730187 -0.0011792857 -0.0022127419
0.016730187 -0.00072571426 -0.0022127421
0.020695345 -0.0011862639 -0.0022338459
0.020709254 -0.0011792857 -0.001755484
0.020709254 -0.0011792857 -0.0012067743
0.021794463 -0.0011792857 -0.0012067743
0.019804923 -0.0011792857 -0.0012067745
0.019804925 -0.0011792857 -0.0007495163
0.019262321 -0.0011792857 -0.0012067743
0.018719723 -0.0011792857 -0.0017554839
0.018693883 -0.0011792857 -0.0022519354
0.022246627 -0.0011792858 -0.0012067743
0.0042503718 -0.0011792857 -0.0017554839
0.003707771 -0.0011846218 -0.0022934345
0.0047688568 -0.0011853332 -0.0022676131
0.0032656519 -0.0011893652 -0.0022432259
0.0042503718 -0.0011792857 -0.0012067743
0.0052149952 -0.00018142856 -0.0076693553
0.004973839 -0.00018142856 -0.0072425809
0.004973839 -0.00018142856 -0.0076998388
0.0051848511 9.0714282e-05 -0.0077303224
0.0087815635 -0.00073526311 -0.0022271818
-0.017815387 -0.00022678572 -0.0047733868
-0.017815385 0.00012959185 -0.0043161293
-0.017801473 0.00012560439 -0.0047663525
-0.017815387 -0.00022678573 -0.0043161288
-0.019262321 -0.00072571426 -0.0022127421
-0.019288162 -0.0011792857 -0.0022519354
-0.019804923 -0.00074839289 -0.0022813308
-0.017815387 0.0011792856 -0.001755484
-0.016187584 0.00072571426 -0.0022127419
-0.015247079 -0.00025400001 -0.0062366128
-0.015283252 0.0001050376 -0.0066938708
-0.015283253 0.00011164835 -0.0062436471
-0.025351508 -0.00024190478 -0.0057793548
-0.020257087 0.0011792857 -0.0022127419
-0.020257087 9.0714282e-05 -0.0037674194
-0.017815387 -0.00022678573 -0.0037674194
-0.023783997 0.00018142859 -0.0022127419
-0.012728507 -0.00020410714 -0.0077227023
-0.012751115 9.0714282e-05 -0.0066938708
-0.012714942 -0.00025400001 -0.0057793553
-0.012714942 7.2571434e-05 -0.0057793558
-0.012714941 -0.00025400004 -0.0052306452
-0.012751115 0.00011792859 -0.0052306443
-0.017453654 3.6379788e-12 -0.0072425809
-0.017785242 -0.00021166664 -0.0076693553
-0.017801477 9.7692289e-05 -0.0077068727
-0.017815387 -0.00022678572 -0.0062366128
-0.017815385 -0.00022678571 -0.0057793553
-0.020257087 9.0714268e-05 -0.0057793553
-0.020287236 -0.00024190475 -0.0062366128
-0.017815385 -0.00022678573 -0.0072425813
-0.013745883 -0.0011792857 -0.0022127419
-0.013293714 -0.0011792857 -0.001755484
-0.013745882 -0.0011792857 -0.0017554839
-0.014198049 -0.0011792857 -0.0022127416
-0.014726738 -0.0011723078 -0.0022338461
-0.014921517 -1.8189894e-12 -0.0032187097
-0.014740651 -0.00074385712 -0.0022401777
0.0052451398 9.0714282e-05 -0.0072425813
0.0076868418 9.0714282e-05 -0.0072425818
0.0076868422 9.0714282e-05 -0.0062366133
0.0076868418 -0.00018142856 -0.0066938717
0.020275177 0.00014514287 -0.0057793553
0.020528391 9.0714268e-05 -0.0052306452
0.020528391 9.0714282e-05 -0.0057793553
0.020257091 -0.00018142856 -0.0052306452
0.020270007 -0.00020734694 -0.0057793548
0.016730186 0.0011792857 -0.0022127416
0.017815385 0.0011792858 -0.0022127419
0.017258875 0.0011723078 -0.0022338463
0.016730187 0.0011792857 -0.001755484
0.020528391 9.0714282e-05 -0.0072425809
0.020528391 -0.00018142856 -0.0076083872
0.020528391 -0.00018142856 -0.0072425809
0.020528391 9.0714268e-05 -0.0076083872
0.020275176 0.00010885714 -0.0077181286
0.020275177 -0.00018142856 -0.0077547096
0.012389381 9.0714268e-05 -0.0076083872
0.010110458 -0.00021771427 -0.0076815486
0.010182806 -0.00025400001 -0.0072425818
0.010207674 0.00013607142 -0.0077112694
0.006782508 0.0011792857 -0.0022127421
0.0052451398 9.0714282e-05 -0.0037674198
0.010182804 -0.00025400001 -0.0057793558
0.010196369 0.00015875 -0.0057793553
0.0098572448 1.8189894e-12 -0.0065109679
0.01019637 0.00015875003 -0.0052306447
0.010182804 -0.00025400001 -0.0043161288
0.010182803 -0.00025400001 -0.0037674191
0.010196369 0.00015875 -0.0043161293
0.010182803 -0.00025399998 -0.0047733882
-0.015247079 -0.00025400001 0.00080516119
-0.014740651 -0.00074839289 -0.00031512114
-0.014921517 -0.00018142856 7.354829e-05
-0.016187586 -0.0011792857 -0.00029225822
-0.01618758 -0.00074839283 -0.00031512103
-0.023241397 -0.0011792857 -0.0017554839
-0.022236578 -0.0011893651 -0.0022432257
-0.022698792 -0.0011792858 -0.0017554839
-0.023241393 -0.0011792857 -0.0012067743
-0.023783993 -0.0011792857 -0.0012067743
-0.023241395 -0.0011792857 -0.0022127419
-0.023783995 -0.0011792857 -0.0022127421
-0.018719723 0.00018142856 -0.0022127419
-0.022789225 9.0714282e-05 -0.0072425823
-0.022802146 -0.00020734694 -0.0072425813
-0.025328318 0.00011164835 -0.0052165757
-0.0281248 -0.00018142856 -0.0057793544
-0.0281248 -0.00018142856 -0.0066938712
-0.026293524 -0.0002721429 -0.00031512103
-0.026316132 0.00018142859 -0.0022127416
-0.0281248 7.2571434e-05 -0.0032187097
-0.027853502 9.0714282e-05 -0.0043161288
0.023060525 -0.00018142856 0.002268387
0.023060525 -0.00018142856 0.0017196774
0.023772689 -0.0011906249 -0.00031512114
0.027220462 -0.0011792857 -0.0012067743
0.024236159 -0.0011792857 -0.0012067743
0.022789225 -0.00018142856 -0.0047733872
0.023060527 -0.00018142856 -0.0047733872
0.023060525 -0.00018142856 -0.0052306452
0.012699439 0.00016846937 -0.0047864518
0.012728507 -0.00018142856 -0.0043161293
0.012710009 0.00016493507 -0.0043161293
0.012389381 0.00018142856 -0.0052306452
0.01419805 0.0011792856 -0.0012067743
0.01419805 0.0011792857 -0.00074951618
0.013745882 0.0011792857 -0.0017554839
0.014174458 0.00073360244 -0.0022723847
0.014175441 0.0011792857 -0.0022813308
0.014763257 0.00072571426 -0.0022813308
0.018267557 -0.0007257142 -0.0023041936
0.018267557 -0.0011792858 -0.0023041936
0.017815387 -0.00022678573 -0.0032187102
0.020275177 0.00014514287 -0.0043161288
0.020275174 0.00014514285 -0.0047733868
0.0062399083 0.0011792857 -0.0012067745
0.0062399078 0.0011792857 -0.00074951618
0.0067825075 0.0011792857 -0.001755484
0.0067825075 0.0011792857 -0.0012067745
0.01528325 0.0011792857 -0.001755484
0.015735418 0.0011792857 -0.0022127419
0.016187584 0.0011792857 -0.0012067743
0.016187586 0.0011792857 -0.001755484
0.016187586 0.0011792857 -0.0022127416
0.0037077707 0.0011792857 -0.0023041936
0.0042503714 0.0011792857 -0.0017554839
0.0037077707 0.0011792857 -0.001755484
0.0042503714 0.0011679465 -0.0022813308
0.00018086686 9.0714282e-05 -0.0066938703
0.00018086689 9.0714282e-05 -0.0062366128
-0.00018086686 9.0714282e-05 -0.0062366133
0.00018086689 -0.00018142856 -0.0062366128
0.004792972 0.0011792858 -0.0012067743
0.0047929725 0.0011792857 -0.001755484
0.018267555 0.0011792857 -0.0022127419
0.018267555 0.0011792857 -0.001755484
0.016730187 0.0011792857 -0.0012067743
0.016187584 0.0011792857 -0.00074951618
0.016730187 0.0011792857 -0.0007495163
0.018719722 0.0011792857 -0.0007495163
0.019262319 0.0011792857 -0.00029225822
0.019262325 0.0011792857 -0.0007495163
0.011304181 -0.0007257142 -0.0022127419
0.010761578 -0.0007257142 -0.0022127421
0.021794463 0.0011792857 -0.0017554839
0.021251857 0.0011792857 -0.0022127421
0.020275176 0.00014514285 -0.0062366128
0.020528391 9.0714282e-05 -0.0062366133
0.020275176 -0.00021771427 -0.0062183226
0.020528391 -0.00018142856 -0.0062366128
0.020528391 -0.00018142856 -0.0057793544
0.020709258 0.0011792857 -0.0022127421
0.020248866 0.001171039 -0.002287566
0.020709254 0.0011792857 -0.001755484
0.027871588 0.00014514285 -0.0043161293
0.0281248 9.0714282e-05 -0.0052306452
0.022807311 0.00014514285 -0.0062366128
0.020275177 0.00014514287 -0.0066938708
0.025592662 -0.00018142856 -0.0062366128
0.022789227 -0.00018142856 -0.0072425804
0.022807313 -0.00018142856 -0.0077547105
0.022799276 8.0634913e-05 -0.0077303234
0.023060527 -0.00018142856 -0.0076998388
0.023060525 -0.00018142856 -0.0072425809
0.022789225 -0.00018142856 -0.0062366128
0.020528391 -0.00018142856 -0.0066938712
0.0281248 9.0714282e-05 0.0012624194
0.027871588 0.00014514285 -0.00321871
0.026768297 0.0011792857 -0.0022127419
0.027220463 0.00072571426 -0.0022127419
0.027220463 0.0011792857 -0.0012067743
0.026316131 0.0011792857 -0.0022127421
0.026768297 0.0011792857 -0.0017554839
0.02532832 0.00011164835 -0.0072566513
0.023241393 0.0011792857 -0.0022127416
0.024236161 0.0011792857 -0.0022127419
0.024688331 0.0011792857 -0.0022127416
0.024688331 0.0011792857 -0.0017554839
0.023060529 9.0714282e-05 -0.0052306452
0.023241395 0.0011792857 -0.001755484
0.022807311 0.00014514287 -0.0037674194
0.023060529 9.0714268e-05 -0.0037674196
-0.026316132 0.00017235716 -0.00035627431
-0.026316132 0.00072571426 -0.00038370979
-0.026768299 0.00072571426 -0.00038370979
-0.027853502 9.0714282e-05 0.002268387
-0.025328318 0.00011164835 0.0022543175
-0.022698792 0.0011792857 -0.00074951618
-0.023060529 9.0714268e-05 0.00080516119
-0.023060527 -0.00018142856 0.0012624194
-0.023790954 0.00017445056 -0.00029929297
-0.0052451398 -0.00018142856 -0.0072425809
-0.010218978 -0.0011792857 -0.0012067745
-0.010218979 -0.0011792857 -0.0007495163
-0.010761579 -0.0011792858 -0.0012067743
-0.010761579 -0.0011792857 -0.00074951618
-0.0097668115 -0.0011792857 -0.00074951624
-0.0093146432 -0.0011792857 -0.0017554839
-0.008217385 -0.0011732379 -0.0022676128
-0.0082036052 -0.00072571426 -0.0022519357
-0.016187586 0.0011792857 -0.0012067745
-0.016187584 -0.00027214288 -0.00029225822
-0.024236159 -0.0011792857 -0.0012067743
-0.024236161 -0.0011792857 -0.0007495163
-0.024236159 -0.0011792857 -0.0017554839
-0.024688331 -0.0011792857 -0.0012067745
-0.025230927 -0.0011792857 -0.0012067745
-0.024688331 -0.0011792857 -0.0007495163
-0.021820297 -0.0011792857 -0.0022519354
-0.022246627 -0.00072571432 -0.0022127421
-0.020735094 -0.0011792857 -0.0022519357
-0.022789225 9.0714282e-05 -0.0052306452
-0.023060529 9.0714282e-05 -0.0057793553
-0.022789225 9.0714282e-05 -0.0057793558
-0.023060529 9.0714282e-05 -0.0052306452
-0.023060525 -0.00018142856 -0.0043161293
-0.023060529 9.0714282e-05 -0.0043161288
-0.023060527 -0.00018142856 -0.0047733872
-0.025773527 -0.0011792857 -0.0022127419
-0.026316134 -0.0011792857 -0.00034451624
-0.023783997 -0.0011792857 -0.00074951618
-0.023060525 -0.00018142856 0.00080516119
-0.022802144 -0.00020734694 0.00080516119
-0.022789227 -0.00018142856 0.0012624194
-0.026768297 -0.0011792857 -0.0012067743
-0.026768297 -0.0011792857 -0.0022127419
-0.019262321 -0.0011792858 -0.001755484
-0.019262323 -0.0002721429 -0.0022127416
-0.014198052 0.00072571426 -0.0022127419
-0.013745882 -0.00027214282 -0.0022127419
-0.014198049 -0.0002721429 -0.0022127421
-0.013745882 0.00018142858 -0.0022127419
-0.01419805 0.00018142859 -0.0022127421
-0.026768299 -0.00072571432 -0.0022127421
-0.020528391 9.0714282e-05 0.0012624194
-0.012751115 0.00011792859 -0.0032187104
-0.0076868422 9.0714282e-05 -0.0047733868
-0.01019637 0.00015875003 -0.0057793553
-0.010182804 -0.00025400001 -0.0057793553
-0.012714943 -0.00025400004 -0.0043161288
-0.012751115 0.0001050376 -0.0043065026
-0.012751116 0.00012959182 -0.0047733872
-0.011756347 -0.00027214285 -0.0022127419
-0.01130418 -0.0002721429 -0.0022127421
-0.011756347 -0.00072571432 -0.0022127416
-0.012193444 -0.00071815471 -0.0022813308
-0.011756347 -0.0011792857 -0.0022127419
-0.012184399 -0.001173238 -0.0022676133
-0.0076351659 -0.00018142855 -0.0032448389
-0.0076627266 -0.001173238 -0.0022676128
0.010761579 -0.0011792857 -0.0012067743
0.010761579 -0.0011792857 -0.001755484
0.012734673 0.00014019482 0.0022517592
0.012660681 -3.6379788e-12 0.0026341933
0.012751115 -0.00018142856 0.0026341933
0.013293714 0.0011792857 -0.00074951618
0.013293714 0.0011792857 -0.00029225822
0.013745881 0.0011792857 -0.00029225822
0.013293714 0.00074839289 -0.00031512114
0.0047929729 -0.0011792857 -0.00074951618
0.0042503718 -0.0011792857 -0.00029225822
0.004792972 -0.0011792857 -0.00029225822
0.0052451398 -0.0011792857 -0.00029225822
0.0051547061 -0.00018142856 0.0026341933
0.00081390096 -0.0011792858 -0.00074951618
0.00027130035 -0.0011792857 -0.00074951618
0.00027130032 -0.0011792857 -0.00029225822
-0.00018086687 -0.00018142856 -0.0057793553
-0.00018086689 -0.00018142856 -0.0062366128
-0.0023964862 -0.00018142856 -0.0077455644
-0.0023512694 -0.00018142856 -0.0072425809
-0.00018086686 -0.00018142856 -0.0072425809
-0.0023512696 -0.00018142856 -0.0062366133
-0.0027130032 -0.00018142856 -0.0057793553
-0.0023512694 -0.00018142856 -0.0057793553
-0.0027130032 -0.00018142856 -0.0072425804
-0.002396486 6.8035719e-05 -0.0066938712
0.0048834062 9.0714268e-05 -0.0047733868
0.0048834062 9.0714282e-05 -0.0052306452
0.0052451398 9.0714282e-05 -0.0047733872
0.004973839 -0.00018142856 -0.0047733872
-0.016730187 -0.00074839289 -0.00031512103
-0.017272787 -0.00074839283 -0.00031512114
-0.01528325 9.0714282e-05 -0.0032187102
-0.015283254 0.00070993789 -0.0022723845
-0.020257087 -0.0011792857 -0.0012067743
-0.020709256 -0.0011792857 -0.0012067743
-0.0098572448 9.0714282e-05 0.00025645155
-0.0098572448 -0.00018142856 7.354829e-05
-0.0093146432 0.0011792857 -0.00029225822
-0.0049135508 6.0476177e-05 -0.0066938717
0.014740651 0.0011792857 -0.00074951618
0.015742375 -0.00071175827 -0.0022338459
0.014763258 -0.0011792857 -0.0022813308
0.014198051 -0.0011792857 -0.0022127421
0.015257413 -0.0011792857 -0.0022519354
0.016730187 -0.0011792857 -0.0017554839
0.017272787 -0.0011792857 -0.0022127421
0.012208515 -0.0011792857 -0.0012067743
0.012751116 -0.0011792858 -0.0017554839
0.012208515 -0.0011792857 -0.001755484
0.012751115 -0.00019957144 -0.0066938712
0.012751115 -0.00018142856 -0.0062366128
0.012699439 -0.00018142855 -0.0052306452
-0.0073251086 0 -0.0071511292
-0.0073251086 5.4569682e-12 -0.0066938712
-0.010761579 0.0011792857 -0.0022127416
-0.01130418 0.0011792857 -0.0017554839
-0.010761578 0.0011792857 -0.0017554839
-0.011318093 0.0011862637 -0.0022338459
-0.010218978 0.0011792857 -0.001755484
-0.01130418 0.0011792857 -0.0007495163
-0.017815385 0.0011792856 -0.0012067745
-0.017272787 0.0011792857 -0.0007495163
-0.015283252 0.0011792857 -0.0017554839
-0.0073251086 -0.00018142856 -0.0052306456
-0.0073251086 -0.00018142856 -0.0061451616
-0.0073251086 -1.8189894e-12 -0.0062366128
0.011756347 0.0011792857 -0.0012067743
0.011756347 0.0011792857 -0.00074951624
0.0062399074 -0.00027214285 -0.0022127419
0.0052451398 -0.00018142856 -0.0032187097
0.0042322851 0.00073478569 -0.0022401777
0.0027130032 9.0714282e-05 -0.0032187097
-0.00018086687 9.0714282e-05 -0.0066938712
0.01019637 0.00015875002 -0.0047733872
0.010196369 0.00015875003 -0.0072425809
0.01019637 0.00015875 -0.0066938712
-0.022789227 9.0714268e-05 0.0017196774
-0.024236159 0.00018142856 -0.0022127416
-0.025773527 0.0011792857 -0.0017554839
-0.025773527 0.0011792856 -0.0012067743
-0.025773527 0.0011792857 -0.0007495163
-0.025230927 0.0011792857 -0.0012067745
-0.024688331 0.0011792857 -0.0017554839
-0.026316132 -0.00075163256 -0.00034451624
-0.02830567 0.0011792857 -0.00074951618
-0.025592661 9.0714282e-05 0.00080516119
-0.025773527 0.00072571426 -0.00038370979
-0.026316131 0.0011792857 -0.00038370979
-0.0281248 9.0714282e-05 0.00080516119
-0.028757827 0.00072571426 -0.00038370979
-0.0281248 -0.00018142856 0.00080516119
0.025351509 -0.00024190475 -0.0052306456
0.004973839 -0.00018142856 0.0012624194
0.004973839 -0.00018142856 0.0017196774
0.0027130032 -0.00018142856 0.0017196774
0.0024417029 -0.00018142856 0.0017196774
0.0026949164 -0.00018142856 0.0022318061
0.0023512694 9.0714282e-05 0.002268387
0.0024417029 -0.00018142856 0.002268387
0.0072346744 0.0011792857 -0.0012067743
0.0072346753 0.0011792857 -0.0007495163
0.0076868418 0.0011792857 -0.0012067743
0.0076868422 0.0011792857 -0.0007495163
0.011756347 -0.00075163273 -0.00034451624
0.011304181 -0.0011792857 -0.00029225822
0.011756347 -0.0011792857 -0.0007495163
0.017815385 -0.00021441559 0.0022517592
0.01130418 -0.00075163256 -0.00034451624
-0.018267557 0.0011792857 -0.0012067743
-0.018719725 0.0011792857 -0.0012067743
-0.019804923 0.0011792857 -0.0007495163
-0.019804923 0.0011792857 -0.0012067745
0.0027130034 9.0714282e-05 0.002268387
0.0027130032 9.0714268e-05 0.0017196774
0.0026225697 9.0714282e-05 0.0026341933
0.0024417029 0.00012095238 0.0026951609
9.0433437e-05 6.0476184e-05 0.0026951609
-0.01474065 0.0011792857 -0.00029225822
-0.01474065 0.00074839283 -0.00031512114
-0.017815385 0.00012959185 0.0017196774
-0.011304179 0.0011792857 -0.00029225822
-0.012208516 0.0011792857 -0.0012067743
-0.0073251086 -5.4569682e-12 0.0017196774
-0.0073251086 -1.8189894e-12 0.0012624194
-0.0076868418 9.0714268e-05 0.0012624194
-0.004973839 -3.6379788e-12 0.0026341933
-0.004973839 -0.00018142856 0.0026341933
-0.0051547061 -0.00018142856 0.0026341933
-0.0051547061 9.0714268e-05 0.0026341933
-0.021794459 0.0011792857 -0.0007495163
-0.021251857 0.0011792857 -0.0007495163
-0.021251857 0.0011792857 -0.0012067743
-0.021794461 0.0011792857 -0.0017554839
-0.021251857 0.0011792857 -0.0022127419
-0.021251857 0.0011792857 -0.001755484
-0.020709256 0.0011792857 -0.0022127421
-0.020257087 0.0011792857 -0.00074951624
0.020709258 0.0011792857 -0.0007495163
0.020709256 0.0011792857 -0.00029225822
0.021251857 0.0011792857 -0.00029225822
0.020528391 9.0714282e-05 0.00080516119
0.024236159 0.0011792857 -0.00029225822
0.023783995 0.0011792857 -0.00029225822
0.024236159 0.0011792857 -0.00074951624
0.024688331 0.0011792857 -0.00074951618
0.024236159 0.00074839283 -0.00031512103
0.023060529 9.0714268e-05 0.00080516119
0.022698792 0.0011792857 -0.00029225822
0.023241397 0.0011792857 -0.0012067745
0.023783993 0.0011792857 -0.0017554839
0.023783997 0.0011792857 -0.0007495163
0.023783991 0.00074839283 -0.00031512114
0.021251857 0.00074839283 -0.00031512103
0.021794463 0.00074839283 -0.00031512114
0.021251859 0.00018142859 -0.00029225822
0.016187586 0.0011792857 -0.00029225822
0.016730187 0.0011792857 -0.00029225822
0.017815387 0.0011792857 -0.00029225822
0.018267555 0.0011792857 -0.0002922581
0.017272787 0.0011792857 -0.00074951618
0.017815387 0.0011792857 -0.0007495163
0.019804923 0.0011792857 -0.00029225822
0.019262319 0.00074839283 -0.00031512114
0.018719723 0.0011792857 -0.00029225822
0.01871972 0.00074839283 -0.00031512114
0.020267136 0.00012095238 0.0012725806
0.020248868 -0.0002638961 0.0017363047
0.020275177 0.00014514285 0.0017196771
0.020257087 0.0011792857 -0.00029225822
0.020528391 9.0714282e-05 0.0012624194
0.020257087 0.0011792858 -0.0017554839
0.019804923 0.0011792857 -0.0012067743
0.020257087 0.0011792857 -0.0012067743
0.019804925 0.0011792857 -0.0023041936
0.019262321 0.0011792857 -0.0012067745
0.018719722 0.0011792857 -0.0012067743
0.020257089 0.0011792857 -0.0007495163
0.011304181 0.0011792857 -0.0002922581
0.01130418 0.0011792857 -0.00074951618
0.011756347 0.0011792857 -0.00029225822
0.012208514 0.0011792857 -0.00029225822
0.020264046 0.00011164835 0.0022543175
0.020528391 9.0714282e-05 0.002268387
0.020257089 -1.8189894e-12 0.0026341933
0.023060527 -0.00018142856 0.0012624194
0.023060527 9.0714268e-05 0.0012624194
-0.023783993 0.0011792857 -0.001755484
0.017453654 -1.8189894e-12 0.00080516119
0.017272787 -0.00074839283 -0.00031512103
0.015260644 0.00015875 0.00080516119
0.016187584 0.00018142861 -0.00029225822
0.015301337 -0.00019957141 0.00080516119
0.01528325 -0.00018142856 0.0012624194
0.015283252 -0.0011792857 -0.00029225822
0.014740651 -0.0011792856 -0.00029225822
0.01419805 -0.0011792857 -0.00029225822
0.014198049 -0.00075163256 -0.00034451624
0.026316132 -0.00072571426 -0.00038370979
0.026768297 -0.00027214288 -0.00038370979
0.026768299 -0.00072571426 -0.00038370979
0.026768297 -0.0011792857 -0.00038370979
0.022789227 -0.00018142856 0.0017196774
0.022246627 -0.0011792857 -0.00029225822
0.021794463 -0.0011792856 -0.00029225822
0.022246623 -0.00074839283 -0.00031512103
0.022698792 -0.0011611428 -0.00032883883
0.024680467 -0.00074149069 -0.00032406743
0.024236159 -0.00074839283 -0.00031512114
0.023791861 -0.00074937893 -0.00032406743
0.024236159 -0.0002721429 -0.00029225822
0.023060525 -0.00018142856 0.00080516119
0.022807311 0.00014514285 0.00080516119
0.022246623 0.00074839278 -0.00031512114
0.027220463 -0.0011792857 -0.0007495163
0.027763067 -0.0011792857 -0.00038370979
0.027871588 0.00014514285 0.00080516119
0.026316131 -0.0011792857 -0.0022127421
0.025773527 -0.0011792857 -0.0022127416
0.025351509 -0.00024190475 -0.0047733872
0.023060527 9.0714282e-05 -0.0047733872
0.023060525 -0.00018142856 -0.0066938712
0.022789225 -0.00018142856 -0.0066938712
0.020275177 -0.00021771427 -0.0047916775
0.022789227 -0.00018142856 -0.0052306452
0.020528391 -0.00018142856 -0.0047733872
0.017272783 -0.00072571426 -0.0022127419
0.020257087 -0.0011792858 -0.0012067743
0.019262321 -0.0011792857 -0.001755484
0.019262323 -0.0011792857 -0.00074951618
0.018267557 -0.0011792857 -0.0007495163
0.0076868418 -0.00018142856 -0.0052306452
0.0073251082 7.257142e-05 -0.0057427743
0.0076868418 -0.00018142856 -0.0057793548
0.0076642339 -0.00018142856 -0.0043161293
0.0076868418 -0.00018142856 -0.0037674196
0.0076868427 9.0714282e-05 -0.0043161293
0.0076506687 -0.00018142856 -0.0047916775
0.0073251086 9.0714282e-05 -0.0043161293
0.0073251086 9.0714282e-05 -0.0047733872
0.004973839 -0.00018142856 -0.0052306452
0.004973839 -0.00018142856 -0.0057793544
0.0052451398 -0.00018142856 -0.0057793544
0.0052451398 -0.00018142856 -0.0047733872
0.0027130032 -0.00018142856 -0.0066938717
0.0052451398 -0.00018142856 -0.0062366128
0.0052451398 -0.00018142856 -0.0072425809
0.004973839 -0.00018142856 -0.0066938712
0.0052451398 -0.00018142856 -0.0066938712
0.0082294438 0.0011792857 -0.001755484
0.0082294438 0.0011792857 -0.0012067743
0.021251857 0.00072571426 -0.0022127421
0.021794459 -0.00027214285 -0.0022127419
0.021251857 -0.00072571426 -0.0022127416
0.024236159 -0.0007257142 -0.0022127416
0.023060525 -0.00018142856 -0.0032187097
0.024236159 -0.0011792857 -0.0022127419
-0.017272787 -0.0007257142 -0.0022127419
-0.017272787 -0.0011792857 -0.0022127419
-0.01871972 -0.0011792857 -0.0022127416
-0.017815387 -0.0011792857 -0.0022127416
-0.018267555 0.0011792857 -0.001755484
-0.017815387 -0.00022678571 -0.0052306452
-0.015283251 0.00011164835 -0.004780422
-0.014921517 1.8189894e-12 -0.0043161293
-0.015283252 0.0001050376 -0.0043257554
-0.015247078 -0.00025400001 -0.0072425813
-0.020528391 9.0714268e-05 -0.0037674196
-0.020528391 9.0714282e-05 -0.0032187097
-0.021251857 0.00072571426 -0.0022127416
-0.023060527 9.0714282e-05 -0.0047733872
-0.022789225 9.0714282e-05 -0.0047733868
-0.022789225 9.0714282e-05 -0.0043161288
-0.020528391 9.0714282e-05 -0.0057793553
-0.020257087 9.0714268e-05 -0.0052306452
-0.020257087 9.0714282e-05 -0.0043161293
-0.020528391 9.0714282e-05 -0.0043161293
-0.024236161 -0.00027214288 -0.0022127419
-0.023060527 9.0714268e-05 -0.0062366133
-0.022789225 9.0714268e-05 -0.0062366128
-0.026768299 0.00072571426 -0.0022127421
-0.01271494 -0.00025399998 -0.0047733868
-0.012714942 -0.00025400004 -0.0072425813
-0.012714942 -0.00025400001 -0.0066938708
-0.015247079 -0.00025400004 -0.0066938708
-0.012714942 -0.00025399998 -0.0062366128
-0.012751116 9.0714282e-05 -0.0062366128
-0.017815387 -0.00022678571 -0.0066938712
-0.013293714 -0.0011792857 -0.0022127416
-0.01419805 -0.00072571426 -0.0022127419
0.0052451398 9.0714268e-05 -0.0062366128
0.0048834062 9.0714282e-05 -0.0072425813
0.0073251086 6.0476177e-05 -0.0062061287
0.0076868418 9.0714282e-05 -0.0057793553
0.0076351659 -0.00018142855 -0.0072425804
0.020257091 -0.00018142856 -0.0066938712
0.020275176 0.00014514285 -0.0072425818
0.020275176 0.00014514285 -0.0052306452
0.015283252 -0.00018142856 -0.0062366128
0.015260643 0.00015874999 -0.0062366133
0.012728508 0.00015874999 -0.0062366123
0.017815385 9.0714268e-05 -0.0066938703
0.017815387 -0.00022678572 -0.0062366128
0.017815385 9.0714268e-05 -0.0062366128
0.017815387 9.0714282e-05 -0.0057793553
0.017815385 -0.00022678573 -0.0057793553
0.012751115 -0.00019957141 -0.0032004197
0.012190428 -0.0007257142 -0.0022401777
0.012699439 -0.00018142855 -0.0037674194
0.012389381 0.00010885714 -0.0037674191
0.015260644 0.00015875 -0.0032187102
0.015735419 0.00072571426 -0.0022127419
0.0076868422 -0.00054428569 -0.0026700001
0.0067894631 -0.00073269231 -0.0022971588
0.0067825075 -0.0011792858 -0.0023041936
0.0048834062 9.0714268e-05 -0.0037674194
0.010182804 -0.00025400001 -0.0066938712
0.010182804 -0.00025400004 -0.0052306447
0.0076868422 -0.00018142856 -0.0062366128
0.010196369 0.00015874999 -0.0062366137
-0.014198047 0.00074839289 -0.00031512114
-0.014198052 0.0011792858 -0.001755484
-0.023060525 -0.00018142856 -0.0032187097
-0.024236159 -0.00072571432 -0.0022127419
-0.022789227 9.0714282e-05 -0.0066938712
-0.023060525 -0.00018142856 -0.0072425809
-0.022789227 -0.00018142856 -0.0062366128
-0.020287232 -0.00024190475 -0.0072425809
-0.02532832 0.00011164835 -0.0057652863
-0.025351509 -0.00024190475 -0.0047733872
-0.026316134 0.0011792857 -0.0012067745
