# .PCD v0.7 - Point Cloud Data file format
VERSION 0.7
FIELDS x y z
SIZE 4 4 4
TYPE F F F
COUNT 1 1 1
WIDTH 711
HEIGHT 1
VIEWPOINT 0 0 0 1 0 0 0
POINTS 711
DATA ascii
0.0037406455 -0.00010381327 -0.0087121977
0.0037397575 0.00013002382 -0.0090604778
0.0040357816 -8.5066022e-05 -0.0087130805
0.0015719769 0.00017258973 -0.0086338492
0.0012582645 0.00014093901 -0.0091175204
0.0012680818 -8.4094587e-05 -0.0091035143
0.00025242261 -0.0011429988 -0.00076833379
0.00025242247 -0.0011429989 -0.00026166649
-0.0002524225 -0.001142999 -0.00076833379
-0.0012645388 0.00011967305 0.0026321784
-0.00097651873 -0.00013025641 0.0022546155
-0.0012733421 -9.7940698e-05 0.002676357
-0.0012619463 -0.00015707905 0.0022695009
0.0050446228 -0.00061094697 -0.00076929282
0.0050451867 -0.00020254315 -0.0012771835
0.0050362116 -0.00062074477 -0.0017629246
0.005025499 -0.00062056811 -0.0012807578
0.0050484547 -0.00022225006 -0.00076833367
-0.0040358878 -0.00014431815 -0.0082416674
-0.0037243904 -0.00015791894 -0.0082413405
-0.0040358873 -0.00014431818 -0.0077349995
-0.0040229815 0.00011112497 -0.007735
-0.0034392548 -0.00015875 -0.0082416665
-0.0034392548 -0.00015874999 -0.0086216675
-0.003724386 -0.00015791896 -0.0077339979
0.0037305749 0.00019855752 -0.0082383193
0.0040387562 0.0001905 -0.0082416628
0.0037374406 0.00018460839 -0.0087314639
0.0034392548 0.00012700004 -0.0086187879
0.0022718003 -0.0011429989 -0.001274999
0.0027766456 -0.0011429989 -0.00076833309
0.0027766465 -0.0011429989 -0.0012749989
0.00075726851 -0.0011429987 -0.00076833414
0.0027766465 -0.0011429996 -0.00032499991
0.0032499365 -0.0011429999 -0.00032499991
0.0046424675 -0.001071033 -0.0012749996
-0.0027766475 0.0011429995 -0.00032500015
-0.0037644424 0.00014708674 0.00075166672
-0.0032499356 0.001143 -0.00032499991
-0.0027766472 0.0011429987 -0.00076833402
-0.002271801 0.0011429989 -0.00076833344
-0.0032499346 0.0011429993 -0.00076833367
-0.0015703586 0.00014653846 0.0022058976
-0.0012690072 0.00018671538 0.0022578267
-0.0012645081 0.00018889252 0.0017641983
-0.0015700232 0.00015765517 0.0017650002
-0.0037097079 0.0011248571 -0.00032499991
-0.0037610945 0.00014859001 0.0012583337
0.0032499346 -0.0011429992 -0.0012749995
-0.0012621124 -0.001142999 -0.0012749993
-0.00075726834 -0.0011429992 -0.0017499985
-0.001262111 -0.0011429992 -0.0017499987
-0.00075726828 -0.0011429989 -0.00076833356
-0.0012621126 -0.0011429989 -0.00076833379
-0.0017669543 -0.0011429989 -0.00076833286
-0.0017669564 -0.0011429989 -0.0012750005
0.00025242247 -0.0011429989 -0.0012749992
0.0050435928 -0.00059103844 -0.00040538469
0.0050473227 -0.00020127233 -0.0002848513
0.0047241198 -0.00073811284 -0.00034951977
0.0047306013 -0.00021865219 -0.00026487769
-0.0037350112 -0.00015142318 -0.008733809
-0.0037788223 -8.9202382e-05 -0.009061981
-0.0050484496 -0.00022225005 -0.0022249995
-0.005042138 -0.00070273335 -0.0022102224
-0.0045866296 -8.6590924e-05 -0.00251
-0.0040358868 -0.00014431817 -0.0037450001
-0.0027738106 0.00078063185 -0.00032424158
-0.00096761947 -0.00014816668 0.0012583337
-0.00097813655 9.3133342e-05 0.001273111
-0.00097813655 9.0714304e-05 0.0017559524
-0.00097240007 -0.00013854545 0.0017678794
-0.0040229815 0.00011112497 -0.0082416674
-0.0012615353 -0.00015833562 -0.0087477658
-0.00095518975 -0.00011891817 -0.008715515
-0.0012593915 -0.00011276727 -0.0091212308
-0.0012627556 0.00013607141 -0.0090798596
-0.0017669566 -0.0011429999 -0.0025099986
-0.0017669566 -0.0011429988 -0.0022249999
-0.0027450933 -0.0011915589 -0.00251
-0.0012621115 -0.0011429999 -0.0025099986
0.0037254016 0.00020673947 -0.0067533385
0.0037251338 0.00020687538 -0.007228238
0.0040387572 0.00019049998 -0.0067533315
-0.0009487606 -0.0001193362 -0.0067413216
-0.00095567608 -0.00012592372 -0.0072299433
-0.0012621114 -0.0001587501 -0.0067533334
-0.0040358868 -0.00014431818 -0.0032383346
-0.0047321795 -0.0007293786 -0.0022241301
-0.0040072049 -0.00050800003 -0.00251
-0.0035023603 -0.0010795 -0.00251
-0.0042206859 -0.0011353433 -0.0022016433
-0.0032402298 -0.0011625384 -0.00251
0.0015741334 0.0001763889 -0.0072283349
0.0012662272 0.00021672838 -0.007734993
0.0012662276 0.00021672832 -0.0072283316
-0.0050484515 -0.00022225002 -0.0017499988
-0.0050484533 0.00025400004 -0.0012749992
-0.0050484505 0.00025400001 -0.0017499989
0.0012637922 0.00020120866 -0.0087398989
0.0050484515 0.00025400007 -0.00026166672
0.005048451 0.00025400007 -0.00076833356
0.0050443755 0.00072922569 -0.00033827964
0.0040378547 0.00017598571 -0.0087248133
0.0007548721 -0.0011413912 -0.00026407163
0.0017669551 -0.001142999 -0.00076833332
0.0017669555 -0.0011429989 -0.0012749989
0.0012621114 -0.0011429989 -0.0012749993
0.0046424675 -0.001071033 -0.00032499991
0.0046424689 -0.0010710332 -0.00076833356
-0.00097813655 8.8900015e-05 0.002208333
0.00094925839 0.00016359323 0.0017762706
-0.0017642112 0.001131956 -0.00029195682
-0.001569459 0.00015169442 0.0012501236
-0.0022687963 0.0011369521 -0.00031293649
-0.0017669557 0.0011429989 -0.00076833332
-0.0012587002 0.0011344181 -0.00027707196
-0.00025242259 0.001142999 -0.00026166695
0.00025242247 0.0011429989 -0.00076833379
-0.0002524225 0.0011429988 -0.00076833356
0.00094609911 0.00016412306 0.0012539485
0.0037337502 0.00018643786 0.002255993
0.0040364708 0.0001730145 0.002253768
0.0037769547 0.00012013513 0.002608018
0.0038058679 -4.2333348e-05 0.0025717462
0.0034392548 0.00015522221 0.0021907408
0.0042224075 0.0011397427 -0.00076833391
0.0042213523 0.0011389022 -0.00026289234
0.0037232346 0.0011429988 -0.00026166649
0.0046559614 0.0010911159 -0.00026630075
-0.0037097123 0.0011248565 -0.00076833321
-0.004209666 0.0010821457 -0.00076833367
-0.0042155362 0.0011174843 -0.002199406
-0.0032450086 0.0007714426 -0.00034536573
0.0040387581 -9.524999e-05 0.0017649992
0.004032963 -8.4234678e-05 0.0022257818
0.0032499374 -0.0011429992 -0.00076833414
0.0037232346 -0.0011429997 -0.00032499991
0.0037232307 -0.0011429989 -0.0012749986
0.0037232335 -0.0011429993 -0.0017499992
0.004214549 -0.0011248566 -0.0012749996
0.0037232323 -0.0011429993 -0.0021933333
0.0042145485 -0.0011248571 -0.0021933317
0.0040387576 -9.5249983e-05 -0.0082416674
0.004214548 -0.001124857 -0.0017499989
0.0042145494 -0.0011248573 -0.00032499991
0.0046424679 -0.0010710331 -0.0021933329
-0.00025242241 -0.0011429992 -0.001749998
0.00025242241 -0.0011429993 -0.0017499982
-0.0015756672 -0.00013890624 0.0022043749
-0.00025242256 -0.0011429989 -0.00026166649
-0.00075726851 -0.0011429988 -0.00026166649
-0.0012621114 -0.0011429989 -0.00026166649
-0.00075726851 -0.0011429988 -0.0022249983
-0.00075726706 -0.0011429999 -0.0025099986
0.00075726863 -0.0011429989 -0.0012749996
-0.0042224089 -0.0011397423 -0.00076833379
-0.0037232295 -0.0011429988 -0.00026166672
-0.0042213546 -0.0011389024 -0.00026289234
-0.00504357 -0.00070177327 -0.0017519578
0.0050484505 0.00025400004 -0.0017500003
0.0050475821 0.00025050464 -0.0022188989
0.005044796 0.00068045268 -0.002204
-0.0040238118 0.00010026317 -0.0086533343
-0.0040359604 -0.00013584175 -0.0087278923
-0.0050484478 -0.00022225008 -0.00076833344
-0.0050418065 -0.000731921 -0.00033166679
-0.0050484524 -0.00022225005 -0.00026166672
-0.005048451 0.00025400007 -0.00076833321
-0.0047329213 -0.00076993764 -0.00030916696
-0.0050422587 -0.00069731323 -0.00076626148
0.0015570618 -8.2826089e-05 -0.0086423187
0.00097813655 -6.3500011e-05 -0.007228333
0.00096304651 0.00018773912 -0.0072297095
-0.0040358868 -0.00014431818 0.0012583337
-0.0046908502 -0.0010987989 -0.00027284306
-0.0012621116 -0.0001587501 -0.0062783342
-0.00095289503 -0.00011853332 -0.0062888879
-0.001565808 0.00014287498 -0.0086691678
-0.0012715255 0.00018883454 -0.0087336972
-0.00097112486 0.00010583335 -0.0072001847
-0.00096716173 0.00011319565 -0.0067257979
-0.001268873 0.00020108346 -0.0072268257
-0.0015747708 -0.00014431818 -0.0062783356
-0.0012621122 -0.00015875009 -0.00577167
0.0042224093 0.0011397428 -0.0017499981
0.0042224089 0.0011397427 -0.0012749995
0.004656889 0.0010921234 -0.0022223301
0.0046592974 0.0010915953 -0.0012749992
0.0040387562 0.00019049998 -0.0072283335
0.0040387562 0.0001905 -0.0077350014
0.003724494 0.00020719149 -0.006278337
0.0040387576 0.00019049998 -0.0057716658
0.0037257716 0.00020655752 -0.0057716677
-0.0040229815 0.00011112498 -0.0037450003
-0.0046976348 -0.0010993013 -0.0021902686
-0.0037232332 -0.0001587501 -0.0042516598
-0.0034392548 -0.00015874999 -0.0042516668
-0.0037232337 -0.00015875009 -0.0047583352
0.0015741333 0.00017638887 -0.007735
-0.0042096674 0.0010821456 -0.00032499991
-0.0040229815 0.00011112498 0.00075166672
-0.0050419378 0.0006289524 -0.0021772494
-0.005038531 0.00064044289 -0.0012659525
-0.0046502808 0.0010432138 -0.00076682528
-0.004644678 0.0010418299 -0.00032231654
-0.0046468312 0.0010512774 -0.0017640742
-0.0046529355 0.0010440574 -0.0012735269
-0.0012621125 -0.00015875009 -0.0052649998
-0.00094658439 -0.00012170831 -0.0057822233
-0.00094901177 -0.00011723076 -0.0052625635
-0.0012621121 -0.0001587501 -0.0047583356
-0.0012621119 -0.0001587501 -0.004251664
-0.00094901165 -0.00011723075 -0.0042589717
-0.00095567602 -0.00012592372 -0.0037466104
-0.0027766454 0.001142999 -0.0012749995
0.001266228 0.00021672834 -0.0082416628
0.00096120621 0.00015797561 -0.0087290257
-0.00096912147 9.0714289e-05 -0.0037449996
0.00096379482 0.00018472727 -0.0037565159
-0.0009655155 0.0001016 -0.0032383334
-0.0034392548 -0.00015874999 -0.0037449994
-0.00096177636 -0.00011524073 -0.0032312959
0.00097813655 -6.3500011e-05 -0.0032383334
0.0050460221 0.00068384618 -0.00076833332
0.0050460217 0.00068384618 -0.0012749997
0.0050466633 -0.00021146702 -0.0017523898
0.0022718005 -0.0011429993 -0.0017499989
0.0027766456 -0.0011429992 -0.0017499985
0.0012621118 0.00019050014 0.0012583332
0.0015741331 0.00017638887 0.0012583332
0.0012621114 0.0011429989 -0.00026166649
0.0015741334 0.00017638887 0.0017649997
0.0027716639 -0.00075264223 -0.00031966669
0.0032487123 -0.00074274512 -0.00033766683
0.0037380117 -0.00012531233 0.00075050932
-0.00096645032 0.00011288885 -0.0042716046
0.0015741332 0.00017638886 -0.0032383325
0.0034392548 0.0001542143 -0.0037269047
0.0022718012 0.00073024997 -0.0025099977
0.0015741332 0.00017638887 -0.0037450013
0.00096379477 0.00018472728 -0.0042516673
0.0012657731 0.00021383011 -0.0042553428
0.00097813655 -6.3500003e-05 -0.0037450001
-0.0012633025 0.00018970137 0.0012597262
-0.0015700229 0.00015765519 0.00075166696
0.00025242218 0.0011429989 -0.00026166649
-0.0012621119 0.0011429989 -0.00076833356
-0.0012621124 0.0011429988 -0.001274999
0.004037926 0.00018381578 0.0017574998
0.0037361241 -0.00012404656 0.0017646844
0.0037232339 0.0011429989 -0.0012749986
0.003249936 0.0011429994 -0.00076833391
0.0031111056 0.0011684 -0.00251
0.0032499367 0.0011429992 -0.0012749991
0.0046592974 0.0010915955 -0.00076833344
0.0012621116 -0.0011429992 -0.0017499982
0.0037232321 -0.0011429987 -0.00076833379
0.003249936 -0.0011429996 -0.0017499996
0.0037329178 -0.00012469478 -0.0082419785
0.0050304164 -0.00058964279 -0.0021254767
0.0050416449 -0.00019610296 -0.0021945748
0.0046424684 -0.001071033 -0.0017500002
0.00075726857 0.0011429989 -0.00076833414
0.00077304355 0.0011509374 -0.00251
-0.0034392548 -0.00015874999 0.0012583332
-0.0017669548 -0.0011429989 -0.00026166672
-0.0022718005 -0.0011429989 -0.00026166672
-0.0015747707 -0.00014431815 0.00075166696
-0.0032499367 -0.0011429992 -0.00026166649
-0.0032499363 -0.0011429993 -0.00076833367
-0.0022718026 -0.0011429989 -0.0012749986
-0.0022718008 -0.0011429992 -0.0017499983
-0.0017669549 -0.0011429992 -0.001749998
-0.0012621116 -0.0011429988 -0.002224999
-0.00025242259 0.00079057476 -0.00032183342
-0.0042224098 -0.0011397429 -0.0017499994
-0.003723233 -0.0011429992 -0.0017499977
-0.0042224107 -0.0011397426 -0.0012749995
-0.0037215527 -0.0011379193 -0.0022102208
-0.0032485737 -0.0011423139 -0.0022234062
-0.0037232335 -0.0011429989 -0.00076833309
-0.00075726816 -0.0011429989 -0.0012749998
-0.0050472114 0.00025026474 -0.0022032687
-0.0040358882 -0.00014431818 0.00075166696
-0.0047237761 0.00076269044 -0.00036538648
-0.0047312169 0.00025228382 -0.00026337849
0.0050460226 0.00068384607 -0.0017500004
0.0047324863 0.00072981499 -0.0022245657
-0.0015747707 -0.00014431818 -0.0086849937
-0.0012621122 -0.00015875009 -0.0082416693
-0.0050413217 0.00064524193 -0.00041591399
0.00097813655 -6.3500003e-05 -0.0062783323
-0.0040413556 -0.00013073528 0.0022467058
-0.0037316759 -0.00015293673 0.0022569466
-0.0037995658 -9.5249969e-05 0.0026056976
-0.0038178884 9.525002e-05 0.0025883336
-0.0040401281 -0.00014218477 0.0017746384
-0.003723229 -0.00015875009 0.001765002
-0.0012621118 -0.00015875012 0.00075166696
-0.00096912147 0.00011792856 -0.0062828572
-0.0012643132 0.00020379077 -0.0062783379
0.00096060784 0.00019755556 -0.006270125
-0.0037232314 -0.0001587501 -0.0072283312
-0.0034392548 -0.00015875 -0.0072283335
-0.0015747707 -0.00014431818 -0.0077349991
-0.0015747707 -0.00014431817 -0.007228334
-0.0034392548 -0.00015875 -0.0067533329
-0.0015713295 0.00011429996 -0.0072283335
0.001266228 0.00021672837 -0.0067533408
0.0012662269 0.00021672832 -0.0062783333
0.0015741334 0.00017638887 -0.0067533334
0.0012626128 0.00022208203 -0.0057666446
0.00096114719 0.0001978269 -0.0057680132
-0.0012643135 0.00020379075 -0.0057716663
-0.001571329 0.00011429998 -0.0062783323
-0.0015713293 0.00011429998 -0.0057716672
-0.0036916772 6.3499996e-05 -0.0090333335
-0.003751755 0.00013004802 -0.0086670136
-0.003760434 0.00014911444 -0.0082427692
0.00096357404 0.00018561538 -0.0067435894
-0.0015713293 0.00011429998 -0.0067533338
-0.0012655942 0.00020303027 -0.0067520691
-0.0046423762 0.0010608637 -0.002199529
-0.0015747708 -0.00014431817 -0.0067533315
-0.0037232351 -0.00015875009 -0.0057716635
-0.0040358868 -0.00014431818 -0.0057716663
-0.0040358873 -0.00014431817 -0.0052650007
0.0046592965 0.0010915952 -0.0017499997
0.0042247535 0.0011371508 -0.0022193752
0.0040387576 -9.5249983e-05 -0.0057716649
0.0040387581 -9.5249969e-05 -0.0052650012
0.0037352603 -0.00012720692 -0.0057738316
0.0037396909 -0.00012636719 -0.0047603329
0.0040387581 -9.5249983e-05 -0.0047583333
0.0040387576 -9.524999e-05 -0.0042516664
0.003736126 -0.00012404656 -0.0042528217
0.0034392548 0.00012700002 -0.0067533334
0.0015741331 0.00017638889 -0.0062783328
0.0015741331 0.00017638887 -0.0057716649
0.0015741329 0.00017638887 -0.0052649993
0.0040387572 0.00019049998 -0.0052650007
0.0037245234 0.00020312579 -0.0052605551
0.0040387581 -9.5249976e-05 -0.0037450003
-0.0040358882 -0.00014431817 -0.0042516692
-0.0040229815 0.00011112498 -0.0042516664
-0.0040229815 0.00011112499 -0.0047583338
-0.0037644436 0.00014708674 -0.0042542526
-0.0037644447 0.00014708674 -0.0047583347
0.0037256046 0.00020536569 -0.0077344449
0.0034392548 0.00012699999 -0.0072318516
-0.0040229815 0.00011112497 -0.0032383334
-0.0032499339 0.001142999 -0.0012749986
-0.0042096674 0.0010821457 -0.0012749998
-0.00370971 0.0011248566 -0.0012749989
-0.0015747707 -0.00014431817 -0.0057716668
-0.00094901159 -0.00011723076 -0.0047510266
-0.0012621112 -0.00015875012 -0.0037450017
-0.00075607776 0.0011422002 -0.0022236053
-0.0017669542 0.001142999 -0.0017499978
-0.0012621114 0.0011429992 -0.0017499987
-0.0017656843 0.0011378849 -0.0022086347
-0.0022718019 0.0011429992 -0.0017499975
-0.0022688711 0.0011375565 -0.0021949159
-0.0017669555 0.0011429988 -0.0012750006
0.0015741331 0.00017638889 -0.0082416665
0.0034392548 0.00012700001 -0.0082381479
0.00096461427 0.00018142858 -0.0077334903
-0.00096461398 0.00010432144 -0.0086533334
0.00095973135 0.00017727085 -0.0082271518
-0.0034392548 -0.00015875 -0.0032383332
-0.0027705382 -0.00072308065 -0.0025099977
-0.0022718017 -0.00073025003 -0.0025099977
-0.0022718019 -0.00022224999 -0.0025099977
-0.0015747703 -0.0001443182 -0.0032383322
-0.0015713297 0.00011429998 -0.0032383329
-0.0015747707 -0.00014431818 -0.0037450017
-0.0037232349 -0.0001587501 -0.003745008
0.0050484487 0.00025400004 -0.0012750002
0.0012621123 0.00019050008 0.0017650006
0.0032477854 0.0011386698 -0.0022115645
0.0037215471 0.0011379189 -0.002210222
0.0037373626 -0.00012315155 0.0012599323
0.0034392548 0.0001542143 0.0017559524
0.0037253215 0.00018929828 0.0012586324
0.0034392548 0.00015142307 0.0012656411
0.0034392548 0.0001514231 0.0007541026
0.0037253227 0.00018929824 0.00075176684
0.0015587087 -7.6199991e-05 0.0012583337
0.00024245838 0.0011363156 -0.0025099986
0.00025242238 -0.00073025003 -0.0025099977
0.00023839889 -0.0011288887 -0.0025099989
0.00096379477 0.00018472728 -0.003232576
0.00025242238 0.00073025003 -0.0025099977
-0.00096725638 0.00011605171 -0.0047550579
-0.00096725626 0.00011605171 -0.0052639083
-0.0012643135 0.00020379077 -0.0047583343
0.00095943944 0.0001999074 -0.0052650003
0.00097813655 -6.3500011e-05 -0.0047583333
-0.0007572684 0.0011429989 -0.001274999
-0.00075726828 0.0011429988 -0.00076833344
-0.00075487193 0.0011413915 -0.00026407186
-0.00097813655 8.7923087e-05 0.00075410237
-0.00097112521 -0.00014111112 0.00075096288
0.0037246207 0.00018970139 0.0017646016
0.0037445237 -0.00010893088 0.0022369111
0.0015618636 -7.7390636e-05 0.0021984377
0.0012726297 -7.3121206e-05 0.0026305541
0.0012647921 -0.00015205216 0.0022620363
0.00095710187 -7.408332e-05 0.0017649997
0.0037232351 0.0011429989 -0.00076833356
-0.0022718022 0.00078562787 -0.0003168995
-0.002271801 0.00025400004 -0.00026166718
-0.0027766454 0.00025400013 -0.00026166672
0.0017669554 -0.0011429994 -0.001749997
0.002271801 -0.0011429992 -0.002193332
0.0017656123 -0.0011420983 -0.0021951294
0.004214549 -0.0011248566 -0.00076833379
0.003249936 -0.0011429996 -0.0021933322
0.00097813655 -6.3500011e-05 -0.0077349995
-0.00095330883 -0.00012283606 -0.0077469386
0.0037330603 -0.0001251263 -0.0077336491
0.0012621136 -0.00015875009 -0.0082416646
0.0015632979 -7.7931814e-05 -0.0082301507
0.0034392548 -2.7284841e-12 -0.0085583329
0.0040387581 -9.5249983e-05 -0.0072283354
0.0037310449 -0.00012343733 -0.0072290599
0.00025123174 0.0011422 -0.0022236051
0.00075851381 0.0011436257 -0.0022133335
-0.00025242235 0.0011429999 -0.0025099986
0.00025242221 -0.00022225006 -0.00026166672
-0.00025242244 -0.00077304331 -0.00031398586
0.00025242259 -0.00077304326 -0.00031398563
-0.0015747707 -0.00014431817 0.0012583332
-0.0015747707 -0.00014431817 0.0017649997
-0.0012621124 -0.00015875009 0.0017650002
-0.0027766454 -0.0011429989 -0.00026166672
-0.0027766461 -0.0011429986 -0.00076833426
-0.0022718015 -0.0011429989 -0.00076833332
-0.0032499379 -0.0011429997 -0.0017499984
-0.0022706767 -0.0011403274 -0.0022171088
-0.00025242232 0.00073025003 -0.0025099977
-0.0037232279 -0.0011429988 -0.0012749985
-0.0032499358 -0.0011429992 -0.0012749988
-0.00025242273 -0.0011429988 -0.0012749985
-0.0037232339 -0.00015875012 0.00075166742
-0.0012621116 -0.00015875009 -0.007734993
-0.0015747707 -0.00014431818 -0.0082416674
-0.00095052848 -0.00011906248 -0.0082446355
-0.0015700231 0.00015765517 -0.0082416674
-0.0015705561 0.00013995916 -0.0077408156
-0.0050484496 0.0002417885 -0.0002762822
-0.0040288414 0.00011248571 0.0017840001
-0.0050337221 0.00063923339 -0.0007577776
-0.0037547855 0.00015142307 0.0017649992
-0.0034392548 -0.00015522224 0.0021625925
-0.0037604831 0.00013355483 0.0022248821
-0.0034392548 -0.00015875 0.0017650002
-0.0012657293 0.00018807336 0.00075186882
-0.0034392548 -0.00015875 -0.007735
-0.00096551538 0.0001143 -0.0057758885
-0.0037610931 0.00014859001 -0.0052649993
-0.0032482974 0.0011429997 -0.0021826394
-0.0027701168 0.00070725864 -0.0025099979
-0.0027767664 0.0011377279 -0.0021837719
-0.0037627511 0.00014784596 -0.0072292918
-0.0040229815 0.00011112499 -0.007228333
-0.0022086955 0.0010160002 -0.00251
0.0040387572 0.0001905 -0.0062783314
0.0037311213 -0.00012659302 -0.0052660131
0.0034392548 -9.094947e-13 -0.0057716668
0.0034392546 0.00012700001 -0.0062783333
0.0012621122 -0.00015875012 -0.0062783365
0.0012621126 -0.0001587501 -0.005771671
0.0034392548 4.5474735e-12 -0.0049800002
0.0015652929 -7.8684781e-05 -0.0052663772
0.0015717961 -8.1138875e-05 -0.0047571608
0.0034392548 0.00014165386 -0.0047851284
0.0015741331 0.00017638889 -0.0047583324
0.0034392546 0.00012700001 -0.0052650003
0.0040387572 0.00019049998 -0.0042516654
0.0040387567 0.00019049998 -0.0047583319
0.0012621125 -0.00015875013 -0.0042516687
0.0015688051 -8.0009988e-05 -0.0042427997
0.0015776397 -0.0010160001 -0.00251
0.0012257048 -0.0010404232 -0.00251
0.0012621115 -0.00015875009 -0.0037450036
0.0012621133 -0.0001587501 -0.0032383269
0.0012604961 -0.0011384478 -0.0022045732
0.0034392548 0.00015421429 -0.0042607146
0.0015741331 0.00017638889 -0.0042516645
-0.0046990309 -0.0011006667 -0.001749999
-0.0046990314 -0.0011006668 -0.0012749998
-0.0040358878 -0.00014431818 -0.0047583338
-0.003767933 0.00014552085 -0.0032383325
-0.0037679307 0.00014552083 -0.0037449982
0.0015671222 -7.9374986e-05 -0.0077350005
0.0015671222 -7.9374986e-05 -0.0072388877
0.0034392546 -6.3664629e-12 -0.0077160001
0.0034392546 0 -0.0072473334
0.0034392548 9.094947e-13 -0.0068166666
0.0034392546 0.00013034212 -0.0077366657
-0.0050379289 0.00064029155 -0.0017658327
-0.0034392548 -0.00015875 -0.0062783333
-0.0037232323 -0.00015875009 -0.0062783337
-0.003762753 0.00014784596 -0.0062805745
-0.0015747704 -0.00014431815 -0.0052649993
-0.0015747704 -0.00014431818 -0.0047583352
-0.0012621126 -0.0001587501 -0.0032383306
0.00025242264 0.0011429989 -0.0012749992
0.00075726816 0.0011429993 -0.0017499991
0.00075726857 0.0011429988 -0.001275
0.0012621118 0.0011429988 -0.00076833402
-0.00025242247 0.0011429989 -0.0022249979
-0.00074730284 0.0011363156 -0.0025099986
-0.001260473 0.0011388757 -0.002216364
-0.0012440818 0.0010976428 -0.0025099996
-0.0022718017 0.0011429988 -0.0012749982
-0.0027766454 0.00025400001 -0.0025099979
-0.0022718005 0.00025399998 -0.0025099979
-0.0015713293 0.00011429998 -0.0037450001
-0.002259833 -0.0011145344 -0.0025099993
-0.0015747707 -0.00014431815 -0.004251665
-0.0037243874 -0.00015791896 -0.0032376659
0.0047329231 0.00078562775 -0.0003168995
0.00075726863 0.0011429989 -0.00026166649
0.0012621125 -0.0011429989 -0.00076833356
0.0012587013 -0.001134418 -0.00027707196
0.002268797 -0.001136952 -0.00031293649
0.0022727614 -0.00075942144 -0.00030940794
0.0037361248 -0.00012404659 -0.0037392119
0.0027651719 -0.00065231812 -0.0025099984
0.0037356874 -0.00012282243 -0.0032374954
0.0037232335 0.00019957156 -0.0032398363
0.0036105413 0.00056696433 -0.00251
0.0045557385 -0.00014653847 -0.00251
0.0022718005 -0.0011429989 -0.00076833379
0.0040387567 0.0001905 0.00075166672
0.0015587086 -7.6199991e-05 0.00075166649
-0.00025242232 0.00025400001 -0.0025099979
0.00096205145 0.0001954804 -0.0047490201
-0.0012637927 0.00020064511 -0.0052638785
0.0012662277 0.00021672829 -0.0047583291
0.00097813655 -6.3500011e-05 -0.0042516664
-0.00075726828 0.0011429992 -0.0017499992
-0.00025242235 0.0011429992 -0.0017499977
-0.00025242235 0.0011429989 -0.0012749982
0.0012636896 0.00012382501 0.0026548314
0.0012621124 -0.00015875012 0.001765003
0.0009655155 -6.5616674e-05 0.0022294438
-0.00025242224 -0.0011429987 -0.002224999
0.0002508249 -0.0011413911 -0.0022221932
0.0012657719 0.00021383016 -0.0037413305
0.0012662276 0.00021672828 -0.0032383285
0.0027766475 -0.0011429992 -0.0021933317
0.00075726834 -0.0011429992 -0.0017499991
0.00075581501 -0.0011381947 -0.0022133335
0.0012621123 -0.00015875013 -0.0052649961
0.00097813655 -6.3500003e-05 -0.0057716668
0.0015632981 -7.7931807e-05 -0.0057889386
0.00096953119 -5.4840912e-05 -0.0087022725
0.0012663666 -0.00014858299 -0.0087355264
0.0040387576 -9.5249983e-05 -0.0077350014
0.00025242244 0.00025400001 -0.0025099979
0.0012621126 0.0011429992 -0.0017499982
0.0017669566 0.0011429999 -0.0025099986
-0.0012621117 -0.00015875009 0.0012583327
-0.0027766477 -0.0011429989 -0.001274999
-0.0027780335 -0.0011427992 -0.0022236069
-0.00025242264 0.00025400004 -0.00026166695
0.00025242235 0.00079057488 -0.00032183295
-0.0045330846 0.00010583334 -0.00251
-0.0037232295 -0.00015875009 0.0012583339
-0.0034392548 -0.00015875 0.00075166672
-0.0027766423 -0.00022225008 -0.00026166649
-0.0027766454 -0.00076993747 -0.00030916673
-0.0022718008 -0.00022225009 -0.00026166718
-0.0012621118 -0.0001587501 -0.0072283405
-0.0012715126 0.00020342489 -0.0077335932
-0.0040229815 0.00011112497 0.0012583334
-0.004032915 0.00010112961 0.0022024689
-0.0046990323 -0.0011006667 -0.00076833379
-0.005042607 -0.00069850008 -0.0012749993
-0.0040358878 -0.00014431817 -0.007228333
-0.0040358882 -0.00014431817 -0.0067533324
-0.0037232339 -0.0001587501 -0.0067533432
-0.0040229815 0.00011112499 -0.0062783328
-0.0037644429 0.00014708674 -0.0057716654
-0.0027766463 0.0011429993 -0.0017499982
-0.0040229815 0.00011112499 -0.0067533329
-0.003763956 0.00014730527 -0.0067540705
-0.0017459212 0.0010583333 -0.00251
-0.0022718015 0.00073024997 -0.0025099977
-0.0040358878 -0.00014431817 -0.0062783333
0.0040387581 -9.5249976e-05 -0.0062783323
0.0034392548 0 -0.0062783337
0.0015632976 -7.7931814e-05 -0.0062783342
0.00097813655 -6.3500011e-05 -0.0067533338
0.00073886121 -0.0010821457 -0.00251
0.0034392548 -6.3664629e-12 -0.0052649998
0.0034392548 0.00012700001 -0.0057716663
0.0040387562 0.0001905 -0.0037450015
0.0037257716 0.00020655757 -0.0047586961
0.0015703582 -8.0596139e-05 -0.0037450003
0.0027766451 -0.00022224999 -0.0025099977
0.0012621122 -0.0001587501 -0.0077350005
0.0034392546 1.8189894e-12 -0.0082353335
-0.0042114663 0.0010978818 -0.0017683329
-0.0037139514 0.0011305487 -0.0017562071
-0.0015713293 0.00011429998 -0.0052649998
-0.0015713293 0.00011429996 -0.0047583338
-0.0034392548 -0.00015875 -0.0052650003
0.00025242235 0.0011429993 -0.0017499991
0.0027766484 0.0011429989 -0.0012749991
-0.0012700476 0.00020038635 -0.0032370042
-0.0037201156 0.0011442542 -0.0021850727
-0.0012710302 0.00019802751 -0.0037429829
0.0017642123 -0.0011319557 -0.00029195682
0.00323942 -0.0006138332 -0.0025099993
0.0034392548 0.00015875 -0.0032383334
0.0045120497 9.5250012e-05 -0.00251
0.0040387562 0.00019049997 0.0012583334
0.0040387576 -9.5249976e-05 0.00075166696
0.00095710187 -7.4083327e-05 0.0012583334
0.0017669564 0.0011429989 -0.00026166718
0.0022718033 0.0011429989 -0.00026166672
0.0017669557 0.0011429987 -0.00076833309
0.0015741332 0.00017638887 0.00075166672
0.0012623731 0.00021464047 -0.0052605458
0.00095893093 0.00016565216 0.0022372459
0.0015723807 0.00017330208 0.0021885415
0.0015703582 -8.0596146e-05 0.0017649997
-0.00025242235 -0.0011429999 -0.0025099986
-0.00025242235 -0.00073025003 -0.0025099977
0.0037232351 0.0011429992 -0.0017499991
0.0037331365 -0.00012638354 -0.0062790532
0.0012621124 -0.0001587501 -0.0047583268
0.00096411322 -7.0555565e-05 -0.0082522221
-0.0009655155 0.0001016 -0.0082796672
0.0047218348 -0.00071823632 -0.0021994656
-0.00025242238 -0.00022225 -0.0025099977
0.0012621114 0.0011429989 -0.0012749995
0.0012628046 0.0011433971 -0.0022243054
0.0017669552 0.0011429992 -0.001749998
0.0017669564 0.0011429989 -0.0022249985
-0.002271801 -0.00076993747 -0.0003091672
-0.0047261282 0.00071544264 -0.0021975918
-0.0027766463 -0.0011429995 -0.0017499977
0.00025242218 0.00025400007 -0.00026166649
-0.00025242241 -0.00022225 -0.00026166718
-0.0032420489 0.00065881241 -0.0025099986
-0.0040198262 0.00060960004 -0.00251
-0.0009655155 0.0001016 -0.007735
-0.001271904 0.00020838229 -0.0082431268
-0.0037644426 0.00014708674 -0.0077337101
-0.0050484487 -0.00022225006 -0.0012749993
-0.0040229815 0.00011112497 -0.0057716672
0.0015638865 -7.815384e-05 -0.0067630769
0.0037244961 0.00020719149 -0.0037442762
0.0037238779 0.00020345931 -0.0042561861
0.0015671221 -7.9374993e-05 -0.0032383332
0.0022647893 -0.0006914445 -0.0025099979
0.0012621118 -0.0001587501 -0.0072283377
-0.0034392548 -0.00015875 -0.0047583333
-0.0037232321 -0.00015875009 -0.0052649975
-0.0034392548 -0.00015875 -0.0057716672
0.0022718015 0.0011429988 -0.0012749986
0.0022717996 0.0011429989 -0.00076833426
0.0027766444 0.0011429989 -0.00026166672
0.0032499349 0.0011429996 -0.0017499998
0.0027766458 0.001142999 -0.0017499981
-0.0012654329 0.00020312579 -0.0042529623
0.0012621119 -0.00015875012 0.00075166742
0.0012621123 -0.0001587501 0.0012583332
0.003691677 -0.00056861364 -0.00251
0.0027766458 0.00073025003 -0.0025099977
0.0040387567 0.00018724357 -0.0032440184
0.0040387581 -9.524999e-05 0.0012583337
0.003249936 0.0011429992 -0.00026166649
0.00097813655 -6.3500018e-05 -0.0052649993
0.0012632528 0.00019776818 0.0022670878
0.0022718017 0.00025400004 -0.00026166672
0.0027766447 0.00078562787 -0.00031689927
0.0040387581 -9.5249976e-05 -0.0067533324
0.0017669548 0.0011429989 -0.0012749995
0.0012677748 0.0011462562 -0.0025099986
-0.0040229815 0.00011112498 -0.0052650007
0.0022718003 -0.00022224999 -0.0025099977
0.0017669564 -0.00073025003 -0.0025099977
0.0012621129 -0.00015875009 -0.0067533413
0.0027766472 0.0011429988 -0.00076833344
0.0022717996 0.0011429992 -0.0017499989
-0.0015713295 0.00011429997 -0.0042516664
0.0022718015 -0.00022225009 -0.00026166672
0.00094027352 0.00016509998 0.00075166672
0.0040072049 -0.00053974998 -0.00251
0.0027303682 0.00114935 -0.0025099993
0.0022718015 0.00025399998 -0.0025099979
0.0040387581 -9.5249983e-05 -0.0032383346
0.0027766458 0.00025400007 -0.00026166672
0.002271801 0.00078562793 -0.00031689927
0.00025242241 -0.00022225 -0.0025099977
-0.0037092066 0.00062088878 -0.0025099989
0.0037356825 -0.00012140423 -0.0067538223
0.0022718026 0.0011429988 -0.0022249983
0.00095710187 -7.4083327e-05 0.00075166672
0.0012621118 0.00019050014 0.00075166719
0.0027757173 -0.00022094013 -0.00026222621
-0.0032499353 0.0011429996 -0.0017499983
0.0027759548 0.0011426009 -0.0022243038
0.0022718015 0.0011429997 -0.0025099986
