# .PCD v0.7 - Point Cloud Data file format
VERSION 0.7
FIELDS x y z
SIZE 4 4 4
TYPE F F F
COUNT 1 1 1
WIDTH 1186
HEIGHT 1
VIEWPOINT 0 0 0 1 0 0 0
POINTS 1186
DATA ascii
0.030651523 0.00127 -0.00064499979
0.039833479 0.0012700006 -0.0022650005
0.045234628 0.0012699994 -0.0011850001
-0.033757184 0.0012700001 -0.002265
-0.039833479 0.00127 -0.00064499991
-0.039293364 0.0012700006 -0.0011849999
-0.039833479 0.0012699995 -0.0011850004
-0.040238563 0.0012700002 -0.0011849995
-0.035782613 0.0012699995 -0.0022649998
-0.035782613 0.0012699994 -0.0017250004
-0.036322732 0.0012700002 -0.00064499979
-0.035782613 0.00084666628 -0.00024000043
-0.034702383 0.0012700002 -0.0011850004
-0.034162272 0.0012699997 -0.0011850006
-0.033217069 -0.0001411109 -0.005235
-0.035377529 -0.00014111074 -0.0063150004
-0.044694509 -0.00028222287 -0.002265
-0.04374931 0.00084666623 -0.0002399995
-0.043344222 0.00014111085 0.0012449998
-0.042939138 0.00014111094 0.0012449998
-0.014718132 0.0012700004 -0.0017250003
-0.014718131 0.0012700006 -0.0022649998
-0.01282773 0.0012700004 -0.0017250004
-0.013637902 0.0012700002 -0.0022650005
-0.012287615 0.00127 -0.0011849997
-0.0117475 0.0012700002 -0.0011849999
-0.01282773 0.0012699997 -0.0011850002
-0.01282773 0.00014111101 -0.0068549998
-0.0076966374 0.00014111075 -0.0076649995
-0.028761122 0.0012700007 -0.00064500002
-0.028221004 0.0012700004 -0.0011849999
-0.030246437 0.0012700001 -0.00024000055
-0.02984135 0.0012699998 -0.00024000055
-0.026735689 0.0012700001 -0.0011849999
-0.039293364 0.0012699998 -0.00024000043
-0.02984135 0.00127 -0.0022649998
-0.030516494 0.00014111091 -0.0072599999
-0.030516494 0.00014111122 -0.0068550003
-0.027815919 0.00014111152 -0.0076649999
-0.030246437 -0.00014111077 -0.0068550003
-0.030246437 0.00014111161 -0.0063150004
-0.030246437 -0.00014111071 -0.0072599999
-0.028761119 0.00028222284 -0.0022649996
-0.032947011 0.00014111082 -0.0068549998
-0.032947011 0.0001411108 -0.0041550002
-0.033217069 0.00014111116 -0.0046950006
-0.033217069 -0.0001411117 -0.0041550007
-0.033217069 -0.00014111158 -0.0046950001
-0.032811984 0.0012699999 -0.00064500049
-0.032811984 0.0012700002 -0.0011850006
-0.026330601 -0.00084666652 -0.0022649998
-0.02565546 -0.00014111065 -0.0033449996
-0.02565546 -0.00014111149 -0.0037500001
-0.044694513 0.0008466671 -0.0022649998
-0.042263992 -0.00127 -0.0017250006
-0.041723877 -0.0012699995 -0.0011849995
-0.042939138 0.00014111098 -0.0033449996
-0.041723877 0.00028222261 -0.0022650005
-0.043344222 0.0012699998 -0.0022650003
-0.042804111 0.0012699997 -0.0022650003
-0.042804107 0.0012699994 -0.00024000066
-0.039833479 0.00084666733 -0.0022649996
-0.043344222 0.00014111049 0.00070500013
-0.044154394 -0.00028222235 -0.00023999973
-0.042939138 0.00014111129 0.00083999929
-0.038753249 0.00084666692 -0.00023999962
-0.039833479 0.00028222235 -0.00024000031
-0.010262184 -0.00014111103 0.0023249993
-0.010262184 0.00014111155 0.0023249993
-0.010262184 0.00014111167 0.0017849995
-0.0076696319 -0.00019755495 0.0012179994
-0.0087768678 -0.00028222281 -0.00024000055
-0.0099921254 -0.00014111122 0.0007049999
-0.0099921254 0.00014111146 0.0012450003
-0.0099921273 0.00014111049 0.00070500013
-0.0093169827 -0.00084666687 -0.00024000043
-0.0093169827 -0.0012699999 -0.00064500014
-0.0098570967 -0.0012700004 -0.00024000008
-0.0099921264 0.00014111078 0.0017849997
-0.015258247 -0.00028222258 0.0012450001
-0.016743563 0.00084666628 -0.00023999973
-0.016743563 0.0002822227 -0.00023999962
-0.015798362 -0.0012700005 -0.0017250002
-0.015258247 -0.0012700001 -0.0017249997
-0.014178017 -0.0012700006 -0.0017250004
-0.015258247 -0.0012699997 -0.0022649998
-0.016338477 -0.0012699994 -0.0011850006
-0.016338477 -0.0012700004 -0.0017250001
-0.018768994 -0.0012699998 -0.0017249996
-0.017688764 -0.0012700002 -0.0011850006
-0.011207386 -0.00084666722 -0.0002399995
-0.016743563 -0.0012700002 -0.0011850001
-0.017148649 -0.0012699997 -0.00024000043
-0.02025431 -0.00028222179 0.0012450003
-0.019309109 -0.00028222191 -0.00023999962
-0.0117475 0.00084666657 -0.0022649993
-0.011207384 0.00084666681 -0.0022650003
-0.011207385 0.0012699995 -0.0022650003
-0.01066727 0.0012699997 -0.0022650007
-0.01066727 0.00084666722 -0.0022649996
-0.010262185 0.00014111052 -0.0033450001
-0.010262183 0.00014111075 -0.0072600003
-0.0099921264 -0.00014111096 -0.0072600008
-0.021199513 0.0012700001 -0.0017250006
-0.021739626 0.0012700005 -0.00064500014
-0.022819856 0.0012700002 -0.00023999962
-0.023765057 0.0012700005 -0.00064500025
-0.02471026 0.0012700005 -0.001725
-0.022819854 0.0012700001 -0.0017250006
-0.021739624 0.0012700006 -0.0011849999
0.0047260053 0.0012699997 -0.0011850004
0.027680891 0.0012699995 -0.0002399995
0.026735689 0.0012700001 -0.00064500014
0.027140774 0.0012699999 -0.00064500072
0.027140776 0.0012699999 -0.0011850006
0.027680892 0.0012700002 -0.0011849999
0.029301234 0.0012700006 -0.00064499979
0.029301235 0.0012700002 -0.00024000078
0.027140776 0.00084666605 -0.00023999985
0.022819856 0.0012700001 -0.00023999962
0.021739626 0.0012699997 -0.00024000055
0.021199511 0.0012700005 -0.0002399995
0.023359971 0.00127 -0.00023999962
0.015798362 0.00084666663 -0.00024000031
-0.0017553734 0.0012699997 -0.0011850002
-0.0017553731 0.0012699997 -0.00064499944
-0.0006751442 0.00127 -0.00064500025
-0.00067514309 0.0012699994 -0.0011849996
-0.00067514391 0.00084666722 -0.00023999962
-0.0012152587 0.0012699998 -0.0011850005
-0.00067514303 0.0012700002 -0.0022650003
-0.0012152583 0.0012699997 -0.0017249997
0.0052661211 -0.00127 -0.0022650007
0.00013502885 -0.0012700002 -0.0011850001
0.0012152584 -0.0012699998 -0.0011850002
0.0012152581 -0.0012700002 -0.00064500049
0.016338477 -0.0012699995 -0.0011849995
0.024170144 -0.00084666617 -0.0022649996
0.02471026 -0.00028222176 -0.0022650005
0.014718133 -0.00084666611 -0.0022650005
0.014178018 -0.00084666646 -0.0022649996
0.014178018 -0.00028222258 -0.0022650003
0.01278272 -0.00023518539 -0.0033450006
0.014178017 -0.0012700005 -0.0017250004
0.015258247 -0.0012700002 -0.0011849999
-0.026330601 -0.0012699994 -0.0022649998
-0.027140774 -0.0012700002 -0.001725
-0.033757184 -0.0012700005 -0.0022650003
-0.034162268 -0.0012700001 -0.0022650007
-0.033757184 -0.00084666617 -0.002265
-0.033757184 -0.00127 -0.0011850005
-0.034162268 -0.0012700001 -0.0011849996
-0.032271869 -0.0012699998 -0.002265
-0.032947011 -0.00014111045 -0.0037500006
-0.021739624 -0.0012700006 -0.0017250003
-0.021199511 -0.0012699999 -0.001725
-0.022279741 -0.0012699998 -0.00024000031
-0.021739626 -0.0012700001 -0.00023999996
-0.021739626 -0.00127 -0.00064500014
-0.023359971 -0.0012699994 -0.0017250007
-0.022819856 -0.0012699997 -0.0017250001
-0.022819856 -0.0012699999 -0.00064499944
-0.0076966383 -0.0012699999 -0.00064499991
-0.0071565229 -0.0012700005 -0.00024000078
-0.0076966379 -0.0012700004 -0.0011849996
-0.0071565225 -0.0012699995 -0.00064500002
-0.0098570976 -0.0012700007 -0.00064499991
-0.0087768668 0.00028222194 -0.00023999996
-0.0093169836 0.00028222197 -0.00024000031
-0.014718133 -0.0012699999 -0.0017250006
-0.015798362 -0.0012699995 -0.0022649998
-0.016338477 -0.0012700001 -0.0022650003
-0.016743563 -0.0012699997 -0.0022650003
-0.014718132 -0.0012699997 -0.002265
-0.014178017 -0.00127 -0.0022650003
-0.013637902 -0.0012700001 -0.0022649998
-0.014718132 -0.00127 -0.0011849997
-0.014178017 -0.00127 -0.0011849999
-0.014718133 -0.00127 -0.00064500037
-0.0099921264 0.00014111152 -0.0068549998
-0.012422644 -0.00014111068 -0.0068550003
-0.010262185 0.00014111088 -0.005775
-0.012422645 0.00014111104 -0.0057749995
-0.012422644 0.00014111053 -0.005235
-0.010262183 -0.00014111068 -0.005235
-0.0099921264 -0.00014111081 -0.0057749995
-0.0099921264 -0.00014111069 -0.0068550003
0.035782613 0.0012699997 -0.00023999996
0.036322728 0.0012699997 -0.00023999973
0.036322728 0.0012699999 -0.00064500049
0.035242498 0.0012700006 -0.0011850004
0.034162268 0.0012699994 -0.00023999985
0.034162268 0.0008466664 -0.00024000008
0.044154398 0.0012700005 -0.00064499991
0.044694513 0.0012699998 -0.00064500002
0.04374931 0.0012700001 -0.0011849999
0.043344222 0.0012700001 -0.0011850003
-0.027140776 0.0012700001 -0.0011850006
0.035377529 0.0001411108 0.0007049999
0.035377529 0.00014111128 0.0012449998
0.033217069 -0.00014111177 0.0012449996
0.032811984 -0.0012699998 -0.00023999985
0.041723877 -0.00028222278 -0.00024000031
0.041723877 -0.0008466671 -0.00023999996
0.042263992 0.0002822227 -0.00024000008
0.042263992 -0.00028222238 -0.00024000008
-0.014178017 0.0012699998 -0.0017250007
-0.01282773 0.0012699999 -0.00064499991
-0.012287615 0.0012699998 -0.0006450006
-0.0076966374 0.0012700006 -0.00024000066
-0.011207386 0.0012700001 -0.0011850002
-0.011207386 0.0012699999 -0.00064500014
-0.01066727 0.0012699997 -0.00064500072
-0.01066727 0.0012700005 -0.0002399995
-0.010262184 0.0012700004 -0.0022650007
0.0041858903 0.0012699995 -0.00064500037
0.0036457765 0.00084666727 -0.00024000043
0.002295488 0.0012700006 -0.0017249999
-0.0032406901 0.0012699997 -0.0017249997
0.020524368 -0.0001411105 -0.0072599999
0.02025431 -0.00023518516 -0.0062700002
0.020524368 -0.00023518541 -0.0068999995
0.02025431 -0.00028222255 -0.0057750004
0.02025431 -0.00014111148 -0.0046950001
0.02025431 -0.00014111178 -0.0052350005
0.022279741 0.0012699993 -0.00024000055
0.021739624 0.0012699999 -0.00064499991
0.021199511 -0.00028222171 -0.00024000055
0.029841352 0.00127 -0.0017250007
0.02984135 0.0012699999 -0.0011849996
0.030246437 0.00127 -0.0011850004
0.030246437 0.0012700001 -0.0022650007
0.028761122 0.0012700006 -0.002265
0.029301235 0.0012699999 -0.0011849995
0.020659396 0.0012700002 -0.0011850003
0.021199511 0.0012700006 -0.0022650007
0.020524368 0.00014111077 -0.0041549997
0.020524368 -0.00023518539 -0.0062700007
0.018228879 0.0012700005 -0.0011849999
0.017733773 -0.00023518565 -0.0072600003
0.017733773 -0.00023518479 -0.0068549998
0.017688764 0.00014111178 -0.0072600008
0.017733773 0.00014111085 -0.0076199998
0.020524368 -0.00028222179 -0.0037500006
0.020659396 0.00084666617 -0.0022649996
0.020524368 0.00014111075 -0.0033450006
0.021199511 0.00084666628 -0.0022649998
0.032811984 0.0012699998 -0.0011849999
0.031731755 -0.0012700001 -0.00064499991
0.032271869 -0.0012700007 -0.00064499967
0.03119164 -0.0012700005 -0.0017249999
0.031191638 -0.0012699999 -0.0011850003
0.031731755 -0.00028222168 -0.00024000066
0.033217069 0.00014111101 0.0007049999
0.032947011 0.00014111074 0.0007049999
0.032811984 0.00084666733 -0.00024000043
-0.044694513 -0.0012699995 -0.0017249999
0.025317889 -0.00021166653 -0.0028049997
0.042939138 -0.00014111168 -0.0075299996
0.040238563 -0.0012699998 -0.0017250008
0.040238563 -0.0012699995 -0.0022650005
0.041723877 -0.00127 -0.0011849995
0.042263992 -0.0012700002 -0.0011849995
0.040643651 -0.00127 -0.0011849997
0.038753249 0.0012700004 -0.0011850005
0.043209195 0.00014111056 -0.0072600003
0.04628785 -0.00081844424 -0.0021840008
0.046314854 -0.00023518548 -0.0022199997
0.045774739 -0.0012699995 -0.001725
0.046719942 0.00028222188 -0.0017250004
0.046719942 0.00028222214 -0.00064499979
0.0048610345 -0.00014111119 -0.0068549998
0.0051310924 -0.00028222258 -0.0068550003
0.0051310915 -0.00028222281 -0.0063149999
0.0048610345 0.00014111167 -0.0068549993
0.0027005745 0.0001411112 -0.0068549993
0.0024305175 -0.0001411112 -0.0068549993
0.002430517 0.00014111136 -0.0068550003
0.02984135 0.0012699994 -0.0002400002
0.030651523 -0.00014111167 0.0017849995
0.028085977 0.00014111061 0.001785
0.030246437 0.0012700004 -0.00064499991
0.022819856 -0.0012699999 -0.00064500014
0.023765057 -0.0012700005 -0.00064499944
0.026330603 -0.0012700005 -0.00024000055
0.025790488 -0.0012699997 -0.00024000066
0.02565546 -0.00014111117 0.0007049999
0.028085977 -0.00028222246 0.001785
0.022819856 -0.0012699997 -0.00023999996
0.024170144 -0.0012699998 -0.00024000008
0.024710258 -0.0012700001 -0.0002399995
0.023765057 -0.0012699998 -0.00024000008
0.024170142 -0.00084666623 -0.00023999962
0.024170144 -0.00028222168 -0.00024000066
0.025250372 -0.0001411113 0.0012450001
0.024710258 -0.00084666605 -0.00024000055
0.030246437 -0.0012700002 -0.0002399995
0.028761121 -0.0012700005 -0.00023999962
0.029301235 -0.00127 -0.00024000043
0.031731755 -0.0012699999 -0.00023999996
0.028761121 -0.0012700001 -0.00064499979
0.028221006 -0.0012699993 -0.00064499967
0.028221006 -0.0012699994 -0.0011849999
0.028221006 -0.0012700005 -0.00024000008
0.029301234 -0.0012700005 -0.00064499944
0.02471026 -0.0012699998 -0.0011850006
0.025250373 0.00014111106 -0.0063150004
0.02565546 0.00014111138 -0.0057749995
0.025250373 0.00014111141 -0.005775
0.02565546 -0.00014111065 -0.0041550007
0.027815919 -0.00014111168 -0.0052350014
0.028085977 -0.00023518574 -0.0052800002
0.028085977 -0.00023518538 -0.0046500005
0.028085977 -0.00023518542 -0.0057299994
0.041723877 -0.0012699995 -0.00064499944
0.041723877 -0.0012700005 -0.00024000066
0.042263992 -0.00084666681 -0.00023999985
0.042804111 -0.00127 -0.00064499967
0.042804107 -0.0012699997 -0.00024000008
0.043344222 -0.0012699994 -0.0006450006
0.042804111 -0.0012700006 -0.0011850004
0.04374931 -0.0012700005 -0.0011849995
0.038213134 -0.00014111176 0.00070499943
0.038753249 -0.00084666617 -0.00023999962
0.037267931 -0.00127 -0.00024000043
0.034162272 -0.00127 -0.0011849999
0.033757184 -0.0012700004 -0.0017250004
0.033757184 -0.0012699998 -0.0011849996
0.045234628 -0.0012700001 -0.0011850002
0.044694513 -0.0012699999 -0.00064500025
0.044154398 -0.0012700005 -0.00064500072
0.044694513 -0.00084666652 -0.00024000008
0.044694513 0.00028222171 -0.00024000078
0.044154398 -0.00028222284 -0.00023999938
-0.020659396 0.00084666669 -0.00024000031
-0.02025431 0.00014111142 0.00070500036
-0.017148649 0.0012700005 -0.00064499979
-0.018228879 -0.00084666652 -0.00024000008
0.025250373 -0.00014111161 0.0017849995
0.020524368 0.00014111171 0.0012449996
0.022819856 -0.00014111149 0.0007049992
0.02565546 0.0001411113 0.0017850002
0.025250373 0.00014111059 0.0012449998
0.027680892 -0.00084666669 -0.00024000055
0.027140776 -0.00084666704 -0.00024000031
0.027680891 -0.0012699995 -0.0002399995
0.027815919 -0.00014111162 0.0007049999
0.026735689 -0.00028222284 -0.0002400002
0.026735689 0.00028222171 -0.00024000043
0.029301235 0.00084666716 -0.00023999996
0.028085977 -0.00028222252 0.0012449991
0.02565546 0.00014111165 0.00070499966
0.02579049 -0.00084666675 -0.002265
0.034702383 -0.0012700006 -0.00064500049
0.035782613 -0.0012700004 -0.00024000066
0.035242498 -0.0012700004 -0.0022649998
0.033352099 -0.0012700006 -0.0006450006
0.032811984 -0.0012700006 -0.0006450006
0.038753249 -0.0012700002 -0.00024000055
0.038213134 -0.0012699999 -0.00024000066
0.036322732 -0.0012699995 -0.00064500002
0.036322728 -0.0012699994 -0.00023999973
0.035782613 -0.0012699998 -0.00064499979
0.030651523 0.00014111152 0.0007049999
0.032271869 0.0012700001 -0.0002399995
0.032947011 0.00014111069 0.0012449998
0.032947011 -0.00014111093 0.00070499943
0.030651523 0.00014111164 0.0017849995
-0.029841352 0.0012699997 -0.00064499967
0.025250373 -0.00014111047 -0.0063150008
0.016338477 -0.0012699998 -0.00064499944
0.023359973 -0.0012700006 -0.0011850006
0.012422644 -0.00014111157 0.001785
0.013637901 -0.00028222168 -0.00023999973
0.015285254 -0.00019755587 0.0022979993
0.015258247 0.00014111116 0.0017849997
0.015258247 0.0001411113 0.0023250002
0.017688764 0.00014111125 -0.0068550003
0.020524368 0.00014111154 -0.0057749995
0.02025431 0.00014111097 -0.005775
0.017688764 0.00014111152 -0.0037500001
0.018228879 0.0012699998 -0.0022649998
0.017688764 0.00014111176 -0.0033450001
0.017688764 -0.00014111084 -0.0063149999
0.013637902 -0.0012699998 -0.002265
0.013232816 -0.00127 -0.0017250007
0.013232816 -0.0012699995 -0.0022650003
-0.0067514363 0.0012700001 -0.0011850004
-0.0071565229 0.0012699995 -0.0017249997
-0.0071565234 0.0012700004 -0.0011849996
-0.0067514363 0.0012699997 -0.00064500025
-0.0098570976 0.0012700002 -0.0017250006
-0.0093169827 0.0012700006 -0.00023999962
-0.010262185 0.00127 -0.00064500025
-0.0098570976 0.0012699998 -0.00064500072
-0.0098570976 0.0012699998 -0.00024000043
-0.002430517 -0.0002822227 -0.0068549998
-0.0067514372 0.00084666704 -0.0022650007
-0.0067514367 0.0012700002 -0.0022650007
-0.0076516289 -0.00023518509 -0.005775
-0.0076966379 0.00014111097 -0.005235001
-0.0082367538 0.0012699994 -0.0022650003
-0.0082367528 -0.0012700005 -0.00024000008
-0.007651628 -0.00023518554 0.0017850002
-0.017688764 -0.00014111129 -0.0033449999
-0.016743563 0.00028222275 -0.0022649998
-0.017688764 0.00014111171 -0.0068549993
-0.030246437 0.00014111158 0.00070500013
-0.02984135 0.00084666646 -0.00023999996
-0.028761121 -0.00028222261 -0.00024000031
-0.030516494 0.00014111176 0.0012450003
-0.029841352 -0.00084666605 -0.00023999996
-0.028761121 -0.0012700002 -0.0017249995
-0.028221004 -0.0012700001 -0.0011849996
-0.027680892 -0.0012699997 -0.0011849999
0.0052661211 -0.0012699997 -0.00024000066
0.0058062356 0.0012700001 -0.00064500037
0.006346351 0.0012699999 -0.0011849999
0.0067514372 0.0012699994 -0.00064500037
0.0076966383 0.0012699993 -0.00064499967
0.0082367528 0.0012699997 -0.0011850004
0.0082367528 -0.0012700004 -0.00064499991
0.0087768687 -0.0012699999 -0.0011850002
0.0093169836 -0.00127 -0.0011849995
0.0027005742 -0.00014111097 0.0017850004
0.0058062361 -0.0012699994 -0.00064499991
0.0036457751 -0.0012700006 -0.00064500037
0.0041858903 -0.0012699994 -0.00064499979
0.0032406892 -0.0012699997 -0.00064499944
0.0032406896 -0.0012700005 -0.0011850006
0.0036457758 -0.0012699995 -0.0011849997
0.0022954887 -0.00084666675 -0.0002400002
0.0024305168 -0.00014111077 0.0007049999
0.00067514414 0.00084666652 -0.00024000031
0.00010802306 0.00019755564 0.00073199917
0.0012152592 0.00028222159 -0.0002399995
0.0028356039 0.0012700005 -0.00064500014
0.002430517 -0.00014111144 -0.0037500006
0.0082367528 0.0012700005 -0.0017250003
0.0082367528 0.0012699999 -0.0022650005
0.0076966379 0.0012700004 -0.0022649998
-0.036862843 0.00028222176 -0.0002400002
-0.038213134 -0.00014111082 0.0017849997
-0.033217069 -0.00014111174 0.0017850002
-0.035647586 -0.00014111136 0.00070499966
-0.035377529 -0.00014111096 0.00070499943
0.014178017 0.00028222249 -0.00023999973
0.0093169818 0.0012700002 -0.00064499991
0.010262184 0.0012699998 -0.0006450006
0.01066727 0.0012700006 -0.00024000055
0.0098570976 0.0012699997 -0.00023999973
0.010262183 0.0012699994 -0.00024000031
0.0099921264 0.00014111098 0.0007050006
0.0098570976 0.00084666605 -0.0002399995
0.0087768678 -0.00028222168 -0.00024000043
0.011747499 0.00084666617 -0.00023999973
0.0117475 0.00127 -0.00024000055
0.011207385 0.0012700001 -0.00024000008
0.011207385 0.00084666687 -0.00023999996
0.0087768678 0.0012699994 -0.0022650003
0.004861034 0.00014111136 -0.005235
0.0027005752 0.0001411116 -0.0046950001
0.004861034 -0.00014111109 -0.0057750004
0.0051310915 -0.00028222246 -0.005775
0.0051310924 0.00014111046 -0.005235001
0.0048610345 0.00014111072 -0.0057750004
0.0048610345 0.00014111177 -0.0063149999
0.0027005749 0.00014111178 -0.0063149999
0.0027005742 0.00014111119 -0.0072600008
0.0051310924 0.00014111109 -0.0072600003
0.010262183 -0.00028222176 -0.0068550007
0.012746712 -0.00025400039 -0.0062879999
0.012827729 0.00014111078 -0.0063150004
0.012287615 0.0012699995 -0.0022650003
0.01282773 0.0012700005 -0.0022650005
0.01278272 0.00023518482 -0.003345001
0.012287616 0.00084666681 -0.0022650007
0.01066727 -0.0012700005 -0.00064500049
0.01066727 -0.0012700005 -0.0017250007
0.010262184 -0.0012700002 -0.0017249997
0.0076516289 -0.00023518472 -0.0033450006
0.0076516285 -0.00023518469 -0.0037499997
0.0071565229 -0.0012699995 -0.0022649998
0.0051310915 0.00014111062 -0.0046950006
0.0076516289 -0.00023518503 -0.0052350005
0.0076966374 0.00014111049 -0.0052350005
0.0076966379 0.00014111077 -0.0046950001
0.0099921254 -0.00014111068 -0.005775
0.010262184 -0.00028222267 -0.005235001
0.010262184 -0.00028222165 -0.0057750004
0.0098570976 -0.0012699995 -0.0022649998
0.0098570976 -0.00084666663 -0.0022650005
0.0093169827 -0.00084666704 -0.0022649993
0.0099921264 -0.00014111149 -0.0033450003
0.0093169827 -0.00028222226 -0.0022649998
0.010262184 0.00014111167 -0.0037499997
0.01066727 0.0012699998 -0.002265
0.013637902 0.0012699998 -0.0022649996
0.013637903 0.00084666623 -0.0022650007
0.010262185 0.00014111104 -0.0046950006
0.010262184 -0.00028222217 -0.0046950006
0.0067514372 -0.0012699995 -0.0011850006
0.0076966374 -0.0012699995 -0.0011849997
-0.0082367538 -0.00084666634 -0.0022649998
0.01282773 0.00127 -0.00064499967
0.0117475 0.0012700004 -0.00064500037
0.010262184 0.00014111046 0.0012450001
0.013232816 0.00084666628 -0.0002400002
0.012422644 -0.00014111074 0.0012449996
0.012287615 -0.00127 -0.00024000043
0.0071565225 0.00084666692 -0.00023999973
0.0063463501 0.00084666727 -0.0002399995
0.0067514363 0.00028222246 -0.0002399995
0.0063463505 -0.00028222206 -0.00024000008
0.0067514363 -0.00028222168 -0.00023999996
0.0071565229 -0.0012699998 -0.0002399995
0.0071565229 -0.00084666623 -0.00024000066
0.0058062361 0.00084666692 -0.0022649996
9.0018919e-05 -0.00023518471 -0.005775
0.0032406901 0.00127 -0.0011850004
0.002835603 0.0012699997 -0.0011849995
0.0036457761 0.00084666657 -0.0022649993
0.0036457756 -0.00028222165 -0.0022649996
0.0028356039 -0.00127 -0.0011849997
0.0022954892 -0.0012700001 -0.0011849997
0.0024305177 -0.00014111129 -0.0072600003
0.0032406896 -0.0012700001 -0.0022650007
0.0032406899 -0.00127 -0.0017250001
9.0019079e-05 -0.00023518477 -0.0072600003
0.0017553743 -0.0012699993 -0.0011850004
0.0017553741 -0.0012700001 -0.0017250004
-0.0017553733 0.0012700005 -0.0017249995
-0.0024305172 0.00014111059 -0.005775
-0.0024305168 0.00014111167 -0.0063149999
-0.0027005752 0.00014111164 -0.005775
-0.029841352 0.0012700007 -0.0011849999
0.022279743 0.0012700006 -0.0017250003
0.020659396 0.0012700007 -0.0022649996
-0.0024305168 -0.00028222281 -0.0033450006
-0.0028356037 -0.0012699998 -0.0022650003
-0.0022954885 -0.0012700006 -0.0022650005
0.015798362 0.0012700004 -0.0022649998
0.014718132 0.00127 -0.0017250006
0.010262184 0.00127 -0.0017250008
0.01066727 0.0012700004 -0.001725
0.013232815 0.0012699997 -0.0022650007
0.013232815 0.00084666669 -0.0022650007
0.012827731 0.00014111145 -0.0037500001
0.015258247 0.00014111149 -0.0063150004
0.028761119 0.00084666722 -0.002265
0.028761122 0.00028222235 -0.002265
0.029301235 0.00084666669 -0.0022649998
0.029301234 0.0012700001 -0.0017250004
0.032811984 0.0012700006 -0.0017249997
-0.0051310919 0.00014111096 0.0012449991
-0.0067514372 0.0012699994 -0.0002399995
-0.0063463501 0.00127 -0.00064500025
-0.0052661207 0.0012700002 -0.0011849995
-0.0036457751 0.00127 -0.0011850003
-0.0036457763 0.0012699995 -0.0017250003
-0.004861034 0.00014111144 0.00070500036
0.00013502828 0.0012699994 -0.0011849996
-0.00027005747 0.00014111058 0.001785
9.001905e-05 -0.00023518469 0.0012450001
0.00010802282 -0.00019755609 0.0022979993
0.0024305168 0.00014111129 0.0023249993
-0.0017553733 0.00028222241 -0.00024000031
-0.0071565225 -0.0012700001 -0.0017250003
-0.0028356037 -0.0012700004 -0.00024000043
-0.0041858912 -0.0012699999 -0.0017249997
-0.0036457765 -0.0012699993 -0.0017249995
-0.0017553731 -0.0012700004 -0.0017250003
-0.0012152585 -0.0012699999 -0.0011849995
0.033757184 -0.0012700002 -0.0022650007
0.032811984 -0.0012700007 -0.0022649998
0.022819854 -0.00014111138 -0.0057750004
0.022819854 0.00014111152 -0.0063150004
0.022819854 0.00014111059 -0.005775
0.019849224 -0.0012699997 -0.0022649998
0.02025431 -0.0012700007 -0.0022650003
0.019309109 -0.0012700005 -0.0011849995
-0.0032406896 -0.0012699995 -0.00023999962
-0.00027005773 -0.00014111055 -0.0046950006
-0.00027005805 -0.00014111107 -0.0041550002
9.0018715e-05 -0.00023518562 -0.0033450006
-0.0002700577 -0.0012699999 -0.0017250001
-0.0024305168 0.0001411108 -0.0037500001
-0.0024305168 0.00014111068 -0.0041550007
-0.0024305175 -0.0002822227 -0.0041550007
-0.0017553738 -0.00084666623 -0.00023999962
-0.0012152584 -0.0012699994 -0.00064500014
-0.00067514391 -0.0012699995 -0.00064500014
-0.00027005738 -0.0012699999 -0.00064499967
-0.0076966379 0.00014111062 -0.0068549993
-0.0027005747 -0.0001411108 -0.0076649995
-0.0024305175 0.00014111056 -0.0076650004
-0.0032406899 0.0012700001 -0.0022649998
-0.0032406899 0.00084666652 -0.0022649998
-0.0036457763 0.0012700002 -0.0022650003
-0.0024305172 0.00014111059 -0.0068550003
-0.00027005747 -0.00014111114 -0.0068549998
-0.02025431 -0.00023518459 -0.0033900002
-0.02025431 -0.00028222255 -0.0037499997
-0.02025431 0.00014111096 -0.0046950001
-0.02025431 0.00014111103 -0.0052350005
-0.020524368 0.00014111071 -0.0046949997
-0.020524368 -0.00014111141 -0.0046950011
-0.02025431 -0.00028222214 -0.0041550002
-0.02025431 -0.00023518485 -0.0052800011
-0.00027005692 -0.0001411112 -0.0063149999
-0.0024305175 0.00014111128 -0.005235001
-0.0027005745 0.00014111097 -0.0052350005
-0.0027005752 0.00014111055 -0.0046950006
-0.002430517 0.00014111055 -0.0046950001
-0.015258248 0.00014111149 -0.0068549998
-0.015258247 -0.00028222243 -0.0068550003
-0.015238957 -0.00026206375 -0.0063342862
-0.015258247 -0.00028222197 -0.0037500006
-0.02025431 -0.00028222229 -0.0072600003
-0.033352099 -0.0012700005 -0.0022650007
-0.033352099 -0.0012699993 -0.0017250003
-0.028221006 -0.0012700005 -0.0022650007
-0.030246437 -0.00127 -0.0022649998
-0.020659396 -0.0012700006 -0.002265
-0.022819854 0.00014111128 -0.0057750004
-0.020524368 0.00014111141 -0.0057750004
-0.020524368 0.00014111155 -0.0063150008
-0.017688764 0.00014111128 -0.0046950001
-0.017733775 -0.00023518459 -0.0046950001
-0.015258247 0.00014111114 -0.0041550007
-0.015258247 0.00014111094 -0.0046949997
-0.015258247 -0.00028222232 -0.0041549997
-0.02025431 0.00014111138 -0.005775
-0.020524368 -0.00014111093 -0.005775
-0.020524368 -0.00014111162 -0.0068549998
0.030246437 -0.00014111062 -0.0075300001
0.027815919 0.00014111101 -0.0076649995
0.028085977 0.00014111164 -0.0076650004
0.027815919 -0.00014111071 -0.0076649999
0.028085977 -0.00014111069 -0.0076649999
0.028085977 -0.00028222243 -0.0072599999
0.027815919 -0.00014111109 -0.0068550003
0.028085977 -0.00023518498 -0.0068099992
0.028085977 -0.00028222206 -0.0063150004
0.027140774 0.0012699995 -0.0017250004
0.027140776 0.0012700002 -0.0022649998
0.021739626 0.0012699999 -0.0017250002
0.021739624 0.0012700004 -0.0022650007
0.022279743 0.0012700002 -0.002265
0.026330603 0.0012700006 -0.0022650007
0.027680892 0.0012700005 -0.0022649998
0.027680892 0.00084666623 -0.0022649996
0.0017553737 0.0008466664 -0.0022649998
-0.013637902 0.00028222287 -0.0002399995
-0.013232817 0.00084666623 -0.00024000008
-0.013637902 -0.00028222223 -0.00024000008
-0.012422644 0.00014111133 0.0012449996
-0.02565546 -0.00014111161 -0.0068550003
-0.025295382 -0.00023518558 -0.0063149999
-0.025295382 -0.00023518555 -0.0068550003
-0.02565546 -0.00014111062 -0.0063150004
-0.02565546 -0.00014111112 -0.0041550002
-0.02565546 0.00014111068 -0.0041550002
-0.025385402 0.0001411112 -0.0041550002
-0.02565546 0.00014111151 -0.0046950001
-0.02579049 0.0012699998 -0.0011850002
-0.025250373 0.0012700001 -0.00064500049
-0.025250373 0.0008466671 -0.00024000008
-0.028221006 -0.0012699994 -0.00023999962
-0.02579049 -0.0012700006 -0.0011850004
-0.026330603 -0.0012700005 -0.00024000066
-0.027140776 -0.0012700004 -0.00023999996
-0.026735689 -0.0012699994 -0.0006450006
-0.026330601 -0.0012699994 -0.00064500049
-0.027815919 -0.0001411108 0.00070500036
-0.027140774 -0.00084666692 -0.0002399995
-0.027815919 -0.00014111109 0.0023249993
-0.02565546 -0.00014111128 0.0021899994
-0.02565546 -0.00014111164 0.0017850007
-0.025790488 -0.00127 -0.0002400002
-0.027815919 0.00014111113 0.0017850004
-0.027815919 0.00014111074 0.0012450005
-0.027815919 -0.00014111149 0.0012449994
-0.025295382 -0.00023518561 0.0007049992
-0.025250373 -0.0012699997 -0.00023999962
-0.023765057 -0.0012699998 -0.00023999985
-0.023765057 -0.00084666634 -0.00024000008
-0.040238563 -0.00127 -0.0017249997
-0.035377529 0.00014111078 -0.0068550003
-0.033217069 0.00014111145 -0.0072600008
-0.033217069 -0.0001411111 -0.0072600008
-0.043209195 -0.00014111171 -0.0072600003
-0.042939138 -0.00014111065 -0.0072600008
-0.043209195 -0.00014111062 -0.0076649999
-0.042939138 -0.00014111075 -0.0068550003
-0.042939138 0.0001411117 -0.0046950006
-0.042939138 0.00014111096 -0.0052350005
-0.040643647 0.00014111168 -0.0037500006
-0.035647586 0.00014111055 -0.0057749995
-0.040643651 0.00014111157 -0.0063150008
-0.038213134 0.00014111167 -0.005775
-0.038213134 -0.00014111141 -0.0057750004
-0.040643647 0.00014111096 -0.0046950006
-0.040643647 -0.00014111132 -0.0057749995
-0.040643647 0.0001411116 -0.005775
-0.040643647 -0.00014111064 -0.0052350005
-0.039833479 0.00028222171 -0.0022649996
-0.038213134 -0.0008466671 -0.0022650005
-0.038078103 0.00014111069 -0.0033450006
-0.03929336 -0.00028222258 -0.002265
-0.02984135 -0.0012699999 -0.0002400002
-0.030246437 -0.0012700006 -0.00064499991
-0.030651523 -0.00084666617 -0.00024000066
-0.03119164 -0.0012700005 -0.00064500002
-0.031731751 -0.00028222281 -0.00023999985
-0.031731755 -0.00084666692 -0.00023999962
-0.03119164 -0.00084666634 -0.00023999996
-0.029301235 -0.0012700006 -0.00064500002
-0.036862843 -0.0012700006 -0.00064500002
-0.037673019 -0.0012699997 -0.00023999985
-0.037267931 -0.0012699998 -0.0002399995
-0.037673019 -0.00084666687 -0.0002400002
-0.042263992 -0.0012700006 -0.00064500002
-0.041183762 -0.0012700006 -0.0006450006
-0.040643647 -0.0012699997 -0.00064500014
-0.041723877 -0.0012699995 -0.00023999973
-0.042263992 -0.0012699994 -0.0002400002
-0.042263992 -0.00084666698 -0.0002400002
-0.041723877 -0.00084666733 -0.00024000008
-0.035242498 -0.00127 -0.00064499979
-0.034702383 -0.0012699997 -0.00064500014
-0.034702383 -0.0012700004 -0.0011850004
-0.035782613 -0.0012699995 -0.00064500037
-0.039293364 -0.0012700002 -0.00024000043
-0.039833479 -0.0012699999 -0.00064499979
-0.039293364 -0.0012699999 -0.00064500049
-0.040238563 -0.0012700006 -0.00064499944
-0.034702383 -0.0012700005 -0.0017250006
-0.029301234 -0.00084666722 -0.0022650003
-0.023765057 -0.0012699995 -0.0022650005
-0.022279743 -0.0012700002 -0.0022649998
-0.02579049 -0.0012700001 -0.002265
-0.023765057 -0.0002822227 -0.00023999985
-0.021739626 0.00028222275 -0.00023999962
-0.027140776 0.0012699999 -0.00024000043
-0.027815919 0.00014111058 0.00070499943
-0.027680891 0.00084666623 -0.0002400002
0.040238563 0.00084666727 -0.00024000008
0.039833479 0.0012700001 -0.00064499956
0.041183762 -0.0012700002 -0.0022650003
0.041183762 -0.0012700002 -0.0017249995
0.043344222 -0.00014111123 0.00070499943
0.04374931 -0.00084666716 -0.0002399995
0.044694513 0.00028222232 -0.0022649993
0.045774743 0.0012699998 -0.00064500002
-0.032271869 -0.0002822227 -0.0022649996
-0.032947011 0.00014111171 -0.0033450001
-0.032271869 0.00028222191 -0.0022650005
-0.032811981 0.00084666722 -0.002265
-0.032252576 0.00082650757 -0.0022457144
-0.035377529 0.00014111116 0.00070499966
-0.034702383 0.0012699998 -0.0002400002
-0.031191638 0.00028222211 -0.00024000066
-0.031731755 0.00028222223 -0.00023999973
-0.032271869 0.0012699995 -0.00064499979
-0.031731755 0.00084666646 -0.0002399995
-0.033757184 0.0012699998 -0.00064500014
-0.033757184 0.00127 -0.00024000055
-0.033352099 0.00127 -0.00064500037
-0.031731755 0.0012700002 -0.00064499944
-0.031191638 0.0012699998 -0.00064499991
-0.030651523 0.0012699997 -0.00023999985
-0.030651521 0.0012699994 -0.00064499967
-0.041723877 0.0012699999 -0.00064500014
-0.042263992 0.00127 -0.0011850004
-0.041723877 0.0012699998 -0.0011849995
-0.040238563 0.0012700006 -0.00023999985
-0.041723877 0.0012699997 -0.0017250007
-0.042263992 0.0012700006 -0.0017250003
-0.043344222 0.0012699995 -0.0017249999
-0.04374931 0.0012699997 -0.0011850003
-0.038078103 -0.00014111047 -0.0037500001
-0.035647586 0.00014111129 -0.0037500001
-0.035647586 0.00014111171 -0.0041549997
-0.035647586 -0.00014111113 -0.0046950001
-0.035647586 0.00014111094 -0.0046950006
-0.034702383 0.00028222255 -0.0022650003
-0.035377529 0.00014111129 -0.0033450001
-0.034702383 -0.00028222229 -0.0022650005
-0.034162272 -0.00084666722 -0.002265
-0.035242498 0.0012699994 -0.0011850002
-0.032811984 -0.0012700004 -0.0011850002
-0.032271869 -0.0012699997 -0.00024000031
-0.036862843 -0.00028222264 -0.00024000066
-0.035242498 -0.00127 -0.0011850006
-0.033757184 -0.0012700005 -0.00064499967
-0.042263992 0.0012700002 -0.0022650005
-0.039833479 0.0012699999 -0.0022650007
-0.037673019 0.0008466664 -0.0022650007
-0.043344222 -0.0012699999 -0.00064500025
-0.033757184 0.00084666634 -0.00024000043
-0.03119164 -0.00028222174 -0.0022649998
-0.031731755 -0.00084666646 -0.0022649993
-0.026330603 0.00084666657 -0.0022650005
-0.026735689 0.00084666611 -0.002265
-0.020659396 0.0012700001 -0.0022649996
-0.020659395 0.00084666669 -0.0022650003
-0.020524368 0.00014111152 -0.0033450008
-0.02025431 0.0012700004 -0.0017249996
-0.018228879 0.0012700001 -0.00064500025
-0.018228879 0.0012700002 -0.0017250006
-0.017688764 0.0012699995 -0.0017250002
-0.01776978 0.0002539999 -0.0027779995
-0.016743563 0.00084666692 -0.0022650003
-0.018768992 0.0008466664 -0.0022649993
-0.024170142 0.00028222211 -0.0022649996
-0.023765057 0.00028222226 -0.0022650005
-0.044154398 0.0012699999 -0.0011849999
-0.045774743 -0.00014111123 -0.0037500001
0.037673019 0.0012699997 -0.0011849997
0.037267931 0.0012700004 -0.00064500025
0.037267931 0.0012699994 -0.0011850002
0.041723877 0.0012699997 -0.0017249996
0.042263992 0.0012699998 -0.001725
0.041723881 0.0012700004 -0.0022650007
0.044694509 0.0012699995 -0.0022650003
0.044154398 0.0012700005 -0.0022650003
0.044154394 0.0008466671 -0.0022650007
0.04374931 0.0012700004 -0.0017249996
0.04374931 0.0012699995 -0.0022649998
0.038753249 0.0012700005 -0.0022649996
0.040643651 0.0012700001 -0.0017250006
0.039833479 0.0012700005 -0.0017249997
-0.035242502 0.0012700001 -0.0017250004
-0.033352099 0.0012700005 -0.0017250008
-0.033757184 0.00084666669 -0.0022649998
-0.038213134 0.0012700006 -0.0006450006
-0.036322728 0.0012700002 -0.0002399995
-0.035782613 0.00127 -0.00064499956
-0.036322728 0.0012700001 -0.0011850003
-0.033757184 0.0012699997 -0.0011850004
-0.035377529 -0.00014111071 -0.0046950001
-0.035377529 -0.00014111168 -0.0041550007
-0.032947011 -0.00014111103 -0.005235001
-0.032947011 -0.00014111071 -0.0057749995
-0.044154394 0.00084666722 -0.0022650003
-0.044675224 -0.00082650845 -0.0022457142
-0.043209195 -0.00014111062 0.001785
-0.044154398 -0.00084666716 -0.00023999962
-0.015238957 -0.00026206372 -0.0033642864
-0.013232816 0.0012700002 -0.0011849995
-0.013232816 0.00127 -0.00064499956
-0.013232816 0.0012699994 -0.0022649998
-0.012827729 0.0012699995 -0.0022649998
-0.01282773 0.00014111056 -0.005235
-0.012422643 0.00014111141 -0.0046950001
-0.01282773 0.00014111088 -0.0046950006
-0.015258247 -0.00028222232 -0.0052350005
-0.015258247 -0.00028222194 -0.0057750009
-0.015258248 0.00014111173 -0.005235
-0.0051310924 0.00014111177 -0.0076649995
-0.0048610345 0.00014111162 -0.0075299996
-0.0099921264 -0.00014111061 -0.0076649999
-0.028221004 0.0012699998 -0.00064500037
-0.029301235 0.0012699995 -0.00023999985
-0.026330603 0.0012699998 -0.00064499967
-0.030246437 0.0012699995 -0.0011850003
-0.029301234 0.00084666617 -0.0022650003
-0.02984135 0.00084666722 -0.0022650003
-0.027680892 0.0012699997 -0.0022649998
-0.028085977 0.00014111047 -0.0076650004
-0.025385402 0.00014111133 -0.0076649999
-0.025385402 0.00014111056 -0.0072599999
-0.027815919 0.00014111071 -0.0072600003
-0.02565546 -0.00014111059 -0.0075300005
-0.030246437 0.00014111154 -0.0068549998
-0.032947011 -0.00014111075 -0.0041550007
-0.027680892 -0.00084666663 -0.0022649993
-0.041723877 0.00084666704 -0.0022649993
-0.042264 0.00084666675 -0.0022650003
-0.043344222 0.00014111154 -0.0037499997
-0.042804111 0.00084666611 -0.00024000031
-0.042263992 0.00084666687 -0.0002399995
-0.042939138 -0.00014111151 0.0013799997
-0.042263992 -0.00028222214 -0.0002399995
-0.043209195 -0.00014111176 0.00070500036
-0.042804111 -0.00084666646 -0.0002400002
-0.04374931 -0.00084666657 -0.00023999996
-0.040670656 -0.00019755559 0.0007319994
-0.010667271 -0.0012699994 -0.00023999973
-0.010262184 -0.00014111135 0.00070499943
-0.011207385 -0.0012699998 -0.00023999962
-0.011207385 -0.00028222235 -0.00024000066
-0.0098570976 -0.00084666617 -0.00023999996
-0.0093169818 -0.00028222264 -0.0002400002
-0.0071565234 -0.00084666657 -0.00024000066
-0.0067514363 -0.0008466664 -0.0002399995
-0.007651628 -0.00023518468 0.0007049999
-0.0072915512 -0.00014111119 2.999953e-05
-0.012827731 -0.0012700002 -0.0011849996
-0.013232816 -0.0012700005 -0.0011849995
-0.012827729 -0.0012699994 -0.00064500037
-0.019849224 0.0012699999 -0.0006450006
-0.017148649 0.00084666692 -0.00024000031
-0.018768994 -0.00028222214 -0.00024000066
-0.017688764 -0.00127 -0.0017250002
-0.018228879 -0.0012700004 -0.0011850004
-0.01278272 -0.00023518456 0.0007050006
-0.014178017 -0.00084666652 -0.00024000066
-0.013637902 -0.00084666623 -0.00024000043
-0.01066727 -0.00084666611 -0.00024000008
-0.015798362 -0.00084666692 -0.0002400002
-0.016338477 -0.0012700001 -0.00064500002
-0.017148649 -0.0012700004 -0.0011850006
-0.029301235 -0.0012700001 -0.0011849995
-0.020524368 -0.0001411109 0.0012450005
-0.021199511 -0.00084666617 -0.0002399995
-0.021739626 -0.00084666739 -0.00023999973
-0.0099921264 -0.00014111129 -0.0033450001
-0.0099921264 0.00014111053 -0.0033450006
-0.015258248 0.0012700002 -0.0017249995
-0.023359971 0.00127 -0.00024000055
-0.024170142 0.0012700006 -0.0017250007
-0.024170144 0.0012699999 -0.0022650007
-0.022819856 0.0012700005 -0.00064500037
-0.021199513 0.0012699995 -0.0011850002
0.0067514367 -0.00028222235 -0.0022649998
0.0067514372 0.0012700005 -0.001725
0.0071565234 0.0012700005 -0.0022649998
0.028221006 0.00127 -0.0011850004
0.027680892 0.00127 -0.00064499991
0.024710258 0.0012700002 -0.0002399995
0.026330601 0.0012700002 -0.0011850001
0.025790488 0.0012700005 -0.00064499991
0.025250373 0.0012700002 -0.00024000031
0.026330603 0.0012700001 -0.00023999996
0.026330603 0.0012699997 -0.00064500025
0.017688764 0.0012699999 -0.00023999973
0.017148649 0.0012700004 -0.00023999962
0.022819856 0.0012700001 -0.0017249995
0.023359973 0.0012699995 -0.0011850004
0.023359971 0.0012699999 -0.0017250004
0.023359971 0.0012699998 -0.0022649993
0.022819856 0.0012699994 -0.0022650003
0.0051310919 -0.00028222223 -0.0037500001
0.0048610345 -0.00014111094 -0.0033450001
0.004861034 0.00014111168 -0.0033450006
0.0027005752 0.00014111061 -0.0037500006
0.0048610345 -0.00014111088 -0.0037500006
0.0036457765 -0.0012699995 -0.0017249999
0.00067514431 -0.0012700005 -0.0011850001
0.00067514303 -0.0012699995 -0.0006450006
-0.00027005683 -0.0012700005 -0.0011850003
0.016338477 -0.0012699997 -0.0017249997
0.016743563 -0.0012700001 -0.0017250003
0.023765057 -0.00084666669 -0.0022650005
0.022819856 -0.00014111177 -0.0033450006
0.023359973 -0.00084666716 -0.0022649998
0.016743563 0.00028222165 -0.0022649998
0.015303257 -0.00023518557 -0.0037500001
0.015798362 -0.00084666681 -0.0022650003
0.015213237 0.00023518484 -0.0033449996
0.015798362 0.00084666692 -0.0022649998
0.015258246 0.0012700005 -0.002265
0.013232816 -0.00084666687 -0.0002400002
-0.027140774 -0.0012699997 -0.00064499979
-0.027140774 -0.0012700001 -0.0011849997
-0.026330603 -0.0012699994 -0.0017250007
-0.035782613 -0.0012700004 -0.0022650007
-0.032947011 -0.00014111158 -0.0072600008
-0.032947011 -0.00014111087 -0.0068549998
-0.032947011 -0.00014111168 -0.0063150004
-0.021199511 -0.0012700004 -0.00024000066
-0.021199513 -0.0012699994 -0.00064500037
-0.020659396 -0.00084666681 -0.00023999985
-0.021199513 -0.0012700004 -0.0011850001
-0.022279741 -0.00084666669 -0.00023999996
-0.021199513 0.000282222 -0.0022650003
-0.021739624 0.0002822222 -0.0022650005
-0.021199513 0.00084666611 -0.0022649996
-0.0063463505 -0.0012700006 -0.00064499956
-0.0082367528 -0.0012700002 -0.0011849999
-0.013232815 -0.0012700006 -0.00023999985
-0.0036457756 -0.0012700006 -0.00064499991
-0.002295489 -0.0012700002 -0.0011849999
-0.011207385 -0.0012700005 -0.001725
-0.0117475 -0.0012700005 -0.00064500037
-0.012287615 -0.0012700007 -0.00064500002
-0.01282773 -0.0012700006 -0.0017250001
0.00013502876 -0.0012700007 -0.00064499979
-0.0093169827 -0.0012700005 -0.0017249995
-0.0098570976 -0.0012699994 -0.0022649998
-0.0098570976 -0.0012699998 -0.0017249996
-0.010262184 -0.0012699998 -0.00024000055
-0.010262184 -0.00014111103 0.0012450001
-0.01775628 -0.00021166657 -0.0075975
-0.015213237 -0.00023518578 -0.0072600008
-0.012287615 -0.00127 -0.0011850006
-0.010262184 0.0001411105 -0.0037500001
-0.01278272 -0.00023518471 -0.0033449996
-0.013232817 -0.0012699997 -0.002265
-0.01278272 -0.00023518581 -0.0037500006
-0.01282773 -0.0012699995 -0.0022649998
0.036322728 0.0012700002 -0.0011849997
0.034162272 0.0012700004 -0.00064499956
0.034702383 0.00127 -0.00064500002
0.033757184 0.0012700001 -0.00023999938
0.039293364 0.00028222203 -0.00024000043
0.038753249 0.00084666652 -0.00024000008
0.044694513 0.00127 -0.0011849996
0.044154398 0.0012700004 -0.0011849999
0.042804111 0.0012700001 -0.0011849999
0.03821313 0.0001411105 0.0007049992
0.037267931 -0.00084666692 -0.00024000031
0.035377529 0.00014111157 0.0017849997
0.035647586 0.00014111168 0.0023249993
0.035377529 0.00014111145 0.0023249998
0.035647586 0.00014111106 0.0017850002
0.033217069 0.00014111088 0.0023250002
0.035647586 -0.00014111064 0.0023250002
0.035647586 0.00014111106 0.0012450005
0.033217069 -0.00014111077 0.0017849997
0.032947011 -0.00014111173 0.0012449996
0.040643647 0.00014111049 0.00070499943
0.041183762 -0.00084666628 -0.00023999973
-0.012287615 0.0012699999 -0.00023999962
-0.0117475 0.0008466664 -0.0002399995
-0.012287615 0.00084666611 -0.00023999962
-0.01066727 0.0012699994 -0.0011850006
-0.011207386 0.00127 -0.0017250001
0.0022954883 0.0012700005 -0.00064500049
0.001755373 0.0012699995 -0.0011850002
0.020524368 -0.00028222188 -0.005235001
0.020524368 0.00014111061 -0.005235
0.022279741 0.0012699998 -0.00064499967
0.020659396 0.0012700002 -0.0006450006
0.021199511 0.0012699999 -0.00064500002
0.021199511 -0.00084666628 -0.00024000008
0.030246437 0.0012699998 -0.0017249999
0.030651521 0.0012699994 -0.0017249999
0.031191638 0.0012699994 -0.0017250004
0.022819856 0.00014111161 -0.005235
0.022819856 0.00014111168 -0.0068549993
0.022819856 -0.00014111064 -0.0068549998
0.024710258 0.0012700005 -0.0011850002
0.02025431 0.0012700004 -0.002265
0.02025431 0.00014111173 -0.0033450001
0.020524368 0.00014111146 -0.0037500001
0.016743563 0.0012700006 -0.00064500002
0.016338477 0.0012699997 -0.0011849995
0.016338477 0.00127 -0.0006450006
0.018228879 0.0012699994 -0.0017250003
0.017733773 -0.00014111088 -0.0076200003
0.015285254 -0.00019755529 -0.0076380004
0.015258248 0.00014111162 -0.0076650004
0.020524368 -0.00028222197 -0.0033450006
0.021199511 -0.00084666687 -0.002265
0.021739624 -0.0012699998 -0.0022650007
0.021739626 -0.00084666733 -0.0022650003
0.018228879 0.00084666687 -0.0022650003
0.018768994 0.0012699997 -0.0022650007
0.018768994 -0.0012699995 -0.0022649998
0.019309109 -0.0012700005 -0.0022650003
0.018768994 -0.00084666675 -0.002265
0.019309109 -0.00084666681 -0.0022649996
0.031731755 -0.0012699997 -0.0011849995
0.032271869 0.0012699998 -0.0017250002
0.02984135 0.0012699999 -0.0022650007
-0.044694509 -0.0012699999 -0.00064499979
0.025250372 0.00014111093 -0.005235001
0.027815919 -0.00014111101 -0.0046950001
0.028085977 -0.00028222191 -0.0041550002
0.027815919 -0.00014111139 -0.0041550007
0.026735689 0.0012699995 -0.0022649998
0.039833479 -0.0012699999 -0.0017250001
0.038213134 -0.0012699998 -0.0017250006
0.038213134 -0.0012699998 -0.002265
0.037673019 -0.0012699999 -0.0022649998
0.038753249 -0.0012700002 -0.0022649998
0.039293364 -0.0012700004 -0.0017249996
0.03929336 -0.0012700001 -0.002265
0.035782613 -0.0012700005 -0.0017249999
0.036862843 -0.0012700004 -0.0022650007
0.036322732 -0.0012700002 -0.002265
0.035782613 -0.0012700002 -0.0022650005
0.04176889 -0.0012700002 -0.0022199999
0.042263996 -0.0012699998 -0.0017249996
0.042263996 -0.0012699995 -0.0022650005
0.042939138 -0.00014111165 -0.0072599999
0.040643647 -0.0012700002 -0.0017250001
0.034162268 -0.0012700001 -0.0017250001
0.034702383 -0.00127 -0.0017249995
0.04374931 0.00084666652 -0.0022649996
0.042804107 -0.0007996296 -0.0022200004
0.042804107 -0.0012700002 -0.0022650003
0.042263996 -0.0007996303 -0.0022200001
0.045774739 -0.00014111152 -0.0052350005
0.045774743 -0.00014111139 -0.0046949997
0.045774743 0.00014111135 -0.0046950006
0.037673019 -0.0012699997 -0.0017250002
0.037673019 -0.0012699998 -0.0011850004
0.040643647 0.0012699993 -0.0022650007
0.040238563 0.0012700002 -0.0022650007
0.046719942 -0.0002822222 -0.0021300006
0.030246437 0.0012700004 -0.00023999996
0.02579049 -0.0012700002 -0.0011850005
0.025790488 -0.0012700005 -0.0017249999
0.027140774 -0.0012700004 -0.0011849995
0.028221004 -0.0012700005 -0.0017250004
0.027140776 -0.0012699999 -0.0017249996
0.026735689 -0.00127 -0.00064499956
0.027680891 -0.0012699999 -0.0011850004
0.027140776 -0.0012699997 -0.00023999985
0.030246437 -0.0012700005 -0.00064499979
0.030651523 -0.0012699993 -0.00023999996
0.032811984 -0.00084666716 -0.00024000008
0.032271869 -0.00084666628 -0.00023999985
0.032271869 -0.00028222232 -0.00024000031
0.032271869 -0.0012700005 -0.00024000031
0.03119164 -0.00127 -0.00064499991
0.030651523 -0.0012699998 -0.0011850006
0.024170144 -0.0012700002 -0.00064499956
0.024710258 -0.0012699995 -0.0006450006
0.025250373 0.0001411111 -0.0072600003
0.025295382 0.00014111138 -0.0076199998
0.025250373 0.0001411105 -0.0046950006
0.027815919 -0.00014111046 -0.0057750004
0.041183762 -0.0012700005 -0.00024000031
0.042939138 -0.00014111114 0.0013799997
0.042804107 -0.0012700006 -0.0017249999
0.042263992 -0.0012700004 -0.00064500025
0.035377529 -0.00014111151 0.0007049992
0.034162268 -0.00028222255 -0.00023999962
0.034702383 -0.00028222188 -0.00023999996
0.034162272 0.00028222284 -0.0022649998
0.035377529 0.00014111068 -0.0033450006
0.034702383 0.00028222159 -0.0022649993
0.035377529 -0.00014111046 -0.0033449996
0.045234628 -0.0012699997 -0.0017249996
0.044154394 -0.00084666692 -0.00024000066
0.044694513 -0.00028222287 -0.0002400002
0.045234628 0.0012699998 -0.00064499956
0.045774739 -0.00014111128 0.0007049999
-0.017148649 0.0012699998 -0.0011850006
-0.017148649 0.00084666663 -0.0022650003
-0.016743563 -0.00084666687 -0.0002399995
-0.016743563 -0.00028222238 -0.00024000055
0.025250373 0.00014111055 0.0007049999
0.02527738 0.00019755603 -0.0033180006
0.025250373 0.00014111053 -0.0037499997
0.024170144 0.00028222238 -0.0022650005
0.024710258 0.0012699999 -0.0022650003
0.024170144 0.0012699998 -0.0022649998
0.02471026 0.00084666611 -0.0022649996
0.025250372 0.0012699999 -0.0022650005
0.02025431 0.00014111069 0.0012450001
0.02025431 0.0012700004 -0.00024000043
0.019849224 0.0012699995 -0.00023999996
0.019309109 0.0012699995 -0.00024000008
0.023765057 -0.00028222191 -0.00024000066
0.025250373 0.00014111069 0.0017850004
0.025790488 0.0012699999 -0.00024000008
0.026735689 0.00084666611 -0.00024000031
0.026735689 -0.00084666687 -0.00024000066
0.026735689 -0.0012699998 -0.00024000066
0.028085977 -0.00023518466 0.00065999955
0.028761122 0.0012699995 -0.00064499979
0.02984135 0.0008466664 -0.0002399995
0.025250373 -0.0012699997 -0.00024000031
0.026330601 -0.00084666623 -0.0022649996
0.02565546 -0.00014111075 -0.0029400005
0.02565546 0.00014111081 -0.0033450001
0.039833479 -0.0012700006 -0.0006450006
0.039293364 -0.0012699997 -0.00064499967
0.035242498 -0.0012700005 -0.0011849999
0.034702383 -0.0012699998 -0.0011849995
0.033352099 -0.0012699997 -0.0011850001
0.038753249 -0.0012699997 -0.00064499979
0.029301235 0.00028222176 -0.0022650005
0.031191638 0.0012699995 -0.00023999985
0.032271869 0.00084666657 -0.0002399995
0.025250373 -0.00014111091 -0.0068549993
0.02565546 -0.00014111062 -0.0067199995
0.02565546 0.00014111052 -0.0063149999
0.024170144 -0.0012700006 -0.0011849996
0.023765057 -0.0012699999 -0.0011850006
