# .PCD v0.7 - Point Cloud Data file format
VERSION 0.7
FIELDS x y z
SIZE 4 4 4
TYPE F F F
COUNT 1 1 1
WIDTH 1181
HEIGHT 1
VIEWPOINT 0 0 0 1 0 0 0
POINTS 1181
DATA ascii
-0.0011297092 -0.0011430006 -0.0016619997
-0.00062761625 -0.0011430001 -0.0016620002
-0.00062761636 -0.0011429997 -0.0021660004
-0.0015062783 -0.00012699989 -0.0067020007
-0.0015062792 -0.00012699989 -0.0061979997
0.00012552271 -0.0011430003 -0.0021659997
0.00062761561 -0.0011430006 -0.0021660009
0.00012552319 -0.0011430004 -0.0016620001
0.0006276159 -0.0011430002 -0.0016619998
0.0016318019 -0.0011429995 -0.0016619994
0.0066527319 -0.0011429999 -0.0016620003
0.0066527319 -0.0011430007 -0.0011579995
-0.012175755 -0.0011429995 -0.0016619996
-0.012677848 -0.0011429994 -0.0016620007
-0.011673663 -0.0011429997 -0.0021659997
-0.011673662 -0.0011429997 -0.0016620003
-0.015690407 -0.0006349996 -0.0021660002
-0.016318023 -0.00012700001 -0.0031740002
0.019163216 -8.4667234e-05 -0.0061980006
0.019079534 0.00025399937 -0.0061980006
0.018828487 -8.4666754e-05 -0.00666
0.021715524 -0.00012700046 -0.0041820006
0.021338953 -0.00012700046 -0.0067020007
0.021338953 -0.00012699966 -0.0072060004
0.021338953 -0.00012700031 -0.0031740004
0.020711336 -0.00063500024 -0.0021660007
0.020711336 -0.0011430007 -0.0021659997
0.021213429 -0.0011429996 -0.0021660004
0.02159 -0.00050799974 -0.0025439993
0.010669475 -0.0011430001 -0.0011580007
0.011171569 -0.0011430006 -0.0011580004
0.011673662 -0.0011429999 -0.0021659995
0.011171569 -0.0011429997 -0.0016619998
0.011171569 -0.0011430001 -0.0021659997
0.0076569179 -0.001143 -0.0021660002
0.011297093 -0.00012700065 -0.0067019998
0.01154814 -0.00012699985 -0.0067020003
0.011297093 0.00025400048 -0.0067020007
-0.0040167444 -0.00012699963 -0.0072060004
-0.038786683 -0.0011429993 -0.0021660007
-0.039288778 -0.0011430007 -0.0021660002
-0.038786683 -0.0011429993 -0.0016619996
-0.039288778 -0.0011430001 -0.0016620001
-0.038761579 -0.0011683995 -0.00022559997
-0.034267843 -0.00012699941 -0.0067020012
-0.034267846 0.00025400025 -0.0061979997
-0.034267846 -0.00012700033 -0.0061979997
-0.031757385 0.00025399934 -0.0072059999
-0.034267846 0.00025399972 -0.0067020007
-0.0087866271 -0.00012699979 -0.0046860003
-0.0090376744 -0.00012700027 -0.0041819997
-0.0090376744 -0.00012699964 -0.0046859998
-0.021338953 0.00025399984 -0.0072060009
-0.021715524 0.0011430008 -0.002166
-0.021715522 0.0011430007 -0.0016620003
-0.022217616 0.0011430008 -0.0021659997
-0.021715522 0.00025399987 -0.0036779996
-0.021213429 0.001143 -0.0021660002
-0.039288782 0.0011429995 -0.0021660002
-0.039790872 0.001143 -0.0021660002
-0.023849418 -0.0002540001 -0.0051900004
-0.024225987 0.00025399955 -0.0051900009
-0.023849418 -0.0001269997 -0.005568
-0.024184147 0.00025399998 -0.0076679992
-0.024100464 0.00050799997 -0.002544
-0.0232218 0.001143 -0.0021660007
-0.023849418 0.00025400054 -0.0025439996
-0.0232218 0.00063499971 -0.0021660009
-0.021715524 -0.00012699935 -0.0051900004
-0.024225987 0.00025399978 -0.0056940001
-0.024225987 0.00025400033 -0.0061980006
-0.021715522 0.0002539994 -0.0067020003
-0.021338953 0.00025400001 -0.0067020003
-0.021338953 0.0002540006 -0.0063240007
-0.023849418 -0.00012700027 -0.0063239997
-0.024225987 0.00025399969 -0.0067020003
-0.024225987 -0.00012699944 -0.0061980006
-0.023723895 0.0011430006 -0.0021660002
-0.02472808 0.0011429996 -0.0021660002
-0.024225987 0.0011430007 -0.0021659993
-0.013807558 0.00025399963 -0.0067020007
-0.013807558 0.00025400042 -0.0072060004
-0.014058605 -0.00012699941 -0.0067019998
-0.013807558 0.00025399987 -0.007584
-0.011548139 0.00025400007 -0.0072060009
-0.012677847 0.0011429995 -0.0021660009
-0.012175756 0.0011430006 -0.0021659997
-0.012677848 0.0011429997 -0.0016620002
-0.013179941 0.0011430007 -0.0016619998
-0.013179942 0.0011429996 -0.0021659997
-0.016694592 0.0011430006 -0.002166
-0.016694592 0.0011429996 -0.0016619995
-0.014058604 0.00025400048 -0.0072060004
-0.014058603 0.00025400039 -0.0067020003
-0.016318023 0.00025399972 -0.0072060009
-0.016318023 0.00025399949 -0.0068279998
-0.016318023 -0.00012700001 -0.0072060004
0.033765756 0.0011429994 -0.0021659997
0.033263661 0.0011429995 -0.0016620008
0.030753197 0.0011429997 -0.002166
0.039288774 0.0011430003 -0.0021659997
0.0036401751 0.0011430004 -0.00014999963
0.0041422667 0.001143 -0.00065399974
0.0036401749 0.0011429995 -0.00065400021
0.0036401746 0.00025400054 0.00085799943
0.0040167444 0.00025399978 0.0008579999
0.0090376744 0.00025400025 -0.007584
0.0065272087 0.00025400048 0.0023700004
0.0062761628 2.6557245e-10 0.0027479995
0.0062761623 0.00025400048 0.0023700004
0.021338953 0.00025399943 -0.0072060004
0.021338953 0.00025400028 -0.0067020007
0.019079534 0.00025400007 -0.0067020007
0.021338953 0.00025400004 -0.0056940005
0.019079534 0.00025399937 -0.0046859998
0.019079534 0.00025399993 -0.0041819997
0.019163216 -8.4666506e-05 -0.0041819997
0.018828487 -8.4667248e-05 -0.0041400003
0.0011297087 0.00025400004 -0.0072059999
0.016318023 0.00025400068 -0.0075839995
0.014058604 0.0002540006 -0.0067020003
0.016318023 0.00025400062 -0.0061979997
0.015188315 0.00025399955 -0.00014999998
0.02159 0.00025399966 0.0008579999
0.019163216 -8.4666433e-05 -0.0036780001
-0.018828487 -8.4666521e-05 -0.0076679992
-0.018828487 0.00025400019 -0.007584
-0.019079534 0.00025400022 -0.0077100005
-0.019129744 -0.00010160024 -0.0076847994
-0.018828487 0.0002539994 -0.0060719997
-0.019079534 0.00025399993 -0.0056940001
-0.018828487 0.00025399978 -0.0056939996
-0.018828487 -0.00012700027 -0.0056940005
-0.018828487 -8.4666768e-05 -0.0061559994
-0.019163216 -8.4667248e-05 -0.0061980006
-0.019163216 -8.4666855e-05 -0.0056939996
-0.019163216 -8.4666826e-05 -0.0072059995
-0.021338953 0.00025400028 -0.0056940005
-0.013807557 0.00025400048 -0.0061980002
0.028242731 0.0011429996 -0.0011580007
0.027740641 0.0011430007 -0.0011580002
0.02824273 0.0011430001 -0.00065399951
0.033765756 0.0011429996 -0.00065399997
0.032761566 0.0011430002 -0.00065400056
0.036276218 -0.0011429999 -0.0021659995
0.036276221 -0.00063500047 -0.002166
0.034267846 0.00025400004 -0.0036779996
0.034267846 0.00025399978 -0.0031740004
-0.011297092 0.00025399955 -0.0051899995
-0.011297094 -0.00012699938 -0.0051900004
-0.011297094 -0.00012699957 -0.0056940001
-0.011297094 0.00025399934 -0.0056940005
-0.011297093 0.00025400042 -0.0067020007
-0.011548138 0.00025399943 -0.0067019998
0.0040167435 -0.00012700028 -0.0056940005
0.0036820148 -8.4666084e-05 -0.0056940005
0.003682015 -8.4666797e-05 -0.0061980002
0.003682015 -8.4666492e-05 -0.0051899999
0.0040167435 0.00025400025 -0.0067020003
0.0040167435 0.00025400048 -0.0061980006
0.0011297092 -0.0011430007 -0.0021659997
0.0015062795 -0.00012700009 -0.0031739997
0.0015062792 -0.00012699957 -0.0051899999
0.0011297092 -0.00012699983 -0.0046860008
0.0015062792 -0.00012700001 -0.0046860008
0.0046443599 -0.0011430002 -0.0021660002
0.0041422672 -0.0011430002 -0.0016620005
0.0041422672 -0.001143 -0.0021659997
-0.0037656981 0.00025400036 -0.0061979997
-0.0040167444 0.00025399949 -0.0061979997
0.0036820162 -8.466607e-05 -0.0072060004
0.0036401749 0.00025400042 -0.0072059999
-0.0031380809 0.00063499948 -0.0021660007
-0.0021338949 -0.00063500059 -0.0021659997
-0.0026359884 -0.00063500006 -0.0021659997
-0.0040167444 0.0002539994 -0.0056940001
-0.0037656971 0.00025399961 -0.0056940005
-0.0090376744 -8.4666492e-05 -0.0076679992
-0.0090376744 -0.00012699937 -0.0072060009
-0.0037656978 0.00025400013 -0.0075840005
-0.0040167444 0.00025399937 -0.0075840005
-0.004016744 -0.00012700017 -0.0077099996
-0.0036820152 -0.00012700008 -0.0076679992
0.0062761619 -0.00012700036 -0.0061980002
0.0065272092 -0.00012700006 -0.0061979997
-0.021697592 -0.00010885681 0.0023519997
-0.021673681 0.00025400001 0.0023279996
-0.02159 -1.9645086e-10 0.002748
-0.018200871 -0.000635 -0.0021660004
-0.018200871 -0.0011429995 -0.0021660004
-0.018828487 -8.4666404e-05 -0.0031320001
-0.0161925 -0.0011430008 -0.001662
-0.0011297092 0.00025399984 -0.0046860012
-0.0015062783 -0.00012699953 -0.0056940001
0.0087866271 0.00025400057 -0.0046859998
0.0090376744 0.00025399946 -0.0046860003
0.0090376744 0.00025399984 -0.0051899995
0.0087866262 0.00025399981 -0.0051899999
0.0062761628 -0.00012699951 0.0023699999
0.0065272092 -0.00012700047 0.0023699994
0.0040167435 -0.00012700031 0.0013619995
0.0046443604 -0.0011429995 -0.00014999963
0.0041422672 -0.0011430001 -0.00014999963
0.0036401746 -0.0011429995 -0.00015000068
0.0081590116 -0.001143 -0.00065399951
0.0081590116 -0.0011429995 -0.00014999998
0.008786628 -0.00012700002 0.0013619995
0.0161925 -0.0011430002 -0.00015000009
0.0161925 -0.0011430006 -0.00065399962
0.0031380816 0.0011430001 -0.00065400056
0.0021338956 0.0011429996 -0.0011580002
0.0026359877 0.0011430001 -0.0011580004
0.0021338945 0.0011430006 -0.0016620001
0.0016318022 0.0011429995 -0.0011580007
0.0016318022 0.0011429996 -0.00065400079
-0.0011297087 -0.00012699969 -0.0067020003
-0.036276218 0.0011429996 -0.0016620007
-0.036276221 0.0011430002 -0.0021659997
0.04276159 0.00025399949 -0.00019200041
0.0066527328 -0.0011429999 -0.00065399939
0.0066527324 -0.0011429996 -0.0001499994
0.0061506392 -0.0011430007 -0.00015000033
0.0062761628 0.00025400036 0.0013619998
0.0065272092 0.00025399998 0.0013619995
0.0062761619 0.00025400036 0.00085800036
0.0062761628 -0.00012699976 0.0013620002
0.0036820157 -8.4666564e-05 0.0013619995
0.0031380816 -0.0011429995 -0.00014999998
0.003682015 -8.4667176e-05 0.0018660004
0.0040167444 -0.00012700031 0.0018659994
-0.0016318024 -0.001143 -0.0011580001
-0.0016318029 -0.0011430003 -0.00065399974
-0.0011297094 -0.0011430007 -0.00065399951
-0.0011297087 -0.0011429999 -0.0011580001
-0.0016318017 -0.001143 -0.0016619997
-0.0006276166 -0.0011430002 -0.0011580007
0.0016318019 -0.0011430003 -0.00065399997
0.0021338947 -0.0011430004 -0.00014999963
0.0016318017 -0.0011429996 -0.00015000068
0.0011297087 -0.0011429999 -0.00015000021
0.00012552347 -0.001143 -0.0011580006
0.0011476416 -0.00010885774 0.0023520002
0.0015062785 -0.00012700028 0.0018660004
0.0011297094 -0.00012699986 0.0018659994
0.0015062797 0.00025399996 0.0018660001
0.0011476411 -0.00010885677 -0.005208001
0.0015062792 -0.00012700024 -0.0056939996
0.0011476411 -0.00010885672 -0.0057120002
0.0011297092 0.00025400004 -0.0051900009
0.0011715505 -8.4666564e-05 -0.0061980002
0.0011297087 0.00025400042 -0.0061980006
0.0011297087 -0.00012700057 -0.003678001
0.0026359882 -0.00067733321 -0.00019199972
0.0026359877 -0.0011429999 -0.00014999975
0.0021338949 -0.0006773331 -0.00019199995
0.0026359889 -0.0011430002 -0.00065400032
0.0036401746 -0.001143 -0.00065400044
0.0041422672 -0.0011430006 -0.00065400067
0.0031380807 -0.0011429999 -0.0016619998
0.0031380812 -0.0011430007 -0.0021660004
0.0036401737 -0.0011429996 -0.0016619997
0.0031380807 -0.0011430001 -0.0011580002
0.0026359879 -0.0011430006 -0.0016619997
-0.011297093 -0.0001269995 -0.003174
-0.010669475 -0.001143 -0.0021659997
-0.010167383 -0.0011430007 -0.002166
-0.0091631981 0.0011430002 -0.00015000079
-0.0086611034 0.0011430003 -0.00065399997
-0.0091631971 0.001143 -0.00065399962
0.034267843 -0.0001269997 0.0008579999
0.033263661 -0.0011430002 -0.00014999951
0.035774127 -0.00067733385 -0.00019200076
0.033765756 -0.0011429996 -0.0011580004
0.033263661 -0.0011430003 -0.0011579995
0.033765756 -0.0011430004 -0.00065400044
0.027238548 -0.0011430003 -0.0016619996
0.027238548 -0.001143 -0.0021660002
0.026736453 -0.0011429999 -0.0021660004
0.027740639 -0.0011430007 -0.001662
0.027238544 -0.0011430004 -0.0011580006
0.027740639 -0.0011430006 -0.0021659997
0.029246919 -0.00012700006 -0.0067020012
0.029246917 0.00025399961 -0.0067020007
0.024225987 0.00025399966 0.0018659994
0.028242731 -0.0011430006 -0.00065400056
0.027740639 -0.0011430006 -0.00065400021
0.027740639 -0.0011430007 -0.00014999951
0.027740639 0.00025400028 -0.00014999951
0.027740639 -0.00012700041 -0.00014999986
0.026736453 -0.00012700033 0.00085800013
0.028242731 0.00025400045 -0.00015000021
0.030251106 -0.0006773335 -0.00019200065
0.025230173 0.00063500047 -0.0021660004
0.025732268 0.00063499965 -0.002166
0.025230173 0.00025400045 -0.0021660002
0.025732268 0.0011430001 -0.0021660007
0.025230173 0.0011429997 -0.0021659997
0.025732268 0.00025400028 -0.0021659997
0.038259484 -0.0011175997 -0.00022559974
0.035774127 -0.0011429997 -0.0011579996
0.035774127 -0.001143 -0.00065399997
0.036276221 -0.0011430001 -0.00065400044
-0.015188314 -0.0011429996 -0.00065399928
-0.01468622 -0.0011430006 -0.00065399962
-0.014686221 -0.0011429995 -0.001158
-0.016318023 0.00025399963 0.00098399993
-0.015188314 0.0006773335 -0.00019199983
-0.015188314 0.0011430004 -0.00014999951
-0.015690407 0.0011430006 -0.0001499994
-0.032761566 -0.0011430001 -0.00015000009
-0.032761566 -0.0011430006 -0.00065399974
-0.032259475 -0.0011429999 -0.00014999951
-0.034267843 -0.0011430002 -0.00015000021
-0.033765756 -0.0011429997 -0.00015000009
-0.032259475 -0.0011429995 -0.00065400044
-0.038284592 0.00067733304 -0.00019199948
-0.039288778 0.00025400028 0.00085799943
-0.038326431 0.00025399943 -0.00019199983
-0.036778312 0.00025400013 0.00085799943
-0.039288774 -0.00012700047 0.0018660006
-0.039288782 -0.00012699948 0.001362
-0.040836897 0.00025399969 -0.00019200041
-0.038761579 0.0011175994 -0.00022560067
-0.039288778 0.00025400036 0.0013619993
-0.014058603 0.00025400025 0.0023700004
-0.014058605 -5.6388672e-10 0.0027480004
-0.014058605 -0.00012699993 0.0023699999
-0.011171569 0.001143 -0.00015000044
-0.010669476 0.0011430007 -0.00014999998
-0.011171568 0.0011430008 -0.00065400032
-0.016652752 -8.4667176e-05 0.0018660001
-0.016652752 -8.4667117e-05 0.0013620005
-0.017196685 0.0011430007 -0.0016620007
-0.017698778 0.0011429995 -0.002166
-0.017196685 0.0011429996 -0.0021660002
-0.016569069 0.00025399961 0.0018660001
-0.016318023 0.00025400065 0.0018660006
-0.026736451 0.00025399946 -0.0031740009
-0.02623436 0.0011430004 -0.0021659997
-0.026736451 0.00025399966 -0.0036780001
-0.026736451 0.001143 -0.0021660002
-0.026736451 0.00025400013 -0.0061979997
-0.026736451 -0.00012699957 -0.0067020003
-0.026736453 -0.00012699966 -0.0061980006
-0.024225987 0.00025400051 -0.0046860003
-0.024225989 -0.0001269998 -0.0051900004
-0.026736453 0.00025399993 -0.0056939996
-0.032259475 -0.00067733333 -0.0001919996
-0.032761566 -0.00067733397 -0.00019200076
-0.031757381 -0.00012700031 -0.0072060009
-0.031757385 0.00025399943 -0.0075839995
-0.031739451 -0.00010885675 -0.007691999
-0.033765756 -0.0011429997 -0.0016620001
-0.033263661 -0.0011430001 -0.0021659997
-0.033765756 -0.0011430002 -0.0021659997
-0.033263661 -0.0011429997 -0.0016619995
-0.034267846 -0.0011430006 -0.0021660007
-0.032761566 -0.0011429999 -0.0016620004
-0.032761566 -0.0011429997 -0.0021660004
-0.040795058 -0.0011429999 -0.0016620003
-0.040795058 -0.0011430004 -0.0011580006
-0.041799247 -0.0011430002 -0.0016620007
-0.039288778 -0.00012699951 -0.0061980006
-0.039288774 -0.00012699954 -0.0067019998
-0.039288778 0.00025399981 -0.0067020003
0.022217615 -0.0011429997 -0.0011580004
0.021213429 -0.0011429995 -0.00065400032
0.020711336 -0.0011430001 -0.0016620004
0.022719707 -0.0011430002 -0.00014999975
0.026234359 -0.001143 -0.00065400056
0.026736451 -0.0011429994 -0.00065400009
0.021715522 0.00025400057 0.0018659997
0.021715524 -0.00012699999 0.0018659997
0.020209244 -0.0011429996 -0.00014999986
0.020209244 -0.0011429999 -0.0016619992
0.019707151 -0.0011430002 -0.0011580002
0.021715524 -0.0001269996 -0.0056939996
0.017196685 -0.0011429999 -0.00065399951
0.016694592 -0.001143 -0.00065399997
0.019129744 -0.00010159996 0.0023448002
0.019079534 0.00025399987 0.0018659997
0.018828487 -8.466671e-05 0.0019080002
0.018828487 0.00025400001 0.0018660001
0.018828487 6.184564e-11 0.0014879996
0.019163216 -8.4666186e-05 0.00085800013
0.019079534 0.00025399981 0.0013620002
0.019707151 -0.0011430007 -0.00014999998
-0.031757385 0.0011430001 -0.00015000033
-0.033263661 0.001143 -0.0011580001
-0.033765756 0.001143 -0.0016619998
-0.033765756 0.0011430004 -0.0021660002
-0.034267846 0.0011430003 -0.0021659997
-0.032259472 0.0011429996 -0.0016620001
-0.031757385 0.0011429999 -0.0016620007
-0.032259475 0.0011430006 -0.00014999963
-0.032761566 0.0011429997 -0.00014999998
-0.031757381 0.0011429997 -0.002166
-0.03125529 0.0011430001 -0.0021660004
-0.03125529 0.0011430003 -0.00015000033
-0.03125529 0.0011429995 -0.00065399997
-0.030753195 0.0011430007 -0.00065399974
-0.03125529 0.0011429999 -0.0016619998
-0.030251104 0.0011430004 -0.00065399962
-0.030753197 0.0011430008 -0.0011579995
-0.030251104 0.001143 -0.00014999998
-0.030753197 0.0011430006 -0.0016620003
-0.030753195 0.0011429994 -0.0021660007
-0.030251104 0.0011430006 -0.0021660007
-0.038284592 0.0011430002 -0.00065400067
-0.037280407 0.0011429999 -0.00019200053
-0.036778312 0.0011429999 -0.00027600001
-0.036778312 0.00025399993 0.0013620002
-0.025732268 0.0011430002 -0.00015000044
-0.025230173 0.0011429997 -0.00014999951
-0.025230169 0.0011430007 -0.00065399951
-0.026736453 0.00025400054 0.00085799943
-0.026234359 0.0011429996 -0.00015000033
-0.025732266 0.00067733403 -0.00019200018
-0.026736453 0.0011429996 -0.00065399974
-0.027238544 0.0011430006 -0.00015000056
-0.027238544 0.0011430002 -0.00065399986
-0.027740639 0.0011430006 -0.00065400009
-0.027238544 0.0011430002 -0.0011580001
-0.027740639 0.0011429995 -0.00014999963
-0.029246919 0.0011429996 -0.0011580007
-0.029749012 0.0011430006 -0.0011580004
-0.029246917 0.0011430007 -0.00065400056
-0.029246919 0.0011430003 -0.0016620001
-0.036778312 0.0011429999 -0.0016619997
-0.029749012 0.0011429995 -0.0016619996
-0.022217616 0.0011430001 -0.00015000068
-0.021715522 0.00025400045 0.00085800036
-0.021715524 0.001143 -0.00014999998
-0.02472808 0.0011429995 -0.00065400009
-0.024728082 0.001143 -0.0011580004
-0.024225986 0.0011430004 -0.00065400032
-0.026736453 0.0011430003 -0.0016620002
-0.028744822 0.0011430002 -0.001662
-0.028744822 0.0011430004 -0.0021660009
-0.029246917 0.0011430006 -0.002166
-0.037280411 0.0011429999 -0.0016620004
-0.037280411 0.0011430006 -0.0021659997
-0.021213429 0.0011430006 -0.00015000044
-0.025230173 0.001143 -0.0011580004
-0.025732268 0.0011430002 -0.0011580003
-0.028242731 0.0011430003 -0.0021659995
-0.038284596 0.001143 -0.0021659997
-0.039790869 0.0011430003 -0.00065400067
-0.040292967 0.0011429994 -0.0016619998
-0.040795054 0.0011430003 -0.0016620002
-0.010669475 0.0011430003 -0.00065399951
-0.010167383 0.001143 -0.00065399951
-0.0081590107 0.001143 -0.00065399962
-0.0076569193 0.0011430006 -0.00014999951
-0.0076569174 0.0011430003 -0.00065399986
-0.015690407 0.0011429994 -0.0016620002
-0.015690407 0.0011429994 -0.0021659997
-0.015188314 0.0011429996 -0.001662
-0.034267843 -0.00012699945 0.0013620005
-0.031757385 0.0002540003 0.0018659994
-0.031757385 -0.0001269995 0.0013619995
-0.034267846 0.00025399966 0.0018660001
-0.034267846 0.00025399998 0.0023699999
-0.034267843 -0.00012699972 0.0023700004
-0.036778308 -0.00012700009 0.00085800013
-0.040292963 -0.00063500047 -0.00027600047
-0.041924767 0.00025400007 -0.0046860003
-0.040292963 0.00063499942 -0.00027599942
-0.030251104 -0.0011429997 -0.0016620004
-0.029749012 -0.0011429999 -0.0016620007
-0.030251104 -0.0011430001 -0.0011579997
-0.029749012 -0.0011430007 -0.0021659993
-0.025732266 0.0011430004 -0.0016619996
-0.021715522 -0.00012700053 -0.0046860012
-0.021715522 0.00025399987 -0.0046860008
-0.021715522 0.00025400062 -0.0041820002
-0.021715522 -0.00012700034 -0.0041819997
-0.021338953 -0.00012700057 -0.0041819997
0.039288778 -0.00012699964 -0.0072059999
0.03933062 0.00025399966 -0.0076679992
0.039313883 -0.00010159951 -0.0076343999
0.039288778 0.00025399955 -0.0067019998
0.039288778 -0.00012699951 -0.0067020012
0.039288782 -0.00012699974 -0.0061980006
0.039288778 -0.0011429996 -0.0016620003
0.041297145 -0.0011429997 -0.00065400056
0.040292963 -0.0011430001 -0.0016620007
0.039790869 -0.00063500059 -0.0021659993
0.036778308 -0.00012699996 -0.0046860012
0.037782494 -0.0011429999 -0.0021660002
0.037280407 -0.00063499995 -0.0021660002
0.035272032 -0.0011430006 -0.00065399962
0.035272032 -0.0011430001 -0.0011579997
0.034267843 -0.0011430006 -0.00065399974
0.034267846 -0.0011429994 -0.0011580002
0.030753195 0.0006773335 -0.00019200053
0.034769941 -0.001143 -0.0011580004
0.034769945 -0.0011429997 -0.0016620002
0.034267846 -0.0011429999 -0.0016620003
0.036778312 0.00025399949 -0.0041820002
0.036778312 -0.00012699964 -0.0041820002
0.030251103 -0.0011429999 -0.00015000056
0.029749012 -0.0011430004 -0.0016620007
0.033263661 -0.0011430006 -0.0016619996
0.033765756 -0.0011430002 -0.0016619996
0.036778312 0.00025400062 -0.0061980006
0.036778312 -0.00012700027 -0.0036779996
0.039288774 -0.00012700008 -0.0041820006
0.03577413 -0.0011430007 -0.0021660004
0.033765752 -0.00067733304 -0.00019200006
0.027740639 0.0011430002 -0.00065400021
0.021715522 0.0011430002 -0.00015000033
0.021338953 0.00025400065 0.0018659994
0.019707151 0.00067733275 -0.00019200053
0.019707151 0.0011430004 -0.00015000021
0.014058604 -0.00012699989 0.0018659999
0.014184128 0.0011430002 -0.00015000021
0.014058604 0.00025399966 0.0018659997
0.029749012 0.0011430006 -0.00065400021
0.029246919 0.0011430004 -0.0011580007
0.029246919 0.0011430008 -0.00065399974
0.031380814 0.00025399981 -0.002544
0.030753195 0.00063500012 -0.0021660002
0.037154883 0.00025399955 -0.0025440003
0.031757385 -0.00050799956 -0.0025439998
0.030753197 -0.00063500018 -0.0021659997
0.031757385 -0.0001270006 -0.0056940005
0.031757381 0.00025400051 -0.0056939996
0.031757385 0.00025400039 -0.0061980002
0.024225987 -0.00012700024 -0.0046860012
0.024225987 0.00025400039 -0.0046860008
0.024225987 -0.0001269995 -0.0041820011
0.024225987 0.00025399937 -0.0041820011
0.022217616 -0.0011429996 -0.0021659993
0.021715524 -0.0011429996 -0.0021660002
0.022217615 -0.0011430006 -0.0016620004
0.022719707 -0.00063499989 -0.0021660004
0.022217615 -0.00063499989 -0.0021659997
0.025732268 -0.00063500064 -0.0021659997
0.025732268 -0.0011430007 -0.002166
0.026359882 -0.0002539999 -0.0025440007
0.026736453 -0.00012699957 -0.0036780001
0.026736453 -0.00050800008 -0.0025440007
0.02661093 0.00050800008 -0.0025439998
0.026736451 0.00025400048 -0.0031740007
0.026736455 -0.00012699969 -0.0067020007
0.029246917 0.00025400036 -0.0061980002
0.017196685 -0.00063499995 -0.002166
0.017698778 -0.00063500012 -0.0021660002
0.012677847 -0.00012699945 -0.0021660004
0.011548139 0.00025400054 -0.0031740007
0.011548138 -0.00012700044 -0.0031740002
0.011297093 -0.00012699985 -0.0061979997
0.011297093 0.00025400028 -0.0061979997
0.016652752 -8.4666564e-05 -0.0056939996
0.016652752 -8.4666361e-05 -0.0051900004
0.016318023 -0.0001270005 -0.0056940001
0.018828487 6.4756023e-10 -0.0061979997
0.018828487 -8.4666332e-05 -0.0047279997
0.011673664 -0.0011429995 -0.0011580007
0.010167383 -0.0011430001 -0.00015000056
0.0096652908 -0.0011429999 -0.00065399951
0.0096652908 -0.0011430002 -0.00014999951
0.010669475 -0.001143 -0.00015000009
0.011297093 -0.00012699995 0.00085799943
0.011171569 -0.0011430001 -0.00014999963
0.011297093 -0.0001269995 0.0013619998
0.010167383 -0.00067733304 -0.00019199948
0.016694592 -0.0011429994 -0.0011579997
0.019707151 -0.0011429996 -0.00065400044
0.019205058 -0.0011429996 -0.00065399962
0.019205058 -0.0011430004 -0.00014999975
0.019205058 -0.0011430001 -0.0011580007
0.019205058 -0.0011430003 -0.0016620008
0.015690407 -0.00067733333 -0.0001919996
0.013682035 -0.001143 -0.0021660002
0.013807558 -0.00012700038 -0.0072060004
0.0161925 -0.0011429997 -0.0021660002
0.015188312 -0.0011429997 -0.002166
0.015188313 0.0002539994 -0.0021660007
0.015188312 -0.00012699951 -0.002166
0.012677848 -0.0011430002 -0.00065400079
0.012175754 -0.00067733292 -0.00019200065
0.015690405 -0.0011429994 -0.00065399986
0.01468622 -0.00067733275 -0.00019199995
0.040795058 -0.00012700052 -0.0021660007
0.039665349 0.00025400057 -0.002544
0.039288782 -0.00012699947 -0.0031740007
0.038284592 -0.00012700034 -0.0021660004
0.040292963 -0.0011429999 -0.00065399986
0.040251121 0.00025400039 -0.00019200041
0.040292963 -0.00012699966 -0.00027600036
0.040795058 -0.00012700027 -0.00027600001
0.040795054 -0.00063500006 -0.00027599966
0.041297149 -0.00063500018 -0.0002760007
0.040292963 -0.00063499971 -0.0002760007
0.036778312 0.00025399969 0.00085799943
0.038284592 -0.0011430003 -0.0011579997
0.03878668 -0.0011429995 -0.00065399951
0.038284592 -0.0011429997 -0.00065400044
0.037280411 0.0011430007 -0.00065399986
0.042803429 0.0010160005 -0.0016620005
0.042283405 0.001124857 -0.0011759996
0.039288778 0.00025399984 -0.0041819997
0.040795054 0.0011429996 -0.00065400067
0.039790869 0.0011430001 -0.00065400044
-0.031757385 0.00025399969 -0.0056940001
0.0065272092 -0.00012700011 -0.0051899995
0.0062761623 -0.00012700065 -0.0046860003
0.0065272097 -0.00012700055 -0.0046860008
0.0062761628 0.00025400019 -0.0046860008
0.0015062792 -0.00012700052 -0.0041819997
0.0015062792 0.0002540001 -0.0041820006
0.0011476416 -0.00010885765 -0.0042000003
0.0036401749 0.00025399972 -0.0041819997
0.0036820152 -8.4666171e-05 -0.0041820002
0.0036401751 0.00025400054 -0.0046859998
0.004016744 0.00025399984 -0.0041820002
0.0011297092 0.00025400016 -0.0031739997
0.00012552358 0.00063500035 -0.0021660007
0.00012552299 0.00025399946 -0.0021659997
0.0061506392 -0.0011429997 -0.0011579995
0.0056485455 -0.0011429996 -0.00065399939
0.0046443609 -0.0011430006 -0.00065399997
0.0076569179 -0.0011430001 -0.00065400032
0.0076569193 -0.0011430004 -0.0011580007
0.0071548261 -0.0011429997 -0.0011580007
0.0076569179 -0.0011429996 -0.0016619998
0.0011297087 0.00025399966 -0.0041820006
0.0021338954 -0.00063500006 -0.0021660004
-0.0036401742 -0.00012699941 -0.0072060004
-0.0036401744 -0.00012699995 -0.0067020003
-0.0036401739 -0.0011430006 -0.0016620005
-0.0076569188 -0.0011429996 -0.0021660002
-0.0071548256 -0.0011430007 -0.002166
-0.0071548256 -0.00063500064 -0.0021659997
-0.0036401749 -0.0011430003 -0.0021659995
-0.00025104621 -0.0011430003 -0.0021659995
-0.0011297094 -0.00012700027 -0.0031739997
-0.00025104632 -0.00063500053 -0.0021660002
0.0011476406 -0.00010885671 -0.0031559998
-0.011297093 -0.00012700006 -0.0036780005
-0.011171568 -0.0011429996 -0.0021659993
-0.011297093 -0.00050799968 -0.0025440007
-0.008786628 -0.00012699967 -0.0036780001
-0.0087866271 -0.00050799956 -0.0025439998
-0.0090376744 -0.00012700027 -0.0051899995
-0.0087866271 -0.00012700005 -0.0056939996
-0.0087866271 -0.0001269999 -0.0051900004
-0.0090376735 -0.00012699957 -0.0056940001
-0.014184127 -0.001143 -0.0021660002
-0.014686221 -0.00063499942 -0.0021660004
-0.014058604 -0.00050799991 -0.0025440005
-0.013807558 -0.00012700028 -0.0031739997
-0.013179941 -0.0011429996 -0.0021660002
-0.012677848 -0.0011429994 -0.0011580007
-0.016318023 -0.00050800055 -0.0025439998
-0.016318023 0.00025399955 -0.0035519996
-0.015188314 0.00025399993 -0.0021659995
-0.019163216 -8.4666608e-05 -0.0051899999
-0.018828487 -0.00012699974 -0.0046860003
-0.018828487 -8.4666433e-05 -0.0051479996
-0.018828487 0.00025400025 -0.0050639994
-0.013807557 0.00025400039 -0.0031740009
-0.01317994 0.00063500035 -0.0021660007
0.017698778 -0.0011430003 -0.0021660002
0.018200871 -0.00063499948 -0.0021660007
0.018200871 -0.0011430002 -0.002166
0.019129744 -0.00010160045 -0.0076848003
0.019079534 0.00025400004 -0.0077099996
0.019205056 -0.0011429997 -0.0021660002
0.019707151 -0.0011430006 -0.002166
0.018702965 -0.0011430002 -0.0016620002
0.021715524 -0.001143 -0.0016619997
0.021338953 -0.00012699957 -0.0061980002
0.021338953 -0.00012699953 -0.0041820006
0.011171568 -0.0011429995 -0.00065400056
0.010167384 -0.00063499983 -0.0021660002
0.0096652908 -0.0011430004 -0.0021660002
0.0096652908 -0.0006349996 -0.0021660004
0.012175756 -0.00063499989 -0.0021659997
0.011548139 -0.00050800008 -0.0025439998
0.011673663 -0.0011429995 -0.0016620005
0.010167382 -0.0011429995 -0.0016619998
0.010167382 -0.0011429997 -0.0011580004
0.0086611034 -0.0011429999 -0.0016619998
0.0096652899 -0.0011430007 -0.001662
0.0086611025 -0.0011430004 -0.00065400079
0.0090376744 -0.00012700033 -0.0067020003
0.008786628 -0.00012699961 -0.0067020007
0.0087866271 -0.00012699982 -0.0061979997
0.0090376753 -0.00050799974 -0.0025440003
0.0091631971 -0.0011430001 -0.0021660002
-0.0062761619 -0.00012699985 -0.0072060004
-0.0062761623 0.00025399978 -0.0072060004
-0.0065272087 0.00025400016 -0.0072060009
-0.0062761619 0.00025399966 -0.0067019998
-0.0065272092 -0.0001269999 -0.0031740004
-0.0062761623 -0.00050800061 -0.002544
-0.0061506392 -0.0011429999 -0.002166
-0.0056485464 -0.001143 -0.0021659995
-0.0076569188 -0.0011430007 -0.0016619993
-0.0071548256 -0.0011429996 -0.0016619998
-0.0090376735 -0.0005080002 -0.0025439996
-0.0091631981 -0.0011430003 -0.002166
-0.0065272092 -0.00012699995 -0.0072060009
-0.038284596 -0.0011430004 -0.0021660009
-0.039288782 -0.00012699974 -0.0041820006
-0.041297145 -0.0011429995 -0.0021660007
-0.040795054 -0.001143 -0.0021660002
-0.040795054 -0.00063499977 -0.0021659997
-0.039790872 -0.0011430004 -0.0021660002
-0.039288778 -0.00012700005 -0.0031740004
-0.039665349 -0.0001269999 -0.0025440003
-0.04029296 -0.001143 -0.0021660002
-0.039790869 -0.00063499995 -0.0021660002
-0.036778316 -0.00012699992 -0.0067019998
-0.036778308 -0.00012699961 -0.0061980002
-0.036778312 0.00025399963 -0.0061979997
-0.036778312 -0.00012700055 -0.0051899995
-0.036778312 0.00025399993 -0.0051900004
-0.036778312 0.00025400062 -0.0046860008
-0.031757385 0.00025400013 -0.0051899999
-0.031757385 -0.0001269995 -0.0051900004
-0.031757385 0.0002539994 -0.0046860008
-0.0096652918 -0.0011430007 -0.0021659995
-0.0096652899 -0.00063500047 -0.0021660004
-0.021715524 -0.0001269996 -0.0072060004
-0.021673681 -0.00012699995 -0.0076679992
-0.021715524 -0.00012700059 -0.0061980006
-0.021715524 -0.00012700018 -0.0067019998
-0.021338953 0.00025400068 -0.0035519996
-0.021673681 0.0002540006 -0.0031320006
-0.022719707 0.0011430004 -0.0021659995
-0.021715524 -0.00012700009 -0.0031739997
-0.039414302 0.00050799956 -0.0025439993
-0.021715522 -0.0001270002 -0.003678001
-0.024225987 -0.00012700034 -0.0056940001
-0.024225987 -0.00012700025 -0.0046860008
-0.024208056 -0.00010885709 -0.004164
-0.024225987 0.00025400019 -0.0041820002
-0.022719707 0.00063499977 -0.0021660004
-0.023849418 -0.00012700011 -0.0067020007
-0.024225987 0.0011429995 -0.0016619998
-0.026736451 0.00025400048 -0.0067020003
-0.0090376744 0.00025399993 -0.0072060004
-0.0087866271 0.00025400048 -0.0067020007
-0.008786628 0.00025400042 -0.0072060004
-0.0090376735 0.00025399961 -0.0067020007
-0.013807558 -0.00012700063 -0.0061980002
-0.014058605 -0.0001269994 -0.0061979997
-0.014058604 -0.00012699935 -0.0056939996
-0.011548139 -0.00012699937 -0.0072059999
-0.013682033 0.0011429999 -0.0021659997
-0.014058604 0.00050800067 -0.0025440003
-0.014184127 0.0011430004 -0.0021660007
-0.011673663 0.0011430003 -0.0021659997
-0.011548139 0.00063499977 -0.002544
-0.011548139 0.00025400051 -0.0036779996
-0.016318023 0.00025399996 -0.0075840005
0.030251103 0.001143 -0.0021659997
0.029246919 0.0011430001 -0.0016620001
0.028744824 0.0011430003 -0.002166
0.028744824 0.0011430007 -0.0016620005
0.029246919 0.0011429996 -0.0021660004
0.0031380819 0.0011430007 -0.00015000068
0.0026359879 0.0011430007 -0.00015000044
0.0036401744 0.00025400001 0.0013619993
0.0041422676 0.0011430007 -0.00015000009
0.0062761619 0.00025399946 -0.0061980002
0.0065272087 0.00025400036 -0.0072060004
0.0065272092 0.00025400036 -0.0051900004
0.0065272092 0.00025399949 -0.0046860003
0.004016744 0.00025400001 0.0018660004
0.0062761623 0.00025399984 0.0018659997
0.015690407 0.0011430002 -0.00014999998
0.015690407 0.00067733339 -0.00019200041
0.0086611034 0.0011430002 -0.00065400079
0.0086611025 0.0011429996 -0.0011579999
0.0091631962 0.0011429997 -0.0011579995
0.011548139 -0.00012699996 0.0023699999
0.011548139 0.0002539994 0.0023699994
0.011548139 -6.2573235e-10 0.0027480004
0.011548139 -0.00012699961 0.0018660006
0.011297093 -0.00012699945 0.0023699994
0.033263661 0.0011430007 -0.0021660002
0.022217616 0.0011429995 -0.002166
0.021673681 0.00025400045 -0.0031320006
0.02159 0.00050799979 -0.0025440003
0.022217616 0.00063500064 -0.002166
0.023849418 0.00025400042 -0.0048120008
0.024225987 -0.00012700053 -0.003678001
0.019079534 0.00025399961 -0.0072059999
0.018828487 0.00025399969 -0.0067020007
0.018828487 0.00025400039 -0.0061980002
0.020209244 0.0011430006 -0.0016619995
0.020711336 0.0011430002 -0.0016620007
0.020711336 0.0011430006 -0.0021659997
0.018828487 0.00025400039 -0.0046859998
0.0026359884 0.0011429999 -0.0016620009
0.0031380816 0.001143 -0.0016620009
0.0011715505 0.0002540003 -0.0076679997
-0.0011297096 0.00025399987 -0.0056940005
0.011297093 0.00025400036 -0.007584
0.011297093 0.00025400019 -0.0072060004
0.0090376744 0.00025399949 -0.0072059999
0.0087866262 0.00025399981 -0.0056940005
0.0090376744 0.00025399963 -0.0056940005
0.011297093 0.00025399998 -0.0051899999
0.011297092 -0.00012699958 -0.0056939996
0.011297093 -0.00012700022 -0.0051900009
0.0016318019 0.0011429995 -0.0021660009
0.0021338959 0.0011429997 -0.0021660002
0.0015062795 0.00025400062 -0.0036779996
0.014058604 0.0002540006 -0.007584
0.016318023 0.0002540006 -0.0072060009
0.016569069 0.00025400016 -0.007584
0.014058605 -0.00012700017 -0.0072059999
0.014058604 0.00025400048 -0.0061980006
0.016318023 -0.00012699985 -0.0036780001
0.021338953 0.00025399934 -0.0041820002
0.021338953 0.00025399998 -0.0036779996
0.022719707 0.00063499936 -0.0021660002
0.021338953 0.00025399978 -0.0031739997
0.02159 0.0002540006 -0.0036779996
0.020711336 0.00063499936 -0.0021659997
0.020209244 0.0006350003 -0.0021660002
0.021715524 -0.00012699992 -0.0031739995
0.024225987 0.00025399961 -0.0036779996
-0.019707151 0.0011429995 -0.0021660002
-0.019707151 0.0011430006 -0.0016619996
-0.019205056 0.0011429997 -0.0021660002
-0.020209244 0.0011429995 -0.0021659995
-0.016569069 0.00025400033 -0.0072059999
-0.016569069 0.00025400016 -0.0067020007
-0.019079534 0.00025399949 -0.0061980002
-0.019163216 -8.4666783e-05 -0.0067020003
-0.021338953 -0.00012700065 -0.0072060004
-0.018828487 -8.4666099e-05 -0.0072480007
-0.019079534 0.00025399981 -0.0051899999
-0.019079534 0.00025400028 -0.0046860003
-0.019163216 -8.4666448e-05 -0.0046859998
-0.021338953 0.00025400022 -0.005316
-0.019079534 0.00025400019 -0.0041819997
-0.019079534 0.00025400025 -0.0031740004
-0.018702963 0.0011430004 -0.002166
-0.018828487 0.00025400025 -0.0030480009
-0.018828487 0.00050799991 -0.0025440003
-0.018200871 0.0011429996 -0.0021660002
-0.018200871 0.0006350003 -0.0021659995
-0.014058604 0.00025399996 -0.0061979997
-0.014058604 0.00025399958 -0.0056940005
0.028242731 0.0011430004 -0.0016619998
0.027740639 0.0011430008 -0.0016620005
0.033765756 0.0011430006 -0.0011579997
0.034267846 0.0011429999 -0.00065399986
0.036276218 -0.0011429995 -0.0016620005
0.032761566 -0.00012699958 -0.0021660004
0.034267843 -0.00012700002 -0.0041820006
0.034267846 0.00025400013 -0.0041820002
0.035774127 -0.00012700014 -0.0021660004
0.034267846 -0.00012699937 -0.0031740004
0.035272032 -0.0011430001 -0.0016619995
-0.011297092 0.0002539994 -0.0061979997
-0.011297092 -0.0001269995 -0.0061980002
0.0040167435 -0.00012700062 -0.0061980006
0.0036820152 -8.4667292e-05 -0.0046860008
0.0040167444 0.00025400068 -0.0046859998
0.0062761619 0.00025400013 -0.0041820002
0.0026359877 -0.0011430003 -0.0021659997
0.0036401744 -0.0011430003 -0.0021660004
0.0046443609 -0.0011429996 -0.001662
-0.004016744 0.00025400036 -0.0046860008
-0.0037656971 0.0002540006 -0.0041820002
-0.0037656978 0.00025399952 -0.0046860008
-0.0051464536 -0.00063499936 -0.0021660007
-0.0051464522 -0.0011430006 -0.0021659995
-0.004016744 -0.00012700004 -0.0031740009
-0.004016744 0.00025400057 -0.0051900004
-0.0037656983 0.00025399937 -0.0051899999
-0.0040167435 -0.00012700031 -0.0051900004
-0.004016744 -0.00012700005 -0.0046860003
-0.0036401746 -0.00012699995 -0.0051900009
-0.0036401746 -0.0001269996 -0.0056940001
-0.0062761628 0.00025399961 -0.0061980006
-0.0062761628 -0.0001269997 -0.0061980006
-0.0066527328 0.0011429999 -0.0021660007
-0.0061506387 0.0011429997 -0.0021659997
-0.0066527324 0.0011429996 -0.0016620002
0.0062761628 -0.00012699938 -0.0067019998
-0.0036820152 -0.00012700047 0.0023279996
-0.0037656969 1.1277734e-10 0.0027479995
-0.0037656978 0.00025399958 0.0023699999
-0.020209244 0.0011429996 -0.00015000068
-0.019707151 0.0011429996 -0.00015000044
-0.019707151 0.0011430003 -0.00065400056
-0.019205056 0.0011430002 -0.00014999998
-0.024225987 0.0002540003 0.0018660001
-0.024225986 -0.00012700017 0.0018660006
-0.024208056 -0.00010885668 0.0023519997
-0.024184147 0.0002540003 0.0023280005
-0.023849418 0.00025400001 0.0022440008
-0.0161925 -0.0011430007 -0.001158
-0.016694592 -0.0011430002 -0.00065399974
-0.0161925 -0.0011429997 -0.00065400021
0.0046443609 0.0011429997 -0.00014999998
-0.0015062783 0.00025399993 -0.0046860008
0.011297093 -0.00012700021 -0.0031739995
0.011548139 0.00025399958 0.0008579999
0.0062761628 -0.00012700057 -0.0041820002
0.0065272087 -0.00012699985 -0.0041820006
0.0040167435 -8.4666681e-05 0.0023279996
0.0062761628 -0.00012699983 0.0018659997
0.0065272087 -0.0001269999 0.0018659994
0.003682015 -8.4666244e-05 0.00085800013
-0.0021338956 -0.0011429994 -0.00015000021
-0.0021338945 -0.00067733397 -0.00019200041
-0.0026359884 -0.00067733385 -0.0001920003
-0.0061506396 -0.0011429997 -0.00014999975
-0.0056485464 -0.0011430004 -0.00065399939
-0.0061506387 -0.0011429997 -0.00065400021
-0.0051464532 -0.0011429999 -0.00015000033
-0.0040167435 -0.00012700041 0.0008579999
-0.0051464532 -0.00067733345 -0.00019200065
-0.0046443599 -0.00067733333 -0.00019199995
-0.0081590125 -0.001143 -0.00014999975
-0.0081590116 -0.0011429995 -0.00065399974
-0.0086611025 -0.0011430003 -0.00065400079
-0.010669475 -0.0011430001 -0.0016619998
-0.0081590116 -0.0011430004 -0.0011580001
-0.0076569179 -0.0011429997 -0.0011579997
0.0081590116 -0.0011430008 -0.0011580007
0.016694592 -0.001143 -0.00015000056
-0.0096652908 0.0011430006 -0.00065399974
-0.010167383 0.0011430002 -0.0016619998
-0.010167383 0.0011429999 -0.0021660004
-0.0096652908 0.0011430003 -0.0021660004
-0.0096652908 0.001143 -0.0016620003
-0.0091631981 0.0011429995 -0.0021660004
0.0031380814 0.001143 -0.0011580007
-0.00062761654 0.0011430006 -0.0011579997
-0.00025104711 0.0011430007 -0.0016620008
-0.00025104682 0.0011430001 -0.0011580007
0.00012552335 0.0011430002 -0.0011579995
0.0011297092 0.0011429996 -0.0011580004
0.001129709 0.0011430002 -0.0016619995
0.00062761578 0.0011429997 -0.00014999975
0.00062761677 0.0011429997 -0.00065400044
0.001129709 0.001143 -0.00014999951
0.0021338956 0.0011429999 -0.00065400009
0.0021338959 0.001143 -0.00015000044
0.0016318017 0.001143 -0.00014999963
-0.036778312 0.0011430004 -0.0021660004
-0.034267846 0.00025400025 -0.0051899995
-0.034267846 -0.00012700028 -0.0051899999
-0.034267846 -0.00012700021 -0.0056940001
-0.034267846 0.00025400048 -0.0046860003
-0.034267846 -0.00012700034 -0.0046860008
0.042803429 0.00025399984 -0.001158
0.041297145 0.0011429996 -0.0016620005
0.004016744 -0.00012700024 0.0008580006
0.0046443599 -0.00067733333 -0.0001919996
0.0062761628 -0.0001270004 0.0008579992
0.0015062788 -0.00012699982 0.001362
0.0026359884 -0.0011429999 -0.0011579996
0.0031380814 -0.0011429995 -0.00065399939
0.0036401746 -0.0011429996 -0.0011580007
-0.011548139 -0.0001269995 -0.0036780001
-0.011548139 -0.00012700002 -0.0041820006
-0.011548139 0.00025400016 -0.0051899995
-0.011297093 0.00025399943 -0.0046860008
-0.01154814 0.00025399937 -0.0046859998
-0.013682035 -0.0011430007 -0.0016620007
-0.013682033 -0.001143 -0.0021660002
-0.013179941 -0.0011429996 -0.00065400067
-0.013179939 -0.0011430007 -0.00015000009
-0.013682034 -0.0011430006 -0.00065400021
-0.013179942 -0.0011429997 -0.001158
-0.011297093 0.00025400036 -0.0031740007
-0.010669475 0.0011429996 -0.0021660004
-0.010669474 0.00063500059 -0.0021660002
-0.01154814 -0.00050799991 -0.0025440003
-0.0086611034 0.001143 -0.00014999986
0.035774127 -0.00016933307 -0.00019199983
0.036778316 -0.00012700057 0.0008579999
0.036276221 -0.00067733391 -0.0001919996
0.032761566 -0.001143 -0.00014999975
0.032761566 -0.0011430001 -0.00065400032
0.032259472 -0.0011430007 -0.00015000021
0.035297137 -0.00066040037 -0.00022559997
0.033263661 -0.0011429995 -0.00065399997
0.02824273 -0.0011430002 -0.0016620003
0.02824273 -0.0011429999 -0.002166
0.024225987 -0.00012699948 0.0018660008
0.024225987 0.00025400033 0.0013619993
0.023849418 0.00025399946 0.0018659997
0.028744824 -0.00067733281 -0.00019199983
0.02573227 -0.00067733275 -0.00019200053
0.02623436 -0.00067733362 -0.00019199948
0.02824273 -0.00012699983 -0.00015000056
0.029749012 -0.00067733304 -0.00019200053
0.027238544 0.0011429995 -0.0016620009
0.026359882 0.00025399943 -0.0025440003
0.024225987 -0.00012699944 -0.0031739995
0.027238544 -0.0011429995 -0.00065399997
0.037782494 0.0006773335 -0.00019200053
0.036778312 -0.0011429996 -0.0002760007
0.037280407 -0.0011006662 -0.0001920003
0.036276221 -0.0011429995 -0.0011579997
0.035732284 0.00025399963 -0.00019200065
-0.015188312 -0.00063500012 -0.0021659997
-0.015690407 -0.0011430001 -0.00065400056
-0.015690407 -0.0011430006 -0.00015000044
-0.014184128 -0.0011429999 -0.0011580007
-0.014184128 -0.0011429995 -0.00065400021
-0.021338953 0.00025400016 0.00022800057
-0.020711336 0.00067733316 -0.00019200041
-0.020711336 0.0011429994 -0.00014999975
-0.0161925 0.0011429997 -0.00015000033
-0.016569069 0.00025400062 0.00085800036
-0.016318023 0.00025399963 0.0013619993
-0.033263661 -0.0011429999 -0.00014999963
-0.033765756 -0.00067733286 -0.00019199983
-0.03673647 0.00025399946 0.0023279996
-0.036778312 -0.00012699986 0.0018660001
-0.036778312 -8.466719e-05 0.0023280005
-0.034267846 -0.00012700059 0.0018659997
-0.036778312 0.00025400039 0.0018659994
-0.0161925 -0.0011429997 -0.00014999951
-0.016694592 -0.001143 -0.00014999951
-0.017196687 -0.001143 -0.00014999951
-0.017698778 -0.0011429995 -0.00065400009
-0.017698778 -0.001143 -0.00014999951
-0.016652752 -8.4666171e-05 0.0008579992
-0.017196685 -0.0006773338 -0.00019200065
-0.017698778 -0.0011430001 -0.0011579995
-0.017196685 -0.0011430001 -0.0011579995
-0.017698778 -0.0011429996 -0.0016620002
-0.018200871 -0.0011430006 -0.0016620003
-0.018200871 -0.0011429996 -0.0011580001
-0.033263661 -0.0011429996 -0.001158
-0.035272036 0.00067733321 -0.00019200041
-0.036778312 -0.00012700033 0.0013619998
-0.037800431 -0.0011248575 -0.00016800058
-0.037782498 -0.00067733275 -0.0001919996
-0.018828487 -8.4666957e-05 0.0023280005
-0.019079534 -5.8571459e-10 0.0027480004
-0.019079534 0.00025399981 0.0023700004
-0.024225987 0.00025399987 -0.0036779996
-0.023849418 -0.0002540001 -0.0040560006
-0.023849418 -0.00025399958 -0.0031740004
-0.026359882 -0.00025400065 -0.002544
-0.026736453 -0.00012700062 -0.0036779996
-0.026736451 0.00025400065 -0.0041820006
-0.026736453 -0.00012699941 -0.0046860008
-0.026736451 0.00025400004 -0.0046859998
-0.029246919 0.0011429999 -0.00015000056
-0.029749013 0.0011429996 -0.00015000033
-0.032259472 -0.0011429994 -0.0021659997
-0.030251103 -0.0011429995 -0.0021659997
-0.030753197 -0.0011430004 -0.0021660002
-0.034267846 -0.0011429997 -0.0011580007
-0.032761566 -0.001143 -0.0011579996
-0.041297145 -0.0011430007 -0.00065400044
-0.041297149 -0.0011429995 -0.0011579997
0.019707151 -0.00067733321 -0.0001919996
0.021715524 -0.0011430002 -0.001158
0.026736453 -0.0011430002 -0.0011580004
0.019707151 -0.0011429996 -0.0016620004
0.020209244 -0.0011429997 -0.0021659997
0.017698778 -0.00012700041 -0.0021660002
0.021213429 -0.0011430004 -0.0016620003
0.019163216 -8.4666433e-05 0.0018660001
-0.033263661 0.0011430001 -0.00065400056
-0.033765756 0.0011430002 -0.0011580003
-0.033765756 0.0011430002 -0.00065399986
-0.031757385 0.0002540006 0.00085799966
-0.030753195 0.001143 -0.00015000044
-0.034769945 0.0011429997 -0.0021660002
-0.034769945 0.0011430003 -0.0016619997
-0.035272032 0.0011430001 -0.0016619997
-0.034769945 0.0011429997 -0.001158
-0.034267846 0.0011429999 -0.0016619997
-0.03125529 0.0011430002 -0.0011579997
-0.036276221 0.0011430004 -0.00027599954
-0.03577413 0.0011429995 -0.00065400067
-0.036276221 0.0011429995 -0.0011579995
-0.026736453 0.0011429996 -0.00015000021
-0.026736453 0.00025399981 0.001362
-0.02974901 0.0011430003 -0.00065399974
-0.030251104 0.0011430001 -0.0011579995
-0.038284592 0.0011429996 -0.001158
-0.037280411 0.0011430002 -0.00065399928
-0.026234359 0.0011429999 -0.00065400021
-0.027740641 0.00067733298 -0.00019200018
-0.027740637 0.0011429996 -0.0011579997
-0.029749012 0.0011430004 -0.002166
-0.029246917 0.00025399993 -0.003174
-0.022217615 0.0011430002 -0.0016620001
-0.027238544 0.0011429995 -0.0016620002
-0.021715522 0.0011429999 -0.00065400021
-0.028242731 0.0011429997 -0.0016620007
-0.029246917 0.00025400065 -0.0061980006
-0.029246917 0.00025399978 -0.0056939996
-0.029246919 -0.00012700028 -0.0061980002
-0.029246917 0.00025399958 -0.0067019998
-0.040292967 0.0011429995 -0.0021660004
-0.041297149 0.001143 -0.0016619996
-0.0011297094 0.0011430006 -0.00065400056
-0.0006276163 0.0011429995 -0.00065400021
-0.0016318019 0.0011430003 -0.00015000009
-0.0016318024 0.001143 -0.00065400079
-0.011673664 0.0011430006 -0.0011580004
-0.011673663 0.0011430001 -0.00065399974
-0.031757385 0.00025399981 0.0013620002
-0.033263661 0.00025399943 -0.00015000068
-0.033263661 -0.00012700025 -0.00015000009
-0.032761566 -0.00012700031 -0.00015000021
-0.031757385 -0.00012700053 0.00085799943
-0.030753197 -0.0011430007 -0.0001499994
-0.030753197 -0.00067733333 -0.0001920003
-0.038284592 -0.0011430003 -0.00015000021
-0.038259488 -0.00066039956 -0.00022559951
-0.037782498 -0.0011429997 -0.00065400067
-0.037280407 -0.0011430001 -0.00065399997
-0.039288774 -0.00012700001 0.0008579999
-0.039808802 -0.0011248576 -0.00016799953
-0.039288778 0.00025400036 -0.0041820006
-0.03933062 0.00025399949 -0.0037200004
-0.040292963 0.00025399981 -0.0002760007
-0.038284592 -0.00063499995 -0.0021660002
-0.038786683 -0.00063499989 -0.0021659997
-0.040292963 0.00025400004 -0.0021660004
-0.040292963 -0.00012700062 -0.0021659997
-0.040795058 -0.00012700066 -0.0021660002
-0.028744824 -0.0011430006 -0.0021660007
-0.028242731 -0.0011430002 -0.0021659997
-0.028744824 -0.0011430002 -0.0016620003
-0.029246919 -0.00012700062 -0.0056940005
-0.029246919 -0.00012699972 -0.0051899995
-0.029246917 -0.00012699961 -0.0072060004
-0.029246917 -0.00012700046 -0.0067019998
-0.026736453 -0.00012699986 -0.0041820006
-0.026736451 -0.00012699958 -0.0072059999
-0.026694611 0.00025400022 -0.0076679997
-0.026718521 -0.00010885729 -0.0076919994
-0.024225987 -0.0001270005 -0.0067020012
-0.025732266 -0.0011429995 -0.0016619996
-0.025230173 -0.0011430003 -0.0016620005
-0.025732268 -0.0011430006 -0.001158
-0.025732268 -0.0011430006 -0.0021660004
-0.022719707 -0.0011430002 -0.0021659995
-0.022719707 -0.00063500041 -0.0021659995
-0.025230173 -0.0011429997 -0.00065399962
-0.025230173 -0.001143 -0.00014999951
-0.025732268 -0.0011430006 -0.00015000068
-0.02472808 -0.0011430007 -0.00065400021
-0.02472808 -0.0011430007 -0.0011579997
-0.023221802 -0.0011430006 -0.00014999951
-0.022719707 -0.0011430002 -0.00014999986
-0.023849418 -0.00025400065 0.00085799943
-0.0232218 -0.00067733321 -0.00019200065
-0.024208056 -0.00010885664 -0.0036960007
-0.024184147 -8.4666681e-05 -0.0031740004
0.039288778 0.00025399998 -0.0072060004
0.039790869 -0.0011429996 -0.0016620003
0.038786683 -0.0011430003 -0.00027600001
0.039288778 -0.0011430003 -0.00027600036
0.039288782 -0.0011429995 -0.00065400009
0.034267846 -0.00012700004 -0.0046860008
0.034267846 0.00025399981 -0.0046860003
0.038284596 -0.00063500053 -0.0021660002
0.036778312 -0.00012700059 -0.0061980006
0.036778312 0.00025400033 -0.0046860008
0.030251104 -0.0011430004 -0.00065399962
0.029246917 -0.0011429995 -0.001158
0.033263661 0.00063499995 -0.002166
0.033263661 -0.0006773335 -0.00019200041
0.033263665 0.00067733286 -0.00019200053
0.035272032 0.00025399981 -0.00015000044
0.029246919 0.0011430006 -0.00015000033
