# .PCD v0.7 - Point Cloud Data file format
VERSION 0.7
FIELDS x y z
SIZE 4 4 4
TYPE F F F
COUNT 1 1 1
WIDTH 953
HEIGHT 1
VIEWPOINT 0 0 0 1 0 0 0
POINTS 953
DATA ascii
0.0027384374 -0.0011509373 -0.0022734934
0.0032543738 -0.0011509369 -0.0017580421
0.0027384367 -0.0011509371 -0.0017580424
0.0032589827 -0.0011460719 -0.0022568668
0.0087279994 0.00024276668 -0.0022305977
0.0087068295 0.00074185105 -0.0022338449
0.0087312525 0.0002381247 -0.001758041
0.008706823 0.00074185082 -0.0017580423
0.0087297186 -0.00027590411 -0.0017599475
0.0087198215 -0.0002724005 -0.0022146206
0.0086702686 -0.00073373516 -0.0021883945
0.0037703114 -0.0011509372 -0.0012425871
0.0037703135 -0.0011509371 -0.001758042
0.0047228108 -0.0011509376 -0.0012425869
0.002262186 -0.0011509376 -0.0012425873
0.0022621858 -0.0011509372 -0.0017580421
0.0027384371 -0.0011509373 -0.0012425871
0.0024020704 -0.00017046112 -0.0052498737
0.0024026213 -0.00016943514 -0.0047348677
0.0026511254 -0.00019050004 -0.0052472712
0.0026511259 -0.00019050008 -0.0047318176
-0.0086226324 -0.0010820068 -0.0002721973
-0.0086953659 -0.00077309087 -0.00028554758
-0.0087068239 -0.00074185099 -0.0007667836
-0.0086254161 -0.001084792 -0.00076678325
0.0048881769 -0.00016536459 -0.007642814
0.0051593753 -7.9374993e-05 -0.0080227973
0.0051196874 7.9375e-05 -0.0080227973
0.0051271971 -0.00017054906 -0.0076863067
0.0023869199 0.00014741078 -0.0062385323
0.0026747792 0.00014703019 -0.0067539867
0.0026820402 0.00014681391 -0.006237641
0.0074312165 0.00012871624 -0.007679875
0.0076199998 3.9687504e-05 -0.0080227973
0.0076705818 0.00013384809 -0.0076970439
0.0076596877 -7.9375e-05 -0.0080227973
0.0076440959 -0.00015308043 -0.0076928511
0.00514577 0.00013153577 -0.0076889805
0.0051417374 -0.00018961808 -0.0072694421
-0.0085725002 0.001031875 -0.00033062941
-0.008255004 0.00076627382 -0.00035503006
-0.0082197236 0.0011343164 -0.00033469626
-0.0085725002 0.001031875 -0.00076678325
-0.0086472034 0.00074238994 -0.00076678372
-0.0086472044 0.00074238988 -0.0012425871
0.0022621867 -0.0011509372 -0.00025132881
0.00075406238 -0.0011509372 -0.00025132869
0.0012303125 -0.0011509374 -0.00076678314
-0.0022621858 -0.0011509375 -0.0012425866
-0.0012303123 -0.0011509372 -0.00025132881
-0.001230313 -0.0011509373 -0.00076678349
-0.0022621863 -0.0011509372 -0.00025132881
0.0051149256 -0.00012065 0.0025971534
0.0049053752 -9.524999e-05 0.0025717763
0.0049068183 7.2159084e-05 0.0025890779
0.0051207612 7.2939198e-05 0.0026034971
0.0086263623 0.0010800671 -0.002222518
0.0062309382 -0.00027781224 -0.0022338452
0.0074107414 0.00014431823 -0.0032251056
0.0062320675 0.00023999684 -0.0022360897
0.0051572309 0.00015660474 -0.003225639
0.0052387519 -0.0011509372 -0.00076678325
0.0057546841 -0.0011509375 -0.00076678337
0.0047228094 -0.0011509374 -0.00076678337
0.0062309378 -0.0011509374 -0.00033062953
0.0023869199 0.0001474108 -0.0067539867
0.0023869197 0.00014741077 -0.005762727
0.0026807107 0.00014612218 -0.0057645226
0.0026795547 0.00014629902 -0.0052472721
0.0024024171 -0.00016051396 -0.0062270779
0.0024003005 -0.00016192507 -0.0057690712
0.0026751854 0.0001469678 -0.0047312006
0.0037706292 -0.0011474449 -0.0022433612
-0.0082550049 -0.0011112494 -0.0017580425
-0.0082535455 -0.0011076087 -0.0022433039
-0.0077390601 -0.0011446711 -0.0022254984
-0.0051196879 3.9687497e-05 -0.0080227973
-0.0048895022 0.00012170833 -0.0076500829
-0.0051302188 0.00012716204 -0.0076966928
-0.0048843981 -0.00017292412 -0.0076574469
0.0042449245 -0.0011499536 -0.0022358117
0.0062309378 -0.0011509372 -0.0017580417
0.0067468737 -0.0011509368 -0.0017580413
0.0067468719 -0.0011446711 -0.0022254973
0.0062309369 -0.0011446712 -0.0022254989
0.0012303124 -0.0011509373 -0.0022734955
0.002460625 -7.9375e-05 -0.0080227973
0.00254 -0.00011906251 -0.0080227973
0.0024103543 -0.00014816667 -0.0076659434
0.0025664584 0.00018520834 -0.0080227973
0.0023952578 0.00014824454 -0.0077067623
0.0023869199 0.00014741077 -0.0072694393
0.0023977244 -0.00016174538 -0.0067629619
0.002680711 0.00014612218 -0.00726764
-0.0048815645 -0.00019843756 -0.0032251047
-0.0051593753 -0.00059531251 -0.002551049
-0.0051553068 -0.00019538464 -0.0032234092
-0.0051534977 -0.00019402776 -0.0037399703
0.0074124057 0.0001465385 -0.0072663929
0.0077041038 0.00015191639 -0.0072702309
0.0051417388 -0.00018961809 -0.0062385323
0.0048736269 -0.00016933341 -0.005765372
0.0048743491 -0.00016596599 -0.0062421346
0.0048733279 -0.00016923356 -0.0067599704
0.0051417388 -0.00018961802 -0.0067539886
-0.0082265185 0.001135996 -0.0017603739
-0.0085725002 0.001031875 -0.002194196
-0.0085725002 0.001031875 -0.001758042
-0.0082324417 0.0011329741 -0.0021879349
-0.0077390629 0.0011509373 -0.0017580418
-0.0077356114 0.0011405845 -0.0021907478
-0.002638502 0.00013197295 -0.0076969974
-0.0025664584 5.2916665e-05 -0.0080360137
-0.0026386834 -0.00018771122 -0.0077088093
0.0074612503 -7.9374993e-05 0.0025241959
0.0074513284 0.00010914062 0.0025539335
0.0076534208 -0.00010861843 0.0025951492
0.0076639266 -0.00017493324 0.0012646238
0.0086538577 -0.00075307069 -0.00035541097
0.0087215537 -0.00025387885 -0.00034213124
0.0077038826 0.00015198506 0.0012567369
0.0076713613 -0.00019143385 0.0017708396
0.0077025443 0.00015239998 0.00073992996
0.0074107405 0.00014431824 0.0017708389
0.0074107382 0.00014431823 0.0012553846
0.0074272319 -0.00018142862 0.00073992996
0.0062236409 -0.00077641488 -0.00032789505
0.0067468723 -0.0011509372 -0.00033062953
0.00075406244 -0.0011509373 -0.00076678372
0.00023812489 -0.0011509371 -0.00025132881
-0.00027781236 -0.0011509374 -0.0012425866
-0.00027781245 -0.0011509372 -0.00076678349
-0.00075406244 -0.0011509372 -0.00076678349
-0.0087068249 -0.00074185105 -0.0012425869
-0.0086254161 -0.001084792 -0.0017580421
-0.008625417 -0.001084792 -0.0012425873
-0.0087068202 -0.0007418507 -0.0017580423
-0.0087257745 -0.00028465482 -0.0017580423
-0.0087257763 -0.0002846549 -0.0012425876
-0.0087257717 -0.00028465493 -0.00076678395
-0.0086224778 -0.001081852 -0.0022162241
-0.0086472044 0.00074238982 -0.0017580427
-0.0086446581 0.00073963089 -0.0021905915
-0.0087246336 -0.00028552933 -0.0022327453
-0.0086871535 0.0002293055 -0.00076678384
-0.0086871544 0.0002293055 -0.0012425876
0.0026469845 0.0001518479 -0.0076961126
0.0048756539 -0.00018070484 -0.0072753457
0.00523875 -0.0011417784 -0.00026657898
0.0032543736 -0.0011509371 -0.0012425862
0.0024026209 -0.00016943518 -0.0042590653
0.0023869204 0.00014741078 -0.0047318195
0.0042465627 -0.0011509373 -0.0012425876
0.0026552833 -0.00018331854 -0.0062300358
0.0042465632 -0.0011509371 -0.001758042
0.0047228099 -0.0011509372 -0.0017580418
-0.0082550012 -0.0011112496 -0.00076678349
-0.0082550012 -0.0011112493 -0.0012425869
-0.008251721 -0.0011101548 -0.00025406305
-0.0077390615 -0.0011509372 -0.0017580424
-0.0072517018 -0.001144905 -0.0022452658
-0.0072628162 -0.0011509371 -0.001758043
-0.0067468747 -0.0011509371 -0.0022734934
-0.0072628143 -0.0011509373 -0.0012425871
0.0026365742 -0.00017065631 -0.0076857703
0.0026539278 -0.00018489713 -0.00727644
-0.0062309373 -0.0011509373 -0.0022734951
-0.0051281075 -0.00015393947 -0.0076947827
-0.0074215629 -0.00019843756 -0.0032251058
-0.0067468709 -0.00075406191 -0.0022734983
-0.0074136262 0.00012700004 -0.003225106
-0.0074155503 0.00012387313 -0.0037261408
0.0057546841 -0.0011509372 -0.0017580424
0.0057563535 -0.0011432666 -0.0022358445
0.0052387523 -0.0011446711 -0.0022254982
0.00075406238 -0.0011509373 -0.0022734953
-0.00027781236 -0.0011509373 -0.0022734958
0.002460625 0.0001984375 -0.0080227973
0.0023998276 -0.0001621277 -0.0072804084
-0.0026754052 -0.00018209557 -0.0052472712
-0.002675405 -0.00018209561 -0.0057627317
-0.0023585714 -0.00019560276 -0.0057655573
-0.0023519655 -0.00019188717 -0.0052472707
-0.002666228 0.0001477257 -0.0052472712
-0.0026645476 0.00015229679 -0.0047308523
-0.0026754057 -0.00018209562 -0.0047318176
-0.0076683844 0.00015005135 -0.0037421898
-0.0074136257 0.00012700005 -0.0052472726
-0.0076691383 0.00015119047 -0.0052472739
-0.0074136262 0.00012700005 -0.005762727
-0.0076538902 0.00012396775 -0.0076975748
-0.0076757767 -0.00016625853 -0.0076938085
-0.0076596877 -7.9375e-05 -0.0080227973
-0.0077033429 -0.0001905 -0.0072694402
-0.0076691378 0.00015119053 -0.0072694412
-0.0077033434 -0.0001905 -0.003225104
0.0077025476 0.0001524 -0.0032251033
0.0074385712 -0.00012473212 -0.0076432861
0.0051572337 0.00015660474 -0.0062396033
0.00023812478 -0.0011509371 -0.0017580413
0.00023812495 -0.0011509369 -0.0022734953
0.00075406238 -0.0011509369 -0.0017580417
-0.006746877 -0.0011509369 -0.0017580424
-0.0077390596 0.0011509373 -0.0012425871
-0.0082252361 0.0011344007 -0.0012425869
-0.0076733292 0.00014634772 -0.0032220061
-0.0082463687 0.00073946227 -0.002221931
0.0023869204 0.00014741077 -0.0052472735
-0.0076986765 -0.00018799341 0.0022341225
-0.0074499105 -0.00013607142 0.0025695104
-0.0076413723 -0.0001190625 0.0026126469
-0.0076272171 7.2159099e-05 0.0026131093
-0.0076686931 0.00014074062 0.0022316494
0.0051417374 -0.00018961808 0.00073993043
0.0047228113 -0.0011417787 -0.00026657898
0.0051417388 -0.00018961805 0.0012553842
0.008255003 0.0011112496 -0.00025132857
0.008625417 0.001084792 -0.00025132869
0.0077071539 0.0001509681 0.0017716172
0.0076689785 -0.00018577134 0.0022297704
0.0076566329 -0.00015875009 0.0007399302
0.0082550002 -0.00076729164 -0.00034825224
0.0085941479 -0.0010535227 -0.00034504768
0.0077390629 -0.0011112498 -0.00033062953
0.0074067554 0.00013979481 0.0007346042
0.0074272328 -0.00018142861 0.0012553849
0.004881565 0.00015875004 -0.0032251051
0.0051575415 0.00015691473 -0.0037410208
0.0048782555 0.0001565452 -0.0037416592
0.0037703144 0.00075406209 -0.0022734937
0.0037703116 0.0011509373 -0.0022734953
0.0042465609 0.00075406214 -0.0022734934
0.003770316 0.0002381247 -0.0022734948
0.0067468723 -0.00076729147 -0.00034825213
0.00023812491 -0.0011509372 -0.00076678384
0.00023812491 -0.0011509372 -0.0012425866
0.0012303122 -0.0011509372 -0.0017580424
0.0012303134 -0.0011509373 -0.0012425866
-0.00075406238 -0.0011509373 -0.0012425878
0.0076471553 7.9375e-05 0.0026118441
-0.0049036113 5.2916672e-05 0.0025770629
-0.004872655 -0.00018304854 0.0022296503
-0.0048853084 0.00013778306 0.0022429025
0.0017462499 -0.0011509368 -0.00025132881
0.0017462502 -0.0011509368 -0.0007667836
0.00075406249 -0.0011509373 -0.0012425869
-0.0086871469 0.00022930537 -0.0017580416
-0.0082550049 -0.00078052055 -0.0002777623
-0.0087167248 -0.00026184056 -0.00029049581
0.0087312469 0.00023812479 -0.0012425876
0.0087267151 -0.00027304972 -0.001241002
0.0087068276 0.00074185105 -0.0012425866
0.008706823 0.00074185111 -0.00076678349
0.0086254152 0.001084792 -0.00076678337
0.008625417 0.001084792 -0.0012425873
0.0086772731 -0.00073924579 -0.00176333
0.0085989581 -0.0010583333 -0.0021941958
0.00859896 -0.0010583334 -0.001758042
0.0048758951 0.00015497029 -0.0072675515
0.0057469844 -0.0011408677 -0.0003016314
0.0027384371 -0.0011509373 -0.00076678325
0.0022621872 -0.0011509372 -0.00076678349
0.0032543759 -0.0011509371 -0.00076678349
0.003254375 -0.0011509367 -0.00025132869
0.0027384381 -0.0011509369 -0.00025132892
0.0037703125 -0.0011509373 -0.00076678372
0.0037703142 -0.0011509368 -0.00025132881
0.0048763878 -0.00017945659 0.0022294039
0.004244172 -0.0011495027 -0.00025371742
0.0023869202 0.00014741077 -0.0042560152
0.0026779913 0.0001465385 -0.0042584506
0.0022621863 -0.0011509372 -0.0022734944
0.0026590633 -0.00018142865 -0.0032251042
0.0032543738 -0.00075406197 -0.0022734967
0.0026511259 -0.00019050004 -0.0042560142
0.0082550012 0.00075406203 -0.0022338468
-0.0074242083 -0.00019050004 -0.0072667971
0.0026549285 -0.00018190108 -0.0067597684
0.0026536512 -0.00018761372 -0.00576453
0.0057573072 -0.00075184618 -0.0022543734
0.0062309406 -0.00075406226 -0.0022338433
0.0085989581 -0.0010583334 -0.00076678325
-0.005754685 -0.0011509375 -0.00076678325
-0.0047228085 -0.0011509372 -0.00025132869
-0.0052387537 -0.0011509368 -0.00025132869
-0.0057546832 -0.0011509371 -0.00025132881
-0.0072628134 -0.0011509373 -0.00025132881
-0.0042465637 -0.0011509374 -0.00025132881
-0.006230941 -0.0011509373 -0.00076678372
-0.0042465618 -0.0011509374 -0.0007667836
-0.0047228104 -0.0011509372 -0.0012425871
-0.0047228117 -0.0011509371 -0.00076678349
-0.0027384367 -0.0011509372 -0.00025132881
-0.0032543752 -0.0011509371 -0.0017580426
-0.0037703125 -0.0011509373 -0.0022734946
-0.003254375 -0.0011509369 -0.0022734948
-0.0027384376 -0.0011509373 -0.0022734946
-0.0077390587 -0.0011509369 -0.00076678337
0.0062309396 -0.0011509374 -0.00076678325
-0.0077390578 -0.0011509373 -0.0012425869
-0.0072628143 -0.0011509369 -0.00076678384
-0.0077346489 -0.0011465271 -0.00025867147
-0.0067468747 -0.0011509372 -0.0012425869
-0.006230941 -0.0011509372 -0.0017580421
-0.0025598437 -0.00015875 -0.0080227973
-0.0023800295 -0.00018195201 -0.0077153556
-0.00010583334 -0.00010583334 -0.0080624474
6.3499996e-05 -0.0001031875 -0.0080703776
0.000116086 -0.00018057821 -0.0077006388
0.0051417388 -0.00018961808 -0.0057627233
0.0051583122 0.00015768458 -0.0057624588
-0.0026781438 -0.00018393635 -0.0072717294
-0.0074215643 -0.00019843758 -0.0037405586
-0.0074215638 -0.00019843756 -0.0042560133
0.005754685 -0.0011509373 -0.0012425871
0.0052387533 -0.0011509369 -0.0017580418
0.0047200755 -0.0011468318 -0.0022283765
0.0049014068 -0.00015875 -0.0032449299
0.00508 -0.00055562501 -0.002551049
0.0048769498 -0.00016797971 -0.0042661568
0.0051417393 -0.00018961808 -0.0047318186
0.0048743491 -0.00016596598 -0.0047390279
-0.0051510232 -0.00019217105 -0.0057627242
-0.0051510222 -0.00019217101 -0.0052472753
-0.0051517729 0.0001525711 -0.0052486989
-0.0048868069 0.0001392807 -0.0057619819
-0.0048889644 0.00013453396 -0.0052445843
-0.0037703142 -0.00075406203 -0.0022734951
-0.00487551 -0.00019238354 -0.0037486225
-0.0052417652 -0.0011449085 -0.0022609481
-0.0048703328 -0.00018720524 -0.0047310707
-0.0048868065 0.0001392807 -0.0047310707
6.069853e-05 6.0698527e-05 -0.0080787763
-0.00010318749 6.3500011e-05 -0.0080703776
-0.0022621867 0.0011509372 -0.0017580424
-0.0017462505 0.0011509369 -0.0017580419
-0.002262187 0.0011509373 -0.0022734944
-0.007415894 0.00012331478 -0.0042701745
-0.0076691378 0.00015119053 -0.0042560161
-0.0051507708 0.00015205571 -0.0037415128
-0.0051572328 0.00015714105 -0.0042565498
-0.004888569 0.00013540445 -0.0042536813
-0.0048889648 0.00013453394 -0.0037486227
-0.00075406273 -0.0011509373 -0.0022734939
-0.0012303133 -0.00075406214 -0.0022734962
-0.00075406232 -0.00075406203 -0.0022734944
-0.0012303125 -0.0011509373 -0.0022734955
-0.00075406273 -0.0011509371 -0.001758042
-0.00018142864 -0.00018709831 -0.0072694421
0.00015875 -0.00019843744 -0.0067539886
-0.00018142861 -0.00018709825 -0.0067539848
-0.0023944795 0.00012567714 -0.0052472702
-0.002395784 0.00012521131 -0.0047346107
-0.0072693652 0.0011420752 -0.0022169079
-0.0072589261 0.00074316759 -0.0022641681
-0.0067362888 0.0011357239 -0.0022133596
-0.0076691364 0.00015119051 -0.0047318186
-0.008261025 -0.00075654249 -0.0022487172
0.0076566371 -0.00015875009 -0.0062385313
0.0074272328 -0.00018142864 -0.0062385304
0.0074272328 -0.00018142862 -0.0057627289
0.0074272328 -0.00018142862 -0.0047318181
0.0074107414 0.00014431821 -0.004731819
0.0074066781 0.00014485943 -0.0052472716
0.0074272333 -0.00018142864 -0.0032251049
0.0072513139 -0.0011342465 -0.0022301401
0.0077309213 -0.0011071794 -0.0022094469
0.0057563251 0.0011512656 -0.0022358124
0.0052387509 0.0011509372 -0.0022338454
0.0062373024 0.001146999 -0.0022538216
0.0047228104 0.0011509371 -0.00025132881
0.0052387537 0.0011509369 -0.00025132881
0.0047228108 0.0011509369 -0.00076678337
0.0032543757 0.0011509369 -0.0022734944
0.0032543738 0.0011509371 -0.001758042
0.00075406296 0.0011509373 -0.002273496
0.00023812495 0.0011509371 -0.0022734948
0.00023812473 0.0011509371 -0.0017580419
-0.0037703137 0.0011509375 -0.00076678337
-0.0037703142 0.0011509372 -0.00025132881
-0.0032543731 0.0011509368 -0.00025132881
-0.0042465604 0.0011509371 -0.00025132881
0.0048741223 0.00015378911 -0.0057652034
0.0048739333 -0.00016638228 -0.0052533718
0.0048738839 0.00014978836 0.0022389696
-0.0051593771 -0.00019843753 0.00073992996
-0.0076682591 0.00014986003 0.00074088201
-0.0082252361 0.0011344008 -0.00076678337
-0.0026649178 0.00014573774 -0.0042573167
-0.003254375 -0.0007540618 -0.002273496
-0.0017462496 -0.0011509368 -0.001758042
-0.0022621865 -0.0011509375 -0.0022734944
-0.0012303127 -0.0011509372 -0.001758042
-0.0017462499 -0.0011509371 -0.0012425873
-0.0077390606 0.0011509376 -0.00033062953
-0.0072628143 0.0011509373 -0.00076678372
-0.0067468723 0.0011509371 -0.0007667836
-0.0067468742 0.0011509371 -0.0012425876
-0.006230941 0.0011509373 -0.0012425869
0.0074281767 -0.00016536463 0.0022268186
0.0074181999 0.00014529667 0.0022325304
0.0086979624 0.00077966746 -0.00031911803
0.0074272328 -0.00018142864 0.0017708393
0.0051593753 0.00055562501 -0.002551049
0.0057546841 0.00075406249 -0.0022338436
0.0042451764 0.0011501047 -0.0022721086
0.0057546846 0.0011509372 -0.00076678337
0.0057546846 0.0011509373 -0.0012425876
0.0062309396 0.0011509374 -0.00076678349
-0.0024001491 -0.00013607142 0.0025997206
-0.0026142537 8.7056462e-05 0.0025958226
-0.0023992897 8.2982951e-05 0.0025782648
-0.0026320748 -0.00016192501 0.0025686047
-0.0017462495 0.0011509368 -0.0022734944
0.0072483816 -0.0011401137 -0.00033062964
0.0067468756 -0.00025135386 -0.0002777623
0.001230312 -0.0011509371 -0.00025132857
0.00075406209 -0.0007805205 -0.00027776242
0.0012303124 -0.00078052044 -0.00027776253
0.0017462496 -0.0011509367 -0.001758042
-0.00027781221 -0.0011509372 -0.001758042
-0.0012303127 -0.0011509373 -0.0012425869
0.0077031013 0.00015129197 0.002239458
0.0017462501 -0.00078052038 -0.00027776242
0.002738436 0.0011509369 -0.0017580421
0.0027384369 0.0011509374 -0.0012425871
0.002262186 0.0011509369 -0.0017580427
-0.008683498 0.0002257227 -0.0022251711
-0.0085725002 0.001031875 -0.0012425873
-0.0086836247 0.00020881731 -0.00033123931
0.0087312469 0.00023812479 -0.00076678349
0.0087209158 -0.00026724461 -0.00076561037
0.0086254161 0.001084792 -0.0017580424
0.008255003 0.0011112498 -0.0017580417
0.0077390643 0.0011509371 -0.0017580424
0.0086603016 -0.00073966285 -0.0007629235
0.0048836539 0.00013368423 -0.0076617701
0.0051583112 0.0001576846 -0.0072697029
0.0051561357 0.00015551024 -0.0042552031
0.0048758937 0.00015497029 -0.0042604199
0.0048805964 -0.00016068603 -0.0037773091
0.0062327734 0.00075955741 -0.0022521452
0.0057546836 -0.00078606821 -0.00031016511
0.0051400899 -0.00018990655 0.0022447908
0.0042465637 -0.0011509373 -0.00076678349
0.0027384376 0.0011509373 -0.0022734948
0.0026779899 0.00014653848 -0.0032275442
0.001746249 -0.0011509372 -0.0022734953
0.0037638259 -0.00027514092 -0.0022658703
0.0026555264 -0.00018547032 -0.0037444828
0.0082511483 0.0011097086 -0.0022307662
0.0067375763 0.00075692235 -0.0022467033
-0.0077033462 -0.00019049995 -0.0052472726
-0.0074222861 -0.00019627278 -0.0052458313
-0.0074215624 -0.00019843756 -0.0047318167
-0.0077033425 -0.00019050001 -0.0057627233
-0.0074242097 -0.00019050004 -0.005761846
-0.0077033411 -0.00019049997 -0.0047318181
-0.0077050063 -0.00018971186 -0.0067539876
-0.0074232887 -0.00019326096 -0.0062402552
-0.0074314843 -0.00015875 -0.007672552
-0.0076710265 0.00014117411 -0.0067562535
-0.0076724901 0.00014466737 -0.0062474813
0.0051417379 -0.00018961809 -0.003225104
0.007427515 -0.00017660944 -0.00725953
0.00741074 0.00014431821 -0.0067539848
0.0074107409 0.00014431823 -0.0062385323
-0.0042465609 0.0011509373 -0.00076678349
-0.0047228094 0.0011509374 -0.00076678372
-0.0052387505 -0.0011509368 -0.0012425871
-0.0057546846 -0.0011509373 -0.0012425871
-0.0047228094 -0.0011509371 -0.0017580413
-0.0037703116 -0.0011509373 -0.0012425869
-0.0032543764 -0.0011509372 -0.00076678349
0.0067468709 -0.0007540622 -0.0022338443
0.0077390601 -0.0011112499 -0.0017580424
0.0082354136 -0.0011060956 -0.0021895613
0.0082430942 -0.0011072807 -0.0017580426
0.0077390615 -0.0011112497 -0.0012425876
0.0067468695 -0.0011509371 -0.0012425876
0.007248383 -0.0011401135 -0.0012425869
0.0067468719 -0.0011509371 -0.00076678314
-0.0067468695 -0.0011509372 -0.0007667836
-0.0067468709 -0.0011509365 -0.00025132881
-0.0062309406 -0.00078052044 -0.0002777623
-0.0067468705 -0.00078052032 -0.0002777623
-0.0062309364 -0.0011509373 -0.0012425876
-0.0057546832 -0.0011509372 -0.0017580421
-0.0042465637 -0.0011509372 -0.0017580417
-0.0042465641 -0.0011492604 -0.002270702
-0.0062309392 -0.00075406203 -0.0022734951
-0.0057563758 -0.00075725972 -0.0022687966
-0.0024288751 -0.000142875 -0.0080227973
-0.0017462512 -0.0011509372 -0.0022734944
-0.0026676343 0.00014986006 -0.0057630492
-0.002675405 -0.00018209564 -0.0062385323
-0.0023523867 -0.00019212364 -0.0062376317
-0.0023571968 -0.00019482958 -0.0067539839
-0.0023494996 -0.00019050007 -0.0072694374
0.00015875003 -0.00019843747 -0.0062385304
-0.0077033411 -0.00019049998 -0.0037405603
0.0052387505 -0.0011509367 -0.0012425876
-0.0051527629 0.00015378905 -0.0057643745
-0.0051561366 0.00015605017 -0.0062371846
-0.0051510213 -0.00019217105 -0.0062385323
-0.0024002313 9.4904906e-05 -0.0076814601
-0.0022621858 -0.0011509369 -0.0017580431
-0.0051550288 0.00015494434 -0.003227819
-0.00016022001 -0.00017197922 -0.0076835677
-0.000197437 0.000157416 -0.0072677759
0.00015875007 -0.0001984375 -0.0072694458
0.00014368619 0.00014832118 -0.0072697354
-0.00018142864 -0.0001870983 -0.0032251042
-0.0001814287 -0.00018709825 -0.003740557
-0.0087039648 -0.00074414071 -0.0022313672
0.0076672886 -0.00018239366 -0.0072728181
0.0077025499 0.00015239998 -0.0047318214
0.0077025467 0.00015239998 -0.0052472777
0.0051417383 -0.00018961806 -0.0052472763
0.0051556635 0.00015503654 -0.0052463496
0.0048741247 0.00015378912 -0.004734295
0.0074272328 -0.00018142864 -0.0052472744
0.0074272319 -0.00018142862 -0.0042560138
0.0076566343 -0.00015875009 -0.0037405582
0.0076566348 -0.00015875003 -0.0032251049
0.0082479017 -0.00074320054 -0.0022171512
0.0051583145 0.00015768455 -0.0047315536
-0.0012303129 0.0011509373 -0.0022734965
-0.001746249 0.00075406197 -0.0022734939
0.0048736264 0.00015345839 -0.0052493853
0.0027384374 0.0011509368 -0.00025132892
0.0023869202 0.00014741078 0.0012553849
0.002677199 0.00014665975 0.0012543341
0.0023869197 0.00014741077 0.0007399302
0.0032543726 0.0011509368 -0.00025132892
0.002677992 0.00014653846 0.0017696191
0.0026662203 0.00014834022 0.0022414427
0.0023869199 0.00014741076 0.0017708398
0.0026511266 -0.00019050001 0.0012553846
0.0048749507 -0.00017859381 0.0017741434
0.0057546841 0.0011509374 -0.00025132881
0.0062309382 0.00078581233 -0.00031476957
0.0062309382 0.0011509368 -0.00025132881
0.0057546822 0.00078581233 -0.00031476957
0.0051593762 0.00015875002 0.00073993066
0.0051593762 0.00015874999 0.0012553846
-0.0022621867 -0.0011509373 -0.0007667836
-0.00019843747 0.00015875 0.00073993043
-0.0012303124 0.00078581215 -0.00031476968
-0.0012303122 0.00021043581 -0.00027345913
-0.0024028984 0.00012267049 0.00073992996
-0.0012303133 0.0011509369 -0.00025132881
-0.0012308876 -0.00078147912 -0.00028235966
-0.0017481707 -0.00078030681 -0.0002794679
-0.0023494991 -0.00019050004 0.0007399302
-0.0026874107 -0.00019135045 0.0007399302
-0.0026884503 -0.0001908635 0.0012517516
-0.0023532349 -0.00018956626 0.0022303171
-0.0026738488 -0.00018832117 0.002234203
-0.0026573371 0.00014287503 0.0022387125
-0.0077052778 -0.00018958161 0.0017718226
-0.0076727108 0.00014944827 0.001772698
-0.0072628134 0.0011509372 -0.0012425869
-0.0057546855 -0.00078052061 -0.00027776242
-0.002675405 -0.00018209558 -0.0042560138
-0.002360211 -0.00019700307 -0.0047332514
0.00015875006 -0.00019843748 -0.0037405603
0.0023869199 0.00014741077 -0.0037405593
0.0017462501 0.00078581186 -0.00031476945
0.0017462494 0.0011509368 -0.00025132857
0.0017462504 0.0011509371 -0.0007667836
0.0012303127 0.0011509373 -0.00025132857
0.0012303126 0.0011509371 -0.00076678349
0.00023812488 0.0011509369 -0.0012425871
0.00075406273 0.0011509373 -0.0012425871
0.00023812483 0.0011509371 -0.00076678349
0.00023812485 0.0011509367 -0.00025132881
-0.00027781236 0.0011509372 -0.00025132881
0.00013710231 0.00014792616 0.00073992996
0.00013710228 0.00014792614 0.0012553844
-0.0001984375 0.00015874999 0.0012553842
-0.00019843747 0.00015875002 0.0017708386
0.00075406261 0.0011509373 -0.00076678337
-0.003254375 -0.0011509368 -0.00025132892
-0.0032543752 0.00078581204 -0.00031476957
-0.0074215638 -0.00019843754 0.0017708389
-0.0077390606 0.0011509368 -0.0007667836
-0.0076691369 0.00015119051 0.0012553849
-0.0074136262 0.00012700005 0.00073992996
-0.0074136276 0.00012700004 0.0012553844
-0.0062270672 0.001148033 -0.00025616423
-0.0067349672 0.0011410153 -0.00029593578
-0.0072628125 0.0011509374 -0.00033062964
-0.0057546846 0.0011509372 -0.00025132857
-0.007415894 0.00012331475 0.0022324824
-0.0062309401 0.0011509372 -0.00076678372
-0.005754685 0.0011509374 -0.00076678337
-0.0052387537 0.0011509371 -0.00025132881
-0.0057546832 0.0011509372 -0.0012425864
0.0062309392 0.0011509371 -0.0017580414
-0.0051102387 9.8273813e-05 0.0026016089
-0.0051509924 0.0001559551 0.00223659
-0.0074612503 2.645833e-05 0.0026167131
0.0048758951 0.00015497029 -0.0062366426
0.0052387505 0.0011509368 -0.00076678349
0.0047228108 0.0011509374 -0.0012425866
0.00015024557 -0.00019276787 0.0022346068
-0.00011509376 -0.00013890625 0.0026352175
9.5249998e-05 -0.00014060715 0.0026238884
-0.0002778123 -0.0011509371 -0.00025132892
0.00239259 -0.00017008938 0.0022338985
0.002415268 -0.00010205357 0.0025581818
0.0026281942 -0.00011465278 0.0025902798
0.0024063159 0.00010444078 0.0025575862
0.0026509452 -0.0001885157 0.0022421374
0.0023959498 -0.00016903941 0.00075167837
-0.00019049995 0.0001551421 0.0022300624
-0.00012507578 0.00010342803 0.002639543
0.00013536823 0.00014398259 0.0022426469
-0.0017462494 -0.0011509371 -0.00025132869
0.00015875003 -0.00019843747 0.0012553844
0.00015875004 -0.00019843751 0.0017708398
-0.00018142864 -0.0001870983 0.0017708393
-0.0023971256 0.00012473218 -0.0042582792
-0.002400341 0.00012358389 -0.0037435715
-0.0047228113 0.0011509372 -0.0017580418
-0.0042465627 0.0011509369 -0.0017580418
-0.0037689242 0.0011501049 -0.0022721076
-0.0037703158 0.00075406203 -0.0022734944
-0.003255327 0.0011502242 -0.0022723081
-0.0032543724 0.00075406191 -0.0022734958
-0.0017462505 0.0011509373 -0.00076678337
-0.0022621863 0.0011509373 -0.0012425864
-0.002262187 0.0011509372 -0.0007667836
-0.00075406244 0.0011509372 -0.00025132881
-0.00075406232 0.0011509374 -0.00076678337
0.0032543731 0.0011509369 -0.0012425873
0.0032543738 0.0011509371 -0.00076678372
0.0037703137 0.0011509371 -0.0012425873
0.0062309415 0.0002104358 -0.00027345913
0.0017462492 -0.0011509372 -0.0012425871
-0.00018142867 -0.00018709827 0.0007399302
0.00015875003 -0.00019843747 0.0007399302
0.0012303126 0.00021043577 -0.00027345901
0.0027384369 0.0011509373 -0.00076678349
0.0012303129 -0.00025135386 -0.0002777623
-0.0076691397 0.0001511905 -0.0057627251
-0.0086415205 0.00075808913 -0.00036051101
0.0082549993 0.0011112496 -0.0012425873
0.0086723585 -0.00074062007 -0.0012393894
0.0082430961 -0.001107281 -0.0012425871
0.0077390615 -0.0011112497 -0.00076678337
0.0087220054 0.00022510567 -0.00030377647
0.0067468723 0.00078581198 -0.00031476957
0.0067468719 0.00021043576 -0.00027345901
0.0047225165 0.0011447639 -0.0022602789
0.0051566758 0.00015659012 0.0022425957
0.0022621872 0.0011509373 -0.0022734953
0.0017462499 0.0011509369 -0.0022734955
0.0024341668 0.00058208336 -0.002551049
0.0026783843 0.00014726147 -0.0037416019
0.0017462496 -0.00075406203 -0.0022734967
0.001230313 -0.00075406209 -0.0022734951
0.0037644219 -0.0007540622 -0.0022597543
0.0023869202 0.00014741078 -0.0032251058
0.0017462497 0.00075406197 -0.002273496
0.0012303126 0.00075406209 -0.0022734941
0.0012303133 0.0002381247 -0.002273499
0.0024072002 -0.00015722365 -0.0037481848
0.0077390587 0.0011446712 -0.0022254984
-0.0077033434 -0.00019049997 -0.0042560161
-0.0051510213 -0.00019217108 -0.0042560175
-0.0051510213 -0.00019217098 -0.0047318181
-0.0074136257 0.00012700002 -0.0047318176
-0.0051480378 0.00015024554 -0.0047312509
-0.0074238116 -0.00019169819 -0.0067509944
-0.0077052782 -0.00018958159 -0.0062401704
-0.0075803129 6.3664629e-12 -0.0080227973
-0.0074251699 0.00010342803 -0.0076623382
-0.0048683351 -0.0001852084 -0.0072694421
-0.0048859743 0.00014111114 -0.0072694412
-0.0051527633 0.00015378909 -0.0072644865
0.0074272328 -0.00018142864 -0.0067539848
0.0051566088 0.00015598109 -0.0067539876
0.0074107409 0.00014431823 -0.0057627251
-0.0042465609 0.0011509373 -0.0012425871
-0.0051593767 -0.00019843745 0.0012553851
-0.0048683356 -0.0001852084 0.0007399302
-0.0052387509 -0.0011509368 -0.00076678372
-0.003770313 -0.0011509372 -0.001758042
-0.0032543743 -0.0011509372 -0.0012425869
-0.0042465623 -0.0011509373 -0.0012425873
-0.0037703125 -0.0011509372 -0.00076678349
0.0072483844 -0.0011401133 -0.0017580431
0.0062309396 -0.0011509373 -0.0012425873
-0.002661709 0.0001481667 -0.0072654784
-0.0057523511 -0.0011451006 -0.0022618338
-0.0052387528 -0.0011509371 -0.0017580418
-0.0047213631 -0.0011454332 -0.0022633648
-0.0042465637 -0.00075406197 -0.0022734951
-0.0048876703 0.00013737984 -0.0062415805
-0.0023957842 0.00012521131 -0.0057655172
-0.0026754045 -0.00018209562 -0.0067539876
-0.0023944797 0.00012567712 -0.0067539867
-0.0023944799 0.00012567714 -0.0062385332
-0.00018142868 -0.00018709831 -0.0062385323
0.00015875003 -0.00019843751 -0.0057627279
-0.00018142868 -0.0001870983 -0.0057627279
-0.002460625 2.645833e-05 -0.008049231
-0.0042474209 0.0011477965 -0.0022663642
-0.0048859734 0.00014111117 -0.0067539848
-0.0027384385 0.0011509373 -0.00076678325
-0.0027384374 0.0011509372 -0.00025132881
-0.0032543747 0.0011509369 -0.0017580424
-0.0027384374 -0.0011509371 -0.0017580427
-0.0037762574 -0.00027800392 -0.0022648755
-0.0037719025 0.0002397122 -0.0022719095
-0.0026762607 -0.00018322392 -0.0037405568
-0.0023571963 -0.00019482958 -0.0037405582
-0.0024028982 0.00012267052 -0.0032251047
-0.0017462503 -0.00075406197 -0.0022734951
-0.0048914868 0.00012898441 -0.0032251047
-0.0052358103 0.0011465275 -0.0022279713
-0.0052387537 0.0011509369 -0.0017580414
-0.0012303129 -0.00027781216 -0.0022734953
0.0076566343 -0.00015875009 -0.0067539839
0.0077025485 0.00015239997 -0.006238535
0.0076566343 -0.00015875009 -0.0052472712
0.0074272333 -0.00018142864 -0.0037405593
0.0074107405 0.00014431823 -0.00374056
0.0076566339 -0.00015875009 -0.0042560152
0.0077025471 0.00015239998 -0.0042560101
-0.00027781221 0.0011509371 -0.001758042
-0.00027781242 0.0011509372 -0.0022734962
0.0042465637 0.0011509372 -0.001758042
0.0042465627 0.0011509373 -0.0012425873
0.0037703135 0.0011509368 -0.001758042
0.0023879448 0.00014631783 0.0022442543
9.4639443e-05 9.7692326e-05 0.0026370466
0.0026321774 0.00011010081 0.0025676836
0.0048833685 -0.00017318188 0.0012734078
0.0048914859 -0.0001686719 0.00074984273
0.0048782569 0.00015654518 0.0012608916
0.0042418931 -0.00077974243 -0.00028864702
0.0048815659 0.00015875006 0.0007399302
0.0042465618 0.0011509372 -0.00025132881
0.0042465632 0.00078581233 -0.00031476968
0.0037703153 0.00078581215 -0.00031476945
0.0037703181 0.0002104358 -0.00027345913
0.0037703163 -0.00025135386 -0.00027776242
-0.0017462496 0.00078581198 -0.00031476934
-0.0017462503 0.0011509371 -0.00025132869
-0.0026857634 -0.00018905684 0.0017722808
-0.0023494996 -0.00019050007 0.0017708382
-0.0074215648 -0.0001984376 0.0012553846
0.00015875006 -0.00019843747 -0.0052472744
0.00014240807 0.00014824451 -0.0057615628
0.00014166934 0.00014820015 -0.0052472739
-0.00018142864 -0.00018709828 -0.0052472712
-0.00019843742 0.00015875002 -0.0057627251
0.0022621874 0.0011509373 -0.0012425876
0.0017462505 0.0011509369 -0.0012425873
0.00075406261 0.0011509372 -0.00025132869
-0.0037703135 -0.0011509373 -0.00025132881
-0.0042465613 -0.00078052055 -0.00027776242
-0.0077033434 -0.00019050001 0.0007399302
-0.0074136262 0.00012700005 0.0017708389
-0.0074233669 -0.00018761368 0.0022340275
-0.0048859743 0.00014111114 0.0007399302
-0.0037703158 0.0002104358 -0.00027345924
-0.0042465613 0.00078581215 -0.00031476957
-0.0048859739 0.00014111114 0.0012553846
-0.0052387542 0.0011509369 -0.00076678349
0.0062309373 0.0011509371 -0.0012425869
0.0057546836 0.0011509372 -0.0017580417
0.00523875 0.0011509367 -0.0017580419
-0.0047228099 0.0011509372 -0.00025132869
-0.0049014064 -0.0001190625 0.0025836711
-0.0051444457 -0.00018389856 0.0022234817
-0.0051196883 -0.00011600961 0.0026156974
-0.002262187 0.0011509372 -0.00025132881
0.0052387542 0.0011509372 -0.0012425876
-0.00017524359 -0.00018658287 0.0022286207
0.0023944797 -0.00017077658 0.0012553849
0.0026511254 -0.00019050004 0.0017708389
-0.0017462495 -0.0011509372 -0.0007667836
0.0001371023 0.00014792614 0.0017708393
-0.002352386 -0.00019212365 -0.0042569153
-0.0037703116 0.0011509371 -0.0017580425
-0.0027384362 0.0011509369 -0.0022734969
-0.0057546818 0.0011509371 -0.0017580427
-0.0012303119 0.0011509373 -0.00076678337
-0.0012303127 0.0011509373 -0.0012425873
-0.0017462501 0.0011509371 -0.0012425871
-0.00075406267 0.0011509372 -0.0012425866
-0.00075406214 0.0007858121 -0.00031476957
0.0037703146 0.0011509369 -0.00025132881
0.0026779904 0.00014653848 0.0007387111
0.0032543738 0.00078581221 -0.00031476945
0.0062309396 -0.00025135383 -0.00027776242
-0.0002778123 0.0011509372 -0.0012425869
-0.00075256487 -0.00078176841 -0.00027975754
-0.00018142864 -0.00018709828 0.0012553846
-0.0012303126 -0.00025135383 -0.00027776242
0.0022621867 0.0011509375 -0.00076678349
0.00075406273 -0.00075406209 -0.0022734981
0.00015875 -0.00019843753 -0.0032251047
0.0012303124 -0.00027781213 -0.0022734967
0.0012303123 0.00078581221 -0.00031476934
0.00075406232 0.00078581239 -0.00031476957
0.008255003 0.0011112498 -0.0007667836
0.0085989581 -0.0010583333 -0.0012425876
0.0082276622 -0.0011015484 -0.00033503515
0.007248383 -0.0011401138 -0.00076678349
0.0072584064 0.0011465271 -0.00025867135
0.0047228104 0.0011509368 -0.0017580418
0.0037703156 -0.00078052055 -0.0002777623
0.0032543743 -0.00078052026 -0.00027776253
0.0051593785 0.00015875003 0.0017708389
0.0042449743 -0.0007437435 -0.0022576344
0.0032481668 0.00075357209 -0.0022661528
0.0072584776 0.0011459346 -0.0022338459
0.0077025504 0.00015239994 -0.00374056
0.0077025495 0.00015239998 -0.0057627261
-0.0048768022 -0.00019367505 -0.0042560138
-0.0074136266 0.00012700002 -0.0072694421
-0.0074612503 2.7284841e-12 -0.0080227973
-0.0051486501 -0.00018878377 -0.0072705159
-0.0051510222 -0.00019217099 -0.0067539876
-0.0052387537 0.0011509372 -0.0012425871
0.0048736255 0.00015345839 -0.0067550438
-0.0047228094 0.0011509373 -0.0012425869
-0.0051566865 -0.0001964195 0.0017681525
-0.0051572309 0.00015714107 0.0017724477
-0.0062309392 -0.0011509369 -0.00025132857
-0.0048683356 -0.00018520838 0.0012553849
-0.0026646534 0.0001453345 -0.0067528728
-0.0023944797 0.00012567714 -0.0072694402
-0.0048755105 -0.00019238354 -0.0052445838
-0.0048724059 -0.0001892789 -0.0062415823
0.00014368616 0.00014832117 -0.006238821
-0.0027384369 0.0011509368 -0.0017580421
-0.0027384378 0.0011509372 -0.0012425869
-0.0032543736 0.0011509368 -0.0007667836
-0.002348104 -0.00019625694 -0.0032220522
-0.0012303131 0.0002381247 -0.0022734951
-0.00019843744 0.00015875004 -0.0037405554
-0.0026616333 0.00014390287 -0.0037405593
-0.0042465623 0.00075406209 -0.0022734948
-0.0062309392 -0.0002778121 -0.0022734953
-0.0062288344 0.00024006858 -0.002267831
-0.0057534059 0.0011362148 -0.0022479147
-0.0047169663 0.0011475533 -0.0022504432
0.0076566348 -0.00015875009 -0.0057627279
0.0051417383 -0.00018961805 -0.0037405589
0.0076566339 -0.00015875007 -0.0047318176
-0.00016477857 0.0001336314 -0.0076995743
-0.00019843748 0.00015875 -0.0067539876
-0.00019843753 0.00015875004 -0.0062385285
0.0037703121 0.0011509372 -0.00076678372
-0.0027384371 -0.0011509372 -0.00076678349
-0.0017462502 0.00021043576 -0.00027345901
-0.002663617 0.00015094267 0.00074058026
-0.0026638487 0.00014411351 0.0012536966
-0.0023944797 0.00012567715 0.0022466427
-0.0026630315 0.000142875 0.0017708386
-0.0023494998 -0.00019050002 0.0012553846
-0.0051556621 0.0001559649 0.0012572403
-0.006230942 0.00078581221 -0.00031476934
0.00014240814 0.00014824449 -0.0047306526
0.00015875003 -0.00019843751 -0.0042560128
0.00014111112 0.00014816668 -0.0042568925
0.00015875012 -0.0001984375 -0.0047318186
-0.00019843742 0.00015875002 -0.004731819
-0.00019843745 0.00015875004 -0.0052472712
0.0022621858 0.0011509369 -0.00025132869
0.001230312 0.0011509373 -0.0012425873
-0.0077033434 -0.00019049994 0.0012553853
-0.00075406238 -0.0011509369 -0.00025132881
0.0023906673 -0.00017354882 0.0017741991
-0.00018142867 -0.0001870983 -0.0042560142
-0.0032543743 0.0011509373 -0.0012425869
-0.0067468728 0.0011509368 -0.0017580406
-0.0062309392 0.0011509371 -0.001758043
-0.0012303123 0.0011509371 -0.0017580421
0.0026523739 -0.00018907309 0.00074126688
-0.00027781233 0.0011509372 -0.00076678349
0.00014386715 0.00014833201 -0.0037405591
0.00014111113 0.00014816665 -0.003225985
0.00075406162 0.0007540622 -0.0022734979
0.0012303126 0.0011509373 -0.0022734962
0.0082430961 -0.001107281 -0.00076678337
0.0067468747 0.0011509368 -0.00025132881
0.0067468742 0.0011509368 -0.0007667836
0.0072628143 0.0011509368 -0.00076678349
0.0051417374 -0.00018961808 0.0017708382
0.0048741223 0.00015378911 0.001772078
0.0024039294 -0.00014741076 -0.0032251049
0.0025929168 0.00060854165 -0.002551049
0.0067429878 0.0011489943 -0.0022388364
0.0067468747 0.0011509372 -0.0017580413
0.0074107409 0.00014431823 -0.0042560138
0.0077025476 0.00015239998 -0.0067539876
-0.0074128187 0.00012377123 -0.0062418915
-0.0048683356 -0.00018520838 -0.0067539848
-0.0048683356 -0.0001852084 0.0017708389
-0.0037703153 -0.00025135383 -0.00027776253
-0.0026667444 0.00014850809 -0.0062391702
-0.0048703318 -0.00018720525 -0.005761981
-0.0026580456 0.0001465385 -0.0032261214
-0.00019843756 0.00015875 -0.003225104
-0.0062309415 0.00075406214 -0.0022734946
-0.007412225 0.0001213971 -0.0067551527
0.0051417388 -0.00018961808 -0.0042560142
0.00011144581 0.00013389527 -0.0077087982
0.00014166934 0.00014820015 -0.0067539923
0.0042465646 0.0011509374 -0.0007667836
-0.0027384371 -0.0011509373 -0.0012425873
-0.0037703139 0.00078581221 -0.00031476957
-0.0024028989 0.00012267052 0.0012553851
-0.0074224086 -0.00019590434 0.0007373991
-0.0062309424 -0.00025135392 -0.00027776218
-0.0062309429 0.0002104358 -0.00027345924
-0.0067468728 0.00021043576 -0.00027345889
-0.0057546846 0.00078581221 -0.00031476957
0.0017462505 0.0011509368 -0.0017580425
-0.0067468691 0.0007858121 -0.00031476957
-0.00018142864 -0.00018709827 -0.0047318181
-0.00019843758 0.00015875 -0.0042560147
-0.003770313 0.0011509373 -0.0012425869
-0.0072628162 0.0011509371 -0.001758043
-0.00075406261 0.0011509369 -0.001758042
0.00075406255 0.0011509369 -0.001758042
0.0077390601 0.0011417784 -0.00026657898
0.0072628129 0.0011509372 -0.0012425871
0.0077390606 0.0011509373 -0.00076678349
-0.0048859748 0.00014111114 0.0017708384
-0.0037703151 -0.00078052055 -0.00027776242
-0.0026858794 -0.00019092906 -0.0032261766
-0.0012303123 0.00075406209 -0.0022734953
-0.00075406232 0.00075406203 -0.0022734944
-0.00075406249 0.0011509373 -0.0022734951
-0.0067468742 0.00075406197 -0.0022734969
-0.0062319748 0.0011319565 -0.0022359139
-0.005754686 0.00075406209 -0.0022734958
-0.002399927 0.00012373166 0.0017755043
-0.0051455726 0.00014839675 0.0007399302
0.0012303126 0.0011509368 -0.001758043
0.0072628139 0.0011509372 -0.0017580431
0.0067468733 0.0011509373 -0.001242588
0.0077390596 0.0011509371 -0.0012425869
-0.0032543726 -0.00078052026 -0.00027776242
-0.0051537398 0.00015452292 -0.0067539839
