# .PCD v0.7 - Point Cloud Data file format
VERSION 0.7
FIELDS x y z
SIZE 4 4 4
TYPE F F F
COUNT 1 1 1
WIDTH 1151
HEIGHT 1
VIEWPOINT 0 0 0 1 0 0 0
POINTS 1151
DATA ascii
-0.0097606992 -0.00077107141 -0.0022472341
-0.0097330743 -0.0011296492 -0.0022405221
-0.0090508312 -0.00018142856 -0.003759149
0.0090471329 -0.0001700893 -0.0087025175
0.0090508303 0.00013607142 -0.008739572
0.0096830577 -0.0011225889 -0.0017580852
0.0096830567 -0.0011225889 -0.0012244682
0.0096830577 -0.001122589 -0.00073531922
0.0092282966 -0.0011728066 -0.00073531875
0.0037268139 0.0011792864 -0.00073531887
0.0037268135 0.0011792867 -0.00024617033
0.0042592133 0.0011792869 -0.00024617033
0.010094927 -0.00065314281 -0.00039143278
0.0096830577 -0.001122589 -0.00033510639
0.0097525306 -0.00078449724 -0.00035111501
0.0097471196 -0.00075780385 -0.0022133542
0.010100842 -0.00065011904 -0.002202766
-0.0097539173 -0.00027718273 -0.0022398226
-0.010115635 -0.00027214288 -0.0022027658
-0.0090508303 -0.00018142855 -0.0032700002
0.0012629756 0.00011944045 -0.0091027301
0.0015528386 0.00013607142 -0.0086760493
0.0012729863 -0.00014653847 -0.0090713762
0.001242271 0.00013607138 -0.0087395813
-0.0067437538 0.0011891468 -0.00027710455
-0.007276156 0.0011792864 -0.0007353191
-0.0072648097 0.0011708478 -0.00029167254
-0.0077688633 0.0011745117 -0.00028127665
0.0040373798 0.00013607144 -0.0082504256
0.0087786056 0.00012655201 -0.0087296981
0.0040373798 9.0714282e-05 -0.0090063829
-0.0063178339 -0.00012700002 -0.0090864254
-0.0062789139 0.00012679379 -0.0087314975
-0.0063322145 9.0714297e-05 -0.0090799853
-0.0087827006 0.00011043475 -0.0087125059
-0.0090579866 8.193549e-05 -0.0087252287
-0.0087599829 0.00012599201 -0.0082504218
-0.009006463 3.628571e-05 -0.0090775322
-0.0090656187 -0.00017318179 -0.0087180119
-0.0088289957 -0.00012560439 -0.0090542715
-0.0087698409 -0.00017134917 -0.0087282807
-0.0090360409 -0.00012095238 -0.0090508498
-0.0090578366 -0.00017904132 -0.0082621276
-0.010115636 -0.00026259397 -0.00034212775
-0.0097520687 -0.00024946441 -0.00028322707
-0.010102444 -0.00074042479 -0.00032188627
-0.0092282938 -0.0011728066 -0.0022345292
-0.0087402649 -0.0011728065 -0.0022345292
0.009006463 -9.0714282e-05 -0.0090063829
-0.0088567249 5.6696423e-05 0.0026275797
-0.0090397382 -0.00012473213 0.0026109039
-0.0090191383 5.1836731e-05 0.0026061398
-0.0088289967 -0.00012311224 0.0026124923
0.0038155455 -0.00013153572 0.0026175745
0.0037526924 -0.00017575889 0.0022329257
0.0040373798 -0.00017575893 0.0022162499
0.0040373798 0.00013607144 0.0022440425
-0.002750742 0.0011792864 -0.0022472346
-0.0022627073 0.0011792857 -0.0025140424
-0.0027507425 0.0011792856 -0.0025140424
0.0032387762 0.0011792864 -0.0017580842
0.0027507416 0.0011792866 -0.0012244686
0.0027507411 0.0011792866 -0.0017580852
0.0032387769 0.0011792864 -0.0012244682
0.0032387772 0.0011792862 -0.00073531899
0.0027507416 0.0011792864 -0.00073531899
0.0037268137 0.0011792867 -0.0012244685
0.0027507422 0.0011792867 -0.00024617033
0.0032387767 0.0011792864 -0.00024617033
0.0047472473 0.0011792862 -0.00073531887
0.0047472487 0.0011792864 -0.00024617021
0.0052352804 0.0011792867 -0.00024617033
0.0052352813 0.0011792866 -0.001224468
0.0047472492 0.0011792865 -0.0012244682
0.0052352822 0.0011792867 -0.0017580841
0.0057676863 0.0011792866 -0.0022472341
0.0052352818 0.0011792864 -0.0022472348
0.0057676858 0.0011792867 -0.0017580844
0.0062557212 0.0011792865 -0.0017580849
0.0062557193 0.0011792863 -0.0022472339
0.00373315 0.00013347961 0.0022389593
0.0037908976 9.8273813e-05 0.0026121389
0.0040373798 0.00013607144 0.0017548935
0.0090212515 6.0476188e-05 0.0025849643
0.008873363 -0.00012095238 0.0025849643
0.0088092778 7.5595242e-05 0.0025899049
0.010114434 -0.00025743237 -0.00034351938
0.009043674 -0.0001697235 0.00073069311
-0.0067437566 0.0011792859 -0.0022027665
-0.0072761569 0.0011792862 -0.0022027662
-0.0052352827 0.001179286 -0.0022027662
-0.0047472492 0.0011792857 -0.0022027665
-0.0047517978 0.0011909163 -0.00027353514
-0.0022627071 0.0011792864 -0.0012244682
-0.0017746725 0.0011792866 -0.0017580847
-0.002262708 0.0011792864 -0.0017580851
-0.0017746718 0.0011792864 -0.0022472341
-0.0017746724 0.0011792856 -0.0025140424
-0.0012422707 0.0011792857 -0.0025140424
-0.0032387779 0.0011792862 -0.0022472339
-0.0032261007 0.0011728061 -0.0025140424
-0.001242271 0.0011792864 -0.0022472339
-0.0012422709 0.0011792866 -0.0017580846
-0.00075423572 0.0011792863 -0.0022472348
-0.00026620092 0.0011792867 -0.0017580854
-0.00026620092 0.0011792865 -0.0022472341
0.0015528384 -0.00013607142 -0.0086506382
0.010115636 -0.00027214285 -0.0007353191
0.010100844 -0.00065011904 -0.0007353191
0.010112467 -0.00025918367 -0.0012260563
0.010089012 -0.00062592851 -0.0012422553
0.010098996 -0.00064633932 -0.0017636438
0.010115636 -0.0002721429 -0.002202766
-0.0077641923 0.0011792864 -0.0017580849
-0.0082522249 0.0011792862 -0.0022027662
-0.008252223 0.0011792867 -0.0017580846
-0.010086054 0.00065515866 -0.0021879431
-0.0097591495 0.00076948549 -0.0022018317
-0.0096783033 0.0011144896 -0.002202766
0.0065599517 0.00011663266 -0.0062493626
0.0062557198 0.00013607139 -0.0062493626
0.0065599517 0.00011663265 -0.00673851
0.0065452713 -0.00015278197 -0.0062540425
0.0087241298 -0.0011462984 -0.0022027658
0.009028648 -0.00015875003 -0.0032700002
-0.0090476628 8.4234707e-05 -0.0037496197
-0.0090495627 8.812247e-05 -0.0042495681
-0.010110474 0.00022151161 -0.0021872537
-0.0092016766 0.001161143 -0.0022027662
-0.00075423566 0.0011792857 -0.0025140424
-0.00026620086 0.0011792857 -0.0025140424
-0.0090544298 8.8262561e-05 -0.0082564354
0.0022627069 0.00022678587 -0.00024617033
0.0022627078 0.00081642851 -0.00029063842
0.002750742 0.00022678597 -0.00024617033
-0.0065514999 0.00010583334 -0.0047374466
-0.0065662893 -0.00018142856 -0.0047374461
-0.0065515009 0.00010583334 -0.0052265953
-0.008759982 0.00012599202 -0.0052265981
-0.0087529402 -0.00017494892 -0.0052265972
-0.0087599838 0.00012599202 -0.0047374475
-0.0065662898 -0.00018142855 -0.0052265953
0.0015528385 -0.00013607144 -0.0077612763
0.0015528385 -0.00013607145 -0.0082504256
0.0012422712 -0.00018142851 -0.0077612819
0.0012422712 -0.00018142862 -0.0082504209
-0.0092204642 0.0011739504 -0.0017528528
-0.0096816095 0.0011201239 -0.0012264014
-0.0092204642 0.0011739504 -0.0012270837
0.0062726843 -0.00017342431 -0.0087343436
-0.0087402659 -0.0011792864 -0.001758085
-0.0092282947 -0.0011792867 -0.0017580846
-0.0092282956 -0.0011792866 -0.0012244685
-0.0088426471 3.4890109e-05 -0.0090679536
-0.010115637 -0.00027214288 -0.0017580846
-0.010115014 0.00022359156 -0.0017587118
-0.010115637 -0.00027214285 -0.0012244679
-0.010113029 0.00021344537 -0.0012257762
-0.010114887 0.0002229419 -0.0007368261
-0.010114647 0.00021166664 -0.00034202368
-0.0097499043 0.00020962358 -0.00032429013
-0.010090279 0.0006544388 -0.0003795746
-0.0097405324 -0.001129805 -0.0017580852
-0.0088004777 0.00012419216 0.00222922
-0.0040454469 0.00012782468 0.0017710638
-0.0037493373 0.00012979119 0.0022330976
-0.0037384888 0.00012970547 0.0017564555
-0.0040447745 0.0001209524 0.0022143975
-0.0022627078 0.0011792863 -0.0022472339
-0.002750742 0.0011792867 -0.0017580845
-0.0032387774 0.0011792864 -0.001758085
0.0042592133 0.0011792864 -0.00073531887
0.0057676849 0.0011792867 -0.0012244681
0.0062557207 0.0011792865 -0.0012244679
0.0047472492 0.0011792862 -0.0022472341
0.0047472487 0.0011792865 -0.0017580846
0.0037268128 0.0011792869 -0.0017580841
0.0032387776 0.001179286 -0.0022472339
0.0040373798 0.00013607144 0.0012657447
0.0037268139 0.00013607147 0.0012657435
0.0037268135 0.00013607138 0.0017548944
0.0062557226 0.00013607136 0.0017548937
0.0065662898 0.00013607141 0.0012657447
0.0065662898 0.00013607141 0.0017548932
0.0015528387 0.00013607144 0.00073212758
0.009006463 -0.00012095238 0.0025849643
0.0090494864 -0.00017593072 0.00222383
0.0090508312 0.00013607144 0.0017548935
0.0090508303 -0.00018142856 0.0017548935
0.0090508312 0.00013607141 0.0012657449
0.0022627069 0.0011792862 -0.0022472339
0.0022627073 0.0011792857 -0.0025140424
0.0017746723 0.0011792864 -0.0022472353
0.0017746724 0.0011792856 -0.0025140424
-0.0037469806 0.00012782468 -0.0072721289
-0.0037481496 0.00012672298 -0.0067374948
-0.004055127 0.00011792858 -0.0067355474
0.0012422712 0.00013607145 -0.0067385128
0.0009317029 0.00013607144 -0.0072632339
0.00093170302 0.00013607142 -0.006723688
0.0012422709 -0.00018142862 -0.0067385118
-0.0077641914 0.0011792858 -0.0022027662
-0.0062557189 0.0011792857 -0.0022027665
-0.0062557226 0.0011792864 -0.0017580845
-0.0057676868 0.0011792862 -0.0022027667
-0.0077641918 0.00077107141 -0.0022027667
-0.004214847 0.0010885714 -0.0025140427
-0.0040510315 0.00011164835 -0.0032973657
-0.0036951215 0.0011015305 -0.0025140427
-0.0012422714 0.00013607139 -0.0037591499
0.010114887 -0.00026906776 -0.0017588388
-0.008252224 0.0011792864 -0.00073531887
-0.0087402631 0.0011792857 -0.00033510639
-0.0082407249 0.001170327 -0.00030601001
-0.0097522615 0.00078194222 -0.00035458419
-0.0096651381 0.0011164832 -0.00033168588
-0.0096803578 0.001117992 -0.00073531922
0.0087684533 0.00012273106 0.0017569859
0.0087734265 0.00012186863 0.0012688888
-0.0072761569 0.0011792866 -0.0012244679
-0.0067437538 0.0011792867 -0.0012244682
-0.009213509 0.0011692068 -0.00073531887
-0.0092016784 0.0011611428 -0.00033510639
-0.010087698 0.00064843916 -0.001763026
0.006268397 -0.00017494892 -0.00673851
0.0062683974 -0.00017494892 -0.0062493635
0.0012422707 0.00013607138 -0.0062493663
0.0065639555 0.00012890979 -0.0077612754
0.0062557198 0.00013607136 -0.0077612763
0.0062557217 0.00013607139 -0.0072721243
0.009028649 -0.00015875002 -0.003759149
0.0090508321 0.00013607144 -0.003759149
0.0090508303 0.00013607139 -0.0052265967
0.0087681022 0.00012184169 -0.0057541081
0.0087620327 0.00012323445 -0.0052265958
0.0065450687 -0.0001538199 -0.005758279
0.0065622553 0.00012370128 -0.0052245753
0.0065461206 -0.00014844158 -0.0052225529
0.0062683984 -0.00017494892 -0.0057602129
0.0065450687 -0.0001538199 -0.0072740614
0.006268397 -0.00017494892 -0.0072721262
0.0065461206 -0.00014844158 -0.0067425538
-0.0090508303 9.0714297e-05 -0.0032700002
-0.0087599847 0.00012599202 -0.0032700002
0.00093170296 0.00012095235 0.0021402834
0.0012480577 -0.00013409939 0.0026403887
0.0012761983 9.7829121e-05 0.0026651823
-0.00075423578 0.0011792864 -0.0017580845
-0.00075423578 0.0011792865 -0.0012244682
-0.0012422709 0.0011792865 -0.00073531887
-0.00075423578 0.0011792865 -0.00024617033
-0.0012422706 0.0011792867 -0.00024617033
0.00026620089 0.0011792866 -0.0017580846
0.0022627078 0.0011792865 -0.00024617033
-0.001242271 0.00013607147 -0.0057602064
-0.0012422707 0.00013607147 -0.0052265967
-0.00093170302 -0.00018142856 -0.0056268084
-0.0087585319 -0.00017609238 -0.0047426783
-0.0090508303 -0.00018142855 -0.0042482973
-0.0090508303 9.0714304e-05 -0.0047374466
-0.0037268135 0.0011728067 -0.0022345292
-0.0062557203 -0.00018142852 -0.0047374461
-0.0062732729 0.00012660123 -0.0047374484
-0.0052352832 -0.00023812515 -0.00027952134
-0.0040373798 -0.00018142859 0.00073212758
-0.0047472473 -0.00023812514 -0.00027952122
-0.009760702 -0.00081017253 -0.00028143812
-0.0097405314 -0.0011298049 -0.00073531887
-0.0097318245 -0.0011288888 -0.0002553463
-0.008740264 0.0011792858 -0.0022027665
-0.0087402668 0.0011792865 -0.001758085
-0.0087402631 0.0011792864 -0.0012244685
-0.0015528386 -0.00018142858 -0.007272128
-0.0015528386 -0.00018142858 -0.0067385109
-0.001242271 -0.00018142862 -0.0072721252
-0.0015528386 9.0714282e-05 -0.0067385118
0.0040373798 -0.00017445054 -0.0087122088
0.0062683979 -0.00017494892 -0.0047374466
0.0065465681 -0.00014615079 -0.0047325063
0.0065441034 -0.00015875002 -0.0087395739
0.0065639555 0.00012890976 -0.0087325517
0.003726813 0.00013607145 -0.0082504228
0.0037562349 -0.00017474433 -0.0082490165
0.0037545431 -0.00017575886 -0.0077612791
0.0015528387 0.00013607144 -0.0082504256
0.0062557221 0.00013607138 -0.0057602082
0.0062557226 0.00013607139 -0.0052265991
0.0065639555 0.00012890977 -0.0047351057
0.0088011567 -0.0001654201 -0.0047374466
0.0087722111 0.00012337137 -0.0042474084
0.0087984949 -0.00017008923 -0.0042469087
0.008798494 -0.00017008925 -0.0052265953
0.0090330839 -0.00014514287 -0.0052177017
0.009028648 -0.00015875002 -0.0042482982
0.0092282984 -0.0011611428 -0.00034400006
-0.0092282956 -0.0011792865 -0.00073531887
-0.0065219211 4.5357141e-05 -0.0090508517
-0.0065219211 -0.00013607142 -0.0090508517
-0.0065584602 0.0001147269 -0.0087343436
-0.0082481941 -0.0011772247 -0.0022431924
-0.0077641918 -0.0011792862 -0.0022472341
-0.010115636 -0.00027214285 -0.0007353191
-0.0097405296 -0.001129805 -0.0012244681
-0.010106763 -0.00073478575 -0.00073531864
-0.010109299 -0.00071599492 -0.001224468
-0.008740264 -0.0011792864 -0.0012244685
-0.0082522258 -0.0011792869 -0.0012244682
0.0092282947 -0.0011611433 -0.0012096456
0.008252224 -0.0011792869 -0.0017580851
0.00879886 -0.00016944739 0.0017532152
0.002750742 -0.00081318873 -0.00028746203
0.0022627069 -0.0008131889 -0.00028746226
0.0022627078 -0.00023812502 -0.00027952134
0.0015528385 -0.00013607144 0.0021995741
-0.0040429258 -0.00017575893 0.0017660104
-0.0040373798 0.00012370131 0.001281915
-0.0090508312 -0.00018142856 0.0017548932
-0.0090508312 -0.00017609241 0.0022309634
-0.0090508312 9.0714304e-05 0.0017548932
-0.0087729553 -0.00017665407 0.0012657447
-0.0087675676 -0.0001772417 0.0017603661
-0.0090508293 9.0714304e-05 0.0012657444
-0.0090508312 9.0714297e-05 0.0022440425
-0.0037268132 -0.00018142862 0.0012657442
-0.0040373798 -0.00018142858 0.0012657449
-0.0065531 0.00011523166 0.0022284186
-0.0065219207 7.2571427e-05 0.0025908935
-0.0063381158 8.42347e-05 0.0026379025
-0.0062747961 0.00012801732 0.0022303278
-0.0062670484 0.00012835101 0.0017558401
-0.0065515009 0.00010583334 0.00073212758
-0.0062754415 0.00012599201 0.00073212758
-0.0062511703 0.0011816124 -0.00027353526
-0.0062683979 0.0001279719 0.0012673328
-0.0065515004 0.00010583335 0.0012657449
-0.0027507418 0.00077107153 -0.0025140422
-0.0037552728 0.00012751341 -0.0037625064
-0.0027507416 0.0011792866 -0.0012244685
0.0047472469 0.00081642863 -0.00029063842
0.0042592124 0.0011792867 -0.0012244686
0.0042592143 0.0011792866 -0.0017580847
0.0052352827 0.0011792864 -0.00073531887
0.0042592143 0.0011792866 -0.0022472343
0.0065622558 0.00013607141 0.00222383
0.0065514999 -0.00016462963 0.0022226318
0.0065551964 -0.00016252977 0.0017474822
0.0062572132 0.00013492793 0.0022421742
0.0027507425 0.00081642845 -0.0002906383
0.0032387767 0.00081642851 -0.0002906383
0.0037398622 -0.00017609238 0.0017548935
0.0040373798 -0.00018142859 0.0017548937
0.0062557193 0.00013607139 0.0012657444
0.0040373798 -0.00018142858 0.0012657444
0.0090498878 0.00013317628 0.0022393123
0.0087722074 0.0001233714 0.0022351488
0.0012422706 0.0011792857 -0.0025140424
0.00093170285 0.00013607145 -0.0082504246
-0.0012422705 0.00013607147 -0.0072721262
-0.0012422703 0.00013607147 -0.0067385156
0.0012422709 -0.00018142862 -0.007272128
-0.0065515009 0.00010583334 -0.0067385109
-0.0062690782 0.00012778029 -0.0062484061
-0.0065514995 0.00010583336 -0.0062493626
-0.0062701115 0.0001274903 -0.0067365048
-0.0062684002 0.0001279719 -0.0072721271
-0.0065515009 0.00010583334 -0.007272128
-0.0062711532 0.00012719717 -0.0037581827
-0.0062701106 0.0001274903 -0.0042462973
-0.0062557189 -0.00018142854 -0.0032699993
-0.0062557207 -0.00018142849 -0.0037591495
0.01011564 0.00022678572 -0.0017580849
0.010113025 0.00023478996 -0.002215845
0.0097587099 0.00022933399 -0.0022452339
0.010104545 0.00073705375 -0.0022398229
0.01011564 0.00022678572 -0.0012244682
0.010115639 0.00022678568 -0.00073531922
0.010115636 0.00022678566 -0.00033510639
-0.0065662898 -0.00018142855 0.0012657447
-0.0065662898 -0.00018142855 0.00073212758
-0.0077641909 0.0011792863 -0.00073531899
-0.0077641909 0.0011792865 -0.0012244685
-0.0096816104 0.0011201239 -0.0017542182
0.0087402659 0.0011679467 -0.00026840437
0.0063069123 7.6758239e-05 0.00261689
0.0065219207 7.2571427e-05 0.0025908935
-0.0057676858 0.0011792867 -0.0017580849
-0.0057676877 0.0011792865 -0.00073531887
-0.0052378927 0.0011810652 -0.0002566335
-0.0067437557 0.0011792864 -0.0007353191
-0.0067437557 0.0011792866 -0.0017580847
-0.0072761569 -0.00023812518 -0.00027952134
-0.0072782431 -0.00081215956 -0.00028540695
-0.0082522295 0.00077107153 -0.0022027662
-0.010090554 0.00064683228 -0.00073918607
0.0062557221 0.00013607139 -0.0067385137
0.0012422709 -0.00018142851 -0.0062493617
0.0015528385 -0.00013607145 -0.0067385109
0.0040373798 0.00013607144 -0.0077612763
0.0040373798 -0.00018142858 -0.007272128
0.0040373798 0.00013607144 -0.0072721271
0.0037268144 0.00013607147 -0.0072721289
0.0065599517 0.00011663266 -0.0072721271
0.0065662898 0.00013607139 -0.0082504237
0.0062557193 0.00013607139 -0.00825042
0.0065514999 -0.00016126985 -0.0082356026
0.0090508303 0.00013607142 -0.0047374484
0.0090482207 -0.00017876047 -0.0082635051
0.0065485402 -0.0001542143 -0.0077746166
0.0087994197 -0.00016846933 -0.0057580941
0.008797776 -0.00017134917 -0.0062493617
0.009028648 -0.00015875002 -0.0062493617
0.009028648 -0.00015875003 -0.0067385118
0.0087684542 0.00012273104 -0.006247269
-0.0087599829 0.00012599201 -0.0042482987
0.0022627076 0.00077107147 -0.0025140422
0.0027507422 0.0011792857 -0.0025140424
-0.0017746727 0.0011792864 -0.00073531887
-0.001774672 0.0011792866 -0.00024617044
-0.0012422709 0.0011792866 -0.0012244682
0.00026620086 0.0011792857 -0.0025140424
0.00026620089 0.0011792867 -0.0012244685
0.0012422709 0.00013607147 0.002244042
0.0012456842 -0.00017881184 0.0022354911
0.002262708 0.0011792865 -0.0017580849
0.0022627073 0.0011792862 -0.0007353191
0.0027507427 0.0011792865 -0.0022472346
0.0032387774 0.0011792856 -0.0025140424
0.0015528386 0.00013607144 -0.0062493617
0.0012422706 0.00013607147 -0.0057602096
-0.0087599838 0.00012599201 -0.0057602082
-0.0090508312 9.0714304e-05 -0.0062493617
-0.0087599857 0.00012599204 -0.0062493635
-0.0090508303 9.0714304e-05 -0.0072721271
-0.0090508303 -0.00018142854 -0.0072721271
-0.0090508312 -0.00018142855 -0.0067385118
-0.0087846303 -0.00018142854 -0.0037591485
-0.0090508303 -0.00018142856 -0.0047374466
-0.0037598221 0.00012845139 -0.0032696431
-0.0037268135 0.0011792867 -0.0017580851
-0.0062557193 -0.00018142854 -0.0052265977
-0.0052352841 0.00022678598 -0.00024617056
-0.0057629668 0.0011677057 -0.0002726618
-0.0057657831 0.00080606126 -0.00032557768
-0.0090508293 -0.00018142854 0.00073212758
0.0065485402 -0.00013607145 -0.0042482978
0.0040373798 0.00013607145 -0.0032700002
0.0044810479 0.00090714288 -0.0025140427
0.0036259787 0.0006597403 -0.0025140424
-0.0087402631 0.0011792862 -0.00073531899
-0.001242271 -0.00018142861 -0.0067385118
-0.0012422705 0.00013607138 -0.0062493654
0.0062683984 -0.0001749489 -0.0082504209
-0.0042592143 -0.0011792864 -0.002247235
-0.003504978 -0.0010885714 -0.0025140427
-0.0048004887 -0.0011067142 -0.0025140427
0.0040373798 -0.00018142858 -0.0082504265
-0.0065514999 0.00010583334 -0.0077612773
-0.0027507422 -0.0011792856 -0.0025140424
-0.0027507427 -0.0011792864 -0.0022472348
-0.0032387772 -0.0011792856 -0.0025140424
-0.0012422706 -0.0011792857 -0.0025140424
-0.0022627073 -0.0011792856 -0.0025140424
-0.0051465505 -0.00086178567 -0.0025140424
-0.0047345725 -0.00078403071 -0.0025140422
0.0065599517 0.00011663265 -0.0057602124
0.0040373798 0.00013607144 -0.0052265967
0.0040373798 0.00013607144 -0.004737447
0.0037268139 0.00013607145 -0.0052265953
0.0040373798 -0.00018142859 -0.0052265958
0.0040373798 -0.00018142858 -0.0057602129
0.0065622567 0.00012370129 -0.0042482968
0.0062557207 0.00013607139 -0.0042482973
0.0065662898 0.00013607141 -0.0037591485
0.0067437538 0.0011792864 -0.0022472341
0.0090341922 -0.00014174108 -0.0047263303
0.0087257428 -0.001162792 -0.00032944686
0.0082463985 -0.0011719561 -0.00026458642
0.008252224 -0.0011792864 -0.00073531887
0.0090482207 -0.00017876046 0.0012683605
0.0087984968 -0.0001700892 0.00073212734
-0.0092282929 -0.0011792866 -0.00024617033
-0.0087647745 0.00012613602 0.00072577503
-0.0082570883 0.00081394333 -0.00031500449
0.0097520892 -0.0002734969 -0.0022259974
-0.006267048 0.00012835102 -0.0077631734
-0.0065560509 0.00011164835 -0.0082606869
-0.0062557198 -0.00018142851 -0.0077612791
-0.0062557203 -0.00018142854 -0.0082504218
-0.0062557207 -0.00018142854 -0.0072721271
-0.0062701083 0.0001274903 -0.0052286
-0.0062557207 -0.00018142854 -0.0057602115
-0.0065662898 -0.00018142855 -0.0057602124
-0.0087529412 -0.00017494892 -0.0072721271
-0.0090508303 -0.00018142856 -0.0077612754
-0.0065647596 -0.00017830048 -0.0087334421
-0.0082522258 -0.0011792866 -0.0017580846
-0.0072761569 -0.0011792864 -0.0022472346
-0.0072761583 -0.00077107141 -0.0022472341
-0.0101093 -0.00071599486 -0.0017517324
0.0082522221 -0.0011792869 -0.0012244685
0.0087377625 -0.0011741754 -0.00073531887
0.0087306704 -0.001159672 -0.0017628922
-0.0037268142 -0.0011792867 -0.00024617033
-0.0065219211 -0.00013607142 0.0025997872
0.0088020582 -0.00016198974 0.0022186323
-0.0015528386 0.00011205883 0.0022048058
-0.0012626555 7.6003875e-05 0.0026442555
-0.0012480578 0.00013212734 0.0022350212
-0.001272627 -0.00015278195 0.0026512763
-0.0015528386 0.00012890977 0.0017548937
-0.0087698437 0.00012628848 0.0012657447
-0.0038155457 8.4666674e-05 0.0026205389
-0.0065551978 0.00011055805 0.0017632311
-0.0065662889 -0.00018142858 0.0017548937
-0.0015528386 0.00010205357 -0.0037647076
-0.0032387769 0.0011792864 -0.0012244683
0.0040373798 0.00013607144 0.00073212758
0.003726813 0.00013607148 0.00073212758
0.0037421871 -0.00017603963 0.00073168683
0.0032387774 -0.00081318873 -0.00028746214
0.0057676863 0.0011792863 -0.00073531899
0.0037268128 0.0011792864 -0.0022472348
0.006268397 -0.00017494892 0.0017548932
0.0015528386 0.00013607144 0.0017548937
0.0015528387 0.00013607144 0.0012657447
0.0015528385 -0.00013607142 0.0017548939
0.0012422707 0.00013607147 0.0012657444
0.0015528385 -0.00013607142 0.00073212758
0.0012422707 0.00013607147 0.00073212758
0.0037421884 -0.00017603961 0.0012670651
0.0037268118 -0.0011792866 -0.00024617044
0.0065574157 -0.00016328572 0.0012657447
0.0072761565 -0.0011679471 -0.00026840437
0.0067437552 -0.0011679471 -0.00026840449
0.0065536126 -0.0001619898 0.00073530385
0.0065643601 0.00013015527 0.000734061
0.0062557212 0.00013607139 0.00073212734
0.0077641937 0.00081642851 -0.00029063842
0.0077641923 0.0011792864 -0.00024617033
0.0012422702 0.00013607147 -0.0082504265
0.0012422709 0.00013607138 -0.0077612847
0.0015528386 0.00013607144 -0.0077612763
-0.0015528386 9.0714275e-05 -0.007272128
-0.0037268128 -0.00018142861 -0.0082504172
-0.0037398618 0.00012940126 -0.0082530389
-0.0037268125 -0.00018142854 -0.0077612782
-0.0037448001 0.00012830754 -0.0077628791
0.0015528385 -0.00013607142 -0.007272128
-0.0063444539 0.00054428569 -0.0025140427
-0.0057663568 0.00075776322 -0.0022333865
-0.0077623893 0.00022372107 -0.0022448304
-0.0084518781 9.0714275e-05 -0.0025140427
-0.0065515009 0.00010583335 -0.0032700002
-0.0077641956 -0.00027214296 -0.0022472334
-0.0050824648 0.00080634921 -0.0025140427
-0.0047503081 0.00076325127 -0.0025140422
-0.0065515009 0.00010583336 -0.0042482978
-0.0065662898 -0.00018142856 -0.0042482978
-0.0062557203 -0.00018142854 -0.0042482996
-0.0065662898 -0.00018142855 -0.0032699998
-0.0072761569 -0.00027214305 -0.0022472343
-0.008759982 0.00012599202 -0.0037591499
-0.0042669307 0.0011753425 -0.00027710455
-0.0042592133 0.0011792865 -0.00073531899
-0.0047472487 0.0011792862 -0.00073531899
-0.0022627071 0.00077107147 -0.0025140422
-0.0032387795 0.00081642863 -0.0002906383
-0.0037451596 0.00012822769 0.00073246192
-0.0027507413 0.00081642874 -0.00029063842
-0.0027507416 0.00022678595 -0.00024617033
-0.0012422706 0.00013607145 0.00073212734
-0.00093170302 4.5357134e-05 0.00077659567
0.0097467918 0.00023378131 -0.00025966566
0.0065662893 0.00013607139 -0.0032700012
0.0062557207 0.00013607139 -0.0032700025
0.0072761606 0.00022678595 -0.00024617033
0.0072761518 0.00081642839 -0.00029063853
0.0072761551 -0.00023812515 -0.00027952134
0.0077641918 -0.00023812513 -0.00027952134
0.0057676854 0.00077107141 -0.002247235
0.0050134496 0.00086178572 -0.0025140427
0.006255724 0.00013607139 -0.003759149
0.0097606974 0.00077107141 -0.0022472346
0.0097330753 0.0011296493 -0.0022405218
0.010106761 0.0007347858 -0.00073531922
0.010101624 0.00076390989 -0.00032808515
0.0082522305 -0.00081306888 -0.00029722624
-0.0082522249 0.0011792866 -0.0012244682
0.008776485 0.00012496351 0.0007303122
0.0057676877 0.0011792867 -0.00024617033
0.0072761565 0.0011792867 -0.00024617033
0.0067437519 0.0011792866 -0.00024617033
0.0065219211 -9.0714282e-05 0.0025553189
0.0067437529 0.0011792867 -0.0017580847
0.0067437524 0.0011792867 -0.0012244682
0.0072761574 0.0011792866 -0.0012244686
0.0097405296 0.0011298052 -0.0017580852
0.0077641872 0.00022678588 -0.00024617033
-0.0052352836 0.0011792866 -0.0017580845
-0.0052352841 0.0011792867 -0.001224468
-0.0052352818 0.0011792864 -0.00073531899
-0.0057676872 0.0011792867 -0.0012244681
0.0087402649 0.0011792862 -0.00073531887
0.0092282938 0.0011679471 -0.00026840437
0.0092282929 0.0011792864 -0.00073531887
0.0097252047 0.0011278806 -0.00026395754
0.0097405314 0.0011298049 -0.00073531899
0.0097405296 0.0011298051 -0.0012244681
0.0097607002 0.00081642839 -0.00029063842
0.0092282929 0.0011792867 -0.0017580839
0.0087365657 0.0011755064 -0.0022398231
0.0087402659 0.0011792864 -0.0017580849
0.0092282938 0.0011728068 -0.0022345295
-0.010081124 0.00062492065 -0.0012392908
0.0015528385 -0.00013607145 -0.0057602129
0.0012422709 -0.00018142862 -0.0057602101
0.0037268139 0.00013607139 -0.0077612856
0.0090508321 0.00013607141 -0.0042482978
0.0087801944 0.00012473212 -0.003755813
0.0090508303 0.00013607141 -0.0082504246
0.0088003734 -0.00016679717 -0.0067385081
0.0087984931 -0.00017008923 -0.0072721262
0.009028648 -0.00015875003 -0.007272128
0.0090440055 -0.00017445054 -0.0077818008
0.0090508303 0.00013607141 -0.0072721289
0.0090286471 -0.00015875 -0.0057602129
-0.0012422712 0.00013607145 0.0012657447
-0.0022627073 0.0011792862 -0.00073531875
-0.0017746723 0.0011792866 -0.0012244685
0.00026620089 0.0011792864 -0.0022472336
0.00075423578 0.0011792864 -0.0017580851
0.00093170302 0.00014255103 -0.0086760493
0.00093170302 0.00013607142 -0.0062197167
0.00093170302 0.00012959183 -0.005715745
0.0009317029 0.00013607142 -0.0077612763
-0.0012422707 -0.00018142854 -0.0077612828
-0.00026620083 0.0011792867 -0.0012244681
0.00075423566 0.0011792866 -0.0012244681
0.0012422708 0.0011792867 -0.0017580846
0.0012422712 0.0011792864 -0.0022472348
0.0017746725 0.0011792866 -0.0017580847
0.0022627078 0.0011792865 -0.0012244682
0.0017746715 0.0011792866 -0.0012244686
0.0017746717 0.0011792864 -0.00073531899
-0.0015528386 0.00010205357 -0.0062382454
-0.0037498176 0.00012515207 -0.0062518325
-0.0040578572 0.00011513737 -0.0062425202
0.0037268128 0.00013607145 -0.0067385146
0.0040373798 0.00013607144 -0.0067385109
0.0015528387 0.00013607144 -0.0072721262
-0.00026620086 0.00077107153 -0.0025140422
-0.0090495627 8.812247e-05 -0.0057665659
-0.0090508303 -0.00018142855 -0.0057602143
-0.0090508312 9.0714297e-05 -0.0077612763
-0.0087599847 0.00012599202 -0.0077612745
-0.0090508312 9.0714289e-05 -0.0067385118
0.00093170273 0.00012246429 0.00073212758
-0.00026620098 0.00022678598 -0.00024617044
0.00093170285 0.00013607142 0.0012657447
0.00026620086 0.00022678595 -0.00024617044
-0.0009317029 -0.00013607142 0.0012746381
-0.0012422712 -0.00018142862 0.0012657447
-0.001242271 -0.00018142854 0.0017548932
0.0027507418 -0.00023812515 -0.00027952134
-0.0087575801 -0.00017589716 -0.0042493809
-0.0090495627 8.812247e-05 -0.0052278661
-0.0090508312 -0.00018142858 -0.0062493607
-0.0087529384 -0.0001749489 -0.0062493617
-0.002750742 -0.00077107147 -0.0025140422
-0.0042592133 0.0011792867 -0.0017580849
-0.0032387779 0.00077107147 -0.0025140422
-0.0040560612 -0.00016710527 -0.0037638294
-0.0040462534 -0.00017235716 -0.0032788939
-0.0037268144 -0.00018142862 -0.0042483006
-0.0040622256 -0.00016328572 -0.0042536343
-0.0037268142 -0.00018142862 -0.0032700002
-0.0027507425 -0.00027214282 -0.0025140422
-0.0032387774 -0.00077107141 -0.0025140422
-0.0042887912 -0.00068791659 -0.0025140422
-0.004050056 -0.00016846941 -0.006736394
-0.0040521687 -0.00016630955 -0.0062444201
-0.0062718545 0.00012699996 -0.0057602101
-0.0040373798 0.00013607144 0.00073212758
-0.0047472483 0.00022678591 -0.00024617033
-0.0047472501 0.00081642857 -0.00029063842
-0.003743368 0.00012862473 0.0012657442
-0.0037268128 -0.00018142861 0.00073212711
-0.0087402659 -0.0011792864 -0.00024617033
-0.0090508303 -0.00018142854 0.0012657447
-0.0090508312 9.0714304e-05 0.00073212758
0.0037545429 -0.00017575891 -0.0052265949
0.0037545417 -0.00017575886 -0.0047374489
0.0040373798 -0.00018142858 -0.00673851
0.0037545431 -0.00017575891 -0.0067385109
0.0047028819 0.0010885714 -0.0025140427
0.0040373798 0.00013607144 -0.0037591495
0.0062557198 0.00013607139 -0.0047374466
0.006268397 -0.00017494892 -0.0042482959
0.0037545417 -0.00017575886 -0.0037591485
0.0032387769 -0.0011792857 -0.0025140424
0.003504978 -0.0010885714 -0.0025140427
0.003754541 -0.00017575892 -0.0032700012
0.0090508321 0.00013607139 -0.0057602129
0.0090508303 0.00013607141 -0.0062493617
0.0090508303 0.00013607142 -0.0032699993
0.0090508303 0.00013607139 -0.00673851
0.0087658623 0.00012473211 -0.0072687054
0.0027507422 -0.0011792856 -0.0025140424
0.0012474298 -0.00017826405 -0.0087323384
0.00026620092 -0.00077107147 -0.0025140422
0.00026620086 -0.0011792856 -0.0025140424
0.00075423584 -0.0011792856 -0.0025140424
-0.0012422712 -0.00018142862 -0.0082504218
-0.0012422707 -0.00018142854 -0.0087395813
-0.0012422709 0.00013607147 -0.0082504256
-0.00026620086 -0.00077107153 -0.0025140422
-0.00026620086 -0.00027214282 -0.0025140422
0.00026620086 -0.00027214285 -0.0025140422
-0.0012422713 -0.00018142854 -0.0062493617
-0.001242271 -0.00018142861 -0.0057602087
-0.0015528386 -0.00018142859 -0.0057602129
0.0037268135 -0.0011792866 -0.0022472339
0.0042551798 -0.0011772247 -0.0022431917
0.0062683974 -0.0001749489 -0.0077612763
0.0087957215 -0.00016063984 -0.00871919
0.0087599838 0.00012599202 -0.0082504228
0.0087977741 -0.00017134917 -0.0037591485
0.0072761551 -0.0011792865 -0.00073531887
-0.0072761583 -0.0011792867 -0.0017580845
-0.0057676849 -0.0011792867 -0.0017580851
-0.0067437547 -0.0011792865 -0.0022472341
-0.003238776 -0.0011792862 -0.0022472339
-0.0037268144 -0.0011792864 -0.0022472341
-0.0037268146 -0.0011792867 -0.0017580849
-0.0052352822 -0.0011792864 -0.002247235
0.0040373798 -0.00018142858 -0.0077612763
-0.0037268146 -0.00018142862 -0.0072721299
-0.0065662893 -0.00018142856 -0.0077612763
-0.0062557203 -0.00018142854 -0.0067385063
-0.0065662898 -0.00018142855 -0.0067385118
-0.0040607313 -0.00017187973 -0.0086974474
-0.0040373798 -0.00018142856 -0.0090063829
-0.0040656142 -0.00016493507 -0.0077693621
-0.0046387967 -0.00035277774 -0.0025140427
-0.0077641932 -0.00077107159 -0.0022472334
0.0040373798 0.00013607145 -0.0057602129
0.0040373798 -0.00018142859 -0.0062493617
0.0087994197 -0.00016846934 0.0012622152
-0.0077641923 -0.0011792866 -0.00024617033
-0.0072761574 -0.0011792865 -0.00073531899
-0.0077641942 -0.0011792862 -0.00073531899
0.0027507416 -0.0011792867 -0.00024617033
0.001774672 -0.0011792866 -0.00024617044
0.0017746722 -0.0011792867 -0.0012244681
-0.0077641956 -0.00023812504 -0.00027952134
0.0047472478 -0.0008131889 -0.00028746203
0.0052352822 -0.00023812518 -0.00027952145
0.0052309567 -0.00081310957 -0.00029280747
0.0047472487 -0.00023812507 -0.00027952145
0.0059895194 -3.6379788e-12 0.00021333317
0.0052352836 0.00022678598 -0.00024617033
-0.0062683979 0.0001279719 -0.0082496265
-0.0065515004 0.00010583334 -0.0057602134
-0.0087529412 -0.0001749489 -0.0067385109
-0.0087572262 -0.00017342431 -0.0077612745
-0.0087402649 -0.0011792862 -0.0007353191
0.0087334383 -0.0011653301 -0.0012130662
-0.0042592143 -0.0011792867 -0.00024617033
-0.0015528386 -0.00018142858 0.0021995746
-0.001242271 -0.00018142862 0.002244042
-0.0065607433 -0.00017859372 0.0022190295
0.0017746715 -0.0011792864 -0.0022472357
0.001774672 -0.0011792867 -0.0017580847
0.00026620086 -0.0011792865 -0.0022472341
0.0022627076 -0.0011792856 -0.0025140424
0.0017746724 -0.0011792856 -0.0025140424
0.0012422707 -0.0011792857 -0.0025140424
-0.0072761565 -0.0011792869 -0.001224468
-0.0067437538 -0.0011792867 -0.00024617033
0.0017746718 -0.0011792864 -0.00073531899
-0.0087719541 0.000126352 0.0017580702
-0.0015528386 0.00010885714 -0.0042482978
-0.0015528386 -0.00018142858 -0.0042482982
-0.0012422705 0.00013607147 -0.0042483024
-0.0022627071 -0.00077107141 -0.0025140422
-0.0037268135 0.0011792864 -0.00073531922
0.0015528387 0.00013607144 -0.005760212
0.0027507427 0.00077107153 -0.0025140422
0.0032387781 0.00077107147 -0.0025140422
0.0012422709 -0.00018142851 -0.0037591499
0.00093170285 0.00013607142 -0.0052265953
-0.0012422707 0.00013607139 -0.0047374498
0.0047472478 0.00022678587 -0.00024617021
0.0040373798 -0.00018142858 0.00073212758
0.0062557203 0.0011792864 -0.00073531899
0.0015528386 0.00012890977 0.0021902125
0.0009317029 0.00013607142 0.0017548937
0.001242271 0.00013607139 0.0017548932
0.0012422709 -0.00018142862 0.00073212758
0.001242271 -0.00018142862 0.0012657444
0.006268397 -0.00017494892 0.0012657444
-0.0012499205 0.00013372531 -0.0087342169
-0.0012721922 8.4385392e-05 -0.0090891123
-0.0012538445 -0.00016565213 -0.0091030495
-0.0040615806 0.00011270564 -0.00727617
-0.0040627331 0.00011015307 -0.0077676289
-0.0012422707 0.00013607139 -0.0077612801
-0.0015528386 9.0714282e-05 -0.0082504256
-0.0072746701 0.00076346128 -0.0022102275
-0.0072761592 0.0011792866 -0.0017580845
-0.0084740613 -0.00013607142 -0.0025140427
-0.0062718545 0.00012699996 -0.0032716175
-0.0059205047 0.00010079364 -0.0025140427
-0.0040578572 0.00011513738 -0.0037659896
-0.0065514999 0.00010583334 -0.003759149
-0.0064331875 -0.00054428569 -0.0025140427
-0.0065662889 -0.00018142856 -0.003759149
-0.00026620098 0.00081642863 -0.00031287223
0.00026620089 0.00081642863 -0.00031287246
-0.0015528386 0.00011663265 -0.0032636477
-0.0022627073 0.00022678569 -0.0025140422
-0.0027507413 -0.00023812511 -0.00027952145
-0.0027507404 -0.00081318867 -0.00028746214
-0.0015528386 -0.00018142858 0.00073212758
0.0077641923 0.00077107153 -0.0022472343
0.0072761555 0.00077107159 -0.0022472322
0.007276156 0.00022678587 -0.0022472341
0.0065480187 -0.0001387395 -0.0037748436
0.0077655171 -0.00081304385 -0.00029860286
0.010106766 0.00073478569 -0.0017580852
-0.0062557207 -0.00018142854 0.0012657447
0.0082522286 0.0008164288 -0.00029063842
0.0062557203 0.0011792864 -0.00024617044
0.006270688 -0.00017487085 0.0022413644
0.0072761574 0.0011792864 -0.0022472346
0.0077641918 0.0011792863 -0.0022472341
0.0087748906 0.00012279613 -0.0047374461
0.0072761588 0.0011792863 -0.00073531887
0.008740264 0.0011792864 -0.0012244681
0.0082522258 0.0011792867 -0.0012244685
0.0082522249 0.0011792864 -0.00073531922
0.0082522258 0.0011792867 -0.0017580852
-0.0062557179 0.0011792865 -0.0012244681
0.0082522267 0.0011792864 -0.0022472346
0.0082522295 0.00077107153 -0.0022472339
0.0015528385 -0.00013607144 -0.0062493626
0.008796731 -0.00017318176 -0.0082504256
0.0087967301 -0.00017318178 -0.0077612782
0.0090508312 0.00013607142 -0.0077612763
-0.00093170302 -0.00013607144 0.00075436174
0.00026620086 -0.00023812511 -0.00027952145
-0.00026620089 -0.00023812511 -0.00027952122
0.00093170302 -9.0714275e-05 0.00072323391
-0.0015528386 0.00010885714 0.0012657447
0.00075423566 0.0011792856 -0.0025140424
-0.00075423572 0.0011792862 -0.0007353191
-0.00026620086 0.0011792867 -0.00024617044
0.0012422709 0.0011792867 -0.0012244681
-0.0015528386 0.00011663265 -0.0052244784
-0.0015528386 0.00011663265 -0.0057411543
0.0015528387 0.00013607144 -0.00673851
0.0012422708 0.00013607145 -0.0072721289
-0.00075423572 0.00077107147 -0.0025140422
0.00026620086 0.00077107153 -0.0025140422
-0.0087529402 -0.00017494892 -0.0057602115
-0.0087599847 0.00012599202 -0.0072721262
-0.0012422706 0.00013607139 0.0017548942
0.00093170302 -9.0714282e-05 0.0020217022
-0.0090508293 -0.00018142855 -0.0052265953
-0.0015528386 -0.00018142858 -0.003759149
-0.0017746724 -0.0011792856 -0.0025140424
-0.0042592143 0.0011792867 -0.0012244685
-0.0042592143 0.0011723081 -0.0022198695
-0.0037268135 -0.00018142862 -0.0057602129
-0.0040566702 -0.00016565221 -0.0057466794
-0.0037493377 0.00012560436 -0.0052259145
-0.0040578577 0.00011513738 -0.004737447
-0.0040634787 0.00010939076 -0.0052239811
-0.0059895194 -4.5474735e-12 6.51062e-05
-0.0059895194 -0.00018142856 6.51062e-05
-0.0052352818 0.00080191449 -0.00030842551
-0.0032387772 -0.00081318885 -0.00028746226
-0.0087675685 -0.00017561349 0.00072756666
0.0037545415 -0.00017575891 -0.0057602115
0.0015528385 -0.00013607142 -0.0052265958
0.0040373798 0.00013607144 -0.0042482987
0.0040373798 -0.00018142858 -0.0042482978
0.0040373798 -0.00018142858 -0.0037591495
0.004697952 -0.00028726191 -0.0025140424
0.0047472487 -0.0011728065 -0.002234529
0.0037545415 -0.00017575891 -0.0042482987
0.0040373798 -0.00018142858 -0.004737447
0.0037268135 0.00013607147 -0.0032699984
0.0037268128 0.00013607139 -0.0047374475
0.0087641571 0.00012037083 -0.0067385128
0.0037545422 -0.00017575891 -0.007272128
-0.00026620086 -0.0011792857 -0.0025140424
-0.0015528386 -0.00018142858 -0.0082504246
-0.0017746729 -0.0011792864 -0.0022472341
-0.0015528386 -0.00018142858 -0.0062493626
0.0062683979 -0.00017494892 -0.0052265953
0.0077641909 -0.0011792863 -0.00073531899
0.0072761574 -0.0011792866 -0.0012244681
-0.0077641923 -0.0011792866 -0.0017580853
-0.0057676872 -0.0011792864 -0.0022472341
-0.0065662903 -0.00018142854 -0.0072721271
-0.0065662898 -0.00018142855 -0.0082504256
-0.0065662889 -0.00018142858 -0.0062493617
-0.0037544374 0.00012922504 -0.0087295137
-0.003745521 -0.00018033556 -0.0087299347
-0.0040535135 -0.00016493507 -0.0072802128
-0.0087745758 -0.00017779993 -0.0032575494
-0.0082522323 -0.00077107135 -0.0022472341
0.0037268135 0.00013607145 -0.005760205
0.0040373798 0.00013607144 -0.0062493617
0.0090508312 0.00013607141 0.00073212758
-0.0082522249 -0.0011792864 -0.00024617044
-0.0082522277 -0.00081017247 -0.00028143812
-0.0072761574 -0.0011792866 -0.00024617033
0.0032387774 -0.0011792864 -0.00024617044
0.0022627078 -0.0011792864 -0.00024617044
-0.0077611655 0.00022163164 -0.00025021273
-0.0072761527 0.00022678597 -0.00024617033
-0.0072708623 0.00079747348 -0.00033709756
0.0052352832 0.00081642863 -0.00029063853
-0.0082522258 -0.0011792865 -0.00073531887
-0.0047472483 -0.0011792866 -0.001758085
-0.0052352822 -0.0011792867 -0.0012244687
-0.0057676844 -0.0011792867 -0.00024617033
-0.0037268132 -0.00018142851 0.0017548944
-0.0037398613 -0.00018142858 0.0022335795
-0.0015528386 -0.00018142858 0.0017548935
-0.0037669528 -0.00015982996 0.0025807286
-0.0087865051 -0.00018015083 0.0022409109
0.00026620104 -0.00081293954 -0.00030432094
0.00026620089 -0.0011792866 -0.00024617033
-0.00026620098 -0.00081293972 -0.00030432083
-0.00026620086 -0.0011792867 -0.00024617009
0.0012422709 -0.0011792864 -0.00024617033
0.001242271 -0.0011792866 -0.0012244681
0.0012422709 -0.0011792864 -0.0022472336
-0.0077641923 -0.0011792864 -0.001224468
0.00026620089 -0.0011792867 -0.0017580846
-0.00026620089 -0.0011792867 -0.0017580849
0.00075423578 -0.0011792864 -0.0017580845
0.0007542356 -0.0011792864 -0.0012244681
-0.0037268142 -0.0011792867 -0.0012244685
-0.0032387781 -0.0011792865 -0.001758085
-0.0022627078 -0.0011792864 -0.0017580849
-0.0017746722 -0.0011792867 -0.0017580849
0.0022627071 -0.0011792862 -0.00073531887
-0.00075423566 -0.0011792864 -0.0012244685
-0.00075423566 -0.0011792864 -0.0017580849
-0.00026620083 -0.0011792864 -0.0012244685
-0.00026620083 -0.0011792864 -0.00073531887
-0.00075423566 -0.0011792862 -0.0007353191
0.0046204864 0.00018142855 -0.0025140427
-0.0037268123 0.0011679471 -0.00026840437
-0.0022627076 0.0011792866 -0.00024617033
-0.0027507416 0.0011792864 -0.00073531899
0.0015528387 0.00013607144 -0.0052265958
0.0015528385 -0.00013607145 0.0012657447
0.00093170302 -9.0714282e-05 0.0012212766
0.0062683993 -0.0001749489 0.00073212734
0.0057676872 -0.00081293972 -0.00030432094
-0.0015528386 9.0714297e-05 -0.0077612773
-0.0015528385 -0.00018142858 -0.008695106
-0.0015528385 9.0714289e-05 -0.008695106
-0.0040595634 -0.00016630955 -0.0082541313
-0.0040595634 0.00011339287 -0.0082559846
-0.0072761583 0.00022678584 -0.0022472343
-0.0046585156 0.00036285716 -0.0025140424
-0.0022627076 -0.00023812508 -0.00027952122
0.00776419 0.00022678579 -0.0022472343
0.0082502114 -0.00076591712 -0.0022431901
0.00776419 -0.00077107159 -0.0022472336
0.0063381158 -0.00012959183 0.0026188449
0.0067437543 0.0011792864 -0.00073531887
0.0092282938 0.0011792867 -0.0012244681
0.0077641918 0.0011792862 -0.00073531875
0.008252224 0.0011679472 -0.00026840449
0.0077641937 0.0011792864 -0.0017580849
0.010106764 0.00073478569 -0.0012244683
-0.0062557184 0.0011792862 -0.0007353191
0.0012422708 -0.00018142862 -0.0032700002
0.0015528385 -0.00013607142 -0.003759149
0.0015528387 0.00013607144 -0.0032700002
0.0087705385 0.00012806719 -0.0077633737
-0.0015528386 0.00011663266 0.00073424517
-0.0022627078 0.00081642851 -0.00029063853
-0.0022627071 0.00022678588 -0.00024617033
0.00075423572 0.0011792862 -0.0022472339
0.00026620083 0.0011792865 -0.00073531899
-0.0012422709 -0.00018142854 -0.0047374456
-0.001242271 -0.00018142862 -0.004248301
-0.0015528386 -0.00018142858 -0.004737447
-0.0015528386 -0.00018142858 -0.0052265958
-0.00026620086 0.00022678569 -0.0025140422
0.00026620092 0.00022678569 -0.0025140422
-0.0087599857 0.00012599201 -0.00673851
-0.00093170302 -0.00013607142 0.0020661701
0.0012422713 -0.00018142854 0.0017548937
-0.0037268128 -0.00018142851 -0.0037591485
-0.001242271 -0.00018142854 -0.0037591499
-0.0012422709 -0.00018142862 -0.0032700002
-0.0047472483 0.0011792864 -0.0012244685
-0.0037268132 0.0011792866 -0.0012244682
-0.0047472469 0.0011792864 -0.0017580851
-0.0037268123 -0.00018142854 -0.0062493626
-0.0040634782 0.00010939077 -0.0042509139
-0.0037488278 0.00012810795 -0.0042493176
-0.0040595634 0.00011339287 -0.0057546543
-0.0040646829 -0.00016398354 -0.0052265963
-0.0037268135 -0.00018142862 -0.0052265972
-0.0077641942 -0.00081017241 -0.00028143812
0.0015528385 -0.00013607142 -0.0042482978
0.0051655648 -0.00071275502 -0.0025140424
0.0052352822 -0.0011728066 -0.0022345288
0.0057676872 -0.0011728066 -0.0022345295
0.0040373798 -0.00018142858 -0.0032699998
0.0037268142 0.00013607141 -0.0037591495
0.002750742 -0.00027214282 -0.0025140422
0.0015528385 -0.00013607142 -0.004737447
0.0015528386 0.00013607144 -0.004737447
-0.00075423566 -0.0011792857 -0.0025140424
-0.0015528386 -0.00018142858 -0.0077612763
-0.0012422709 -0.0011792865 -0.0022472341
0.006268396 -0.00017494892 -0.0032699998
0.0065499409 -0.0001289098 -0.0032817023
0.0067437552 -0.0011728066 -0.0022345299
0.0072733467 -0.0011723966 -0.002222467
0.0077641918 -0.0011792864 -0.0017580854
0.0077673979 -0.0011716358 -0.00026277883
0.0067437533 -0.0011792866 -0.0017580849
0.0062557198 -0.0011728064 -0.0022345297
-0.0062581184 -0.00018020264 -0.0087371739
-0.0051909168 -0.0010885714 -0.0025140427
-0.0087602269 -0.00017235707 -0.0082481997
0.0037268132 0.00013607138 -0.0062493626
0.0032387769 -0.0011792863 -0.00073531899
-0.0077609657 0.00079746096 -0.00034238305
0.0057676858 0.00081642857 -0.00029063853
-0.0052352827 -0.0011792866 -0.0017580846
-0.0047472492 -0.0011792863 -0.0022472341
-0.0062557207 -0.00018142852 0.0017548937
-0.0047472483 -0.00081318867 -0.00028746214
-0.0057676882 -0.0011792867 -0.0012244685
-0.0067437529 -0.0011792866 -0.0012244686
-0.0052352818 -0.0011792865 -0.00073531887
-0.0062557212 -0.0011792864 -0.0017580849
-0.0015528386 -0.00018142859 0.0012657447
-0.0052352818 -0.0011792866 -0.00024617033
-0.0062557212 -0.0011792864 -0.00024617033
-0.0062618419 -0.00018142851 0.0022363758
0.00075423578 -0.0011792864 -0.00024617021
0.00075423572 -0.0011792862 -0.00073531899
0.0012422709 -0.0011792864 -0.00073531899
0.00075423555 -0.0011792862 -0.0022472341
-0.0027507416 -0.0011792867 -0.0017580852
-0.0017746724 -0.0011792867 -0.00024617033
-0.0027507422 -0.0011792867 -0.0012244679
-0.0027507416 -0.0011792866 -0.00024617044
-0.0012422709 -0.0011792866 -0.00024617033
-0.0067437524 -0.0011792866 -0.0017580847
-0.0067437538 -0.0011792864 -0.00073531899
0.001242271 -0.0011792867 -0.0017580843
-0.0032387783 -0.0011792864 -0.0012244683
-0.0042592133 -0.0011792864 -0.00073531899
-0.0042592143 -0.0011792867 -0.0012244685
-0.0022627073 -0.0011792863 -0.002247235
0.0022627085 -0.0011792865 -0.0012244682
0.0027507411 -0.0011792866 -0.0017580844
0.0027507411 -0.0011792866 -0.0012244682
0.0022627083 -0.0011792864 -0.001758085
-0.0017746718 -0.0011792866 -0.001224468
0.00026620089 -0.0011792864 -0.0007353191
0.0047659292 0.00086417305 -0.0025140424
-0.0032387767 0.0011792864 -0.00024617044
-0.0032387762 0.0011792862 -0.00073531887
0.0012422702 0.00013607147 -0.0052265991
-0.0037916561 -0.00015700552 -0.0090542724
-0.0038048374 7.1945818e-05 -0.0090738535
-0.0040467205 0.00010981203 -0.0086974474
-0.0065219211 0.00054428569 -0.0025140427
-0.0015528386 -0.00018142858 -0.0032700002
0.0077641923 -0.00027214293 -0.0022472353
0.0072761569 -0.00027214305 -0.0022472348
0.0072775893 -0.00081350247 -0.000304983
0.0077641932 0.0011792863 -0.0012244681
0.0072761592 0.0011792867 -0.0017580845
0.00075423584 -0.00077107147 -0.0025140422
0.0027507416 -0.00077107159 -0.0025140422
-0.00026620083 0.0011792864 -0.00073531887
0.00075423572 0.001179286 -0.00073531887
-0.001242271 -0.00018142862 -0.0052266009
-0.00093170302 -0.00013607142 0.0017548935
0.00093170302 0.00013607144 -0.0038036169
-0.0027507422 0.00022678569 -0.0025140422
-0.0037268135 -0.00018142861 -0.00673851
-0.0037483859 0.0001265006 -0.0047374475
-0.0037268132 -0.00018142851 -0.0047374475
-0.0037493384 0.00012560436 -0.0057602096
-0.0040595639 -0.00016782145 -0.0047418936
0.0047472478 -0.00070993794 -0.0025140422
0.0037268123 0.00013607148 -0.0042482968
0.001242271 -0.00018142862 -0.0052265991
0.001242271 -0.00018142854 -0.0047374456
0.0009317029 0.00013607142 -0.004737447
0.00093170285 0.00013607142 -0.0042482978
-0.00075423589 -0.00077107141 -0.0025140422
-0.00075423595 -0.0011792862 -0.0022472339
0.0062683979 -0.00017494892 -0.0037591495
0.0063444539 -0.00054428569 -0.0025140427
0.0072761537 -0.00077107153 -0.0022472341
0.0052352808 -0.0011679471 -0.00026840437
0.0047472478 -0.001167947 -0.00026840437
0.0047472483 -0.0011792862 -0.00073531899
0.0052352822 -0.0011792864 -0.00073531899
0.0052352818 -0.0011792867 -0.0012244681
0.0072761555 -0.0011792869 -0.0017580846
0.007761281 -0.0011777986 -0.0022064112
-0.0062557212 -0.00018142851 -0.0062493617
-0.0062557212 -0.0011792862 -0.0022472341
0.0037545413 -0.00017575888 -0.0062493635
0.0027507422 -0.0011792864 -0.0022472346
0.0032387762 -0.0011792866 -0.0017580849
0.0027507425 -0.0011792865 -0.00073531899
0.0032387769 -0.0011792865 -0.0012244685
0.0037268135 -0.0011792864 -0.00073531934
-0.0047472483 -0.0011792864 -0.00024617033
-0.0052352836 -0.00081318885 -0.00028746226
-0.0063164332 -0.00012413535 0.0026302126
-0.0022627078 -0.00081318885 -0.00028746214
-0.0022627073 -0.0011792864 -0.00024617033
-0.0012422708 -0.0011792867 -0.0012244679
-0.0062557235 -0.0011792864 -0.0012244685
-0.0062557207 -0.0011792862 -0.00073531887
0.00026620083 -0.0011792867 -0.0012244681
-0.003238776 -0.0011792862 -0.0007353191
-0.0037268128 -0.0011792864 -0.00073531887
-0.0042592143 -0.0011792866 -0.0017580847
-0.0047472487 -0.0011792864 -0.0012244683
-0.0047472487 -0.0011792862 -0.00073531899
-0.0027507409 0.0011792866 -0.00024617033
-0.0022627069 -0.00027214285 -0.0025140422
-0.0012422715 -0.00018142861 0.00073212758
0.0087730968 0.00012609283 -0.0032646623
0.0077641918 -0.0011792865 -0.0012244685
0.0015528385 -0.00013607142 -0.0032699998
0.0015528386 0.00013607144 -0.003759149
0.0009317029 0.00013607142 -0.0032255319
