# .PCD v0.7 - Point Cloud Data file format
VERSION 0.7
FIELDS x y z
SIZE 4 4 4
TYPE F F F
COUNT 1 1 1
WIDTH 1220
HEIGHT 1
VIEWPOINT 0 0 0 1 0 0 0
POINTS 1220
DATA ascii
-0.014662065 -0.006248395 -0.00021619536
-0.015198233 -0.0062490469 -0.00021638535
-0.015198807 -0.0057131466 -0.0002164375
-0.023244549 -0.0017856685 -0.0037910314
-0.024317184 -0.0017856575 -0.0032547209
-0.023243995 -0.0032137609 -0.003790644
-0.02270853 -0.0028566483 -0.0037898114
-0.021277513 -0.0023207283 -0.0062915739
-0.02127799 -0.0017847226 -0.0062922202
-0.02181468 -0.0023204598 -0.0045057405
-0.021277292 0.0037496013 -0.016298953
-0.021217462 0.0036899832 -0.015763197
-0.02127702 0.0032136964 -0.017192408
-0.021277549 0.0032138515 -0.015226319
-0.021277396 0.0037496015 -0.015226885
-0.0168077 0.01428213 -0.004505326
-0.017165445 0.01481773 -0.0037905211
-0.016807679 0.015710967 -0.0037904344
-0.015735138 0.015354472 -0.0045055049
-0.018773973 0.015711389 -0.0032539777
-0.019311201 0.015710574 -0.0032548215
-0.018774342 0.015353231 -0.0032541379
-0.017164527 0.013211201 -0.0062918896
-0.021278255 0.0028567608 -0.0087941037
-0.021278024 0.0017851169 -0.008794073
-0.021217609 0.003213845 -0.0096274801
-0.021170551 0.0037135636 -0.0096521983
-0.021277897 0.002856862 -0.01022282
-0.021277864 0.0023203704 -0.01022302
-0.021277726 0.0042842813 -0.010759319
-0.021277895 0.0037487654 -0.012189588
-0.021217544 0.0042854194 -0.012130102
-0.021278162 0.0037487103 -0.010759232
-0.021099441 0.0053555435 -0.012189146
-0.021098312 0.0042846319 -0.012725712
-0.021099037 0.0037493948 -0.012725273
-0.021099186 0.0046421452 -0.011295948
-0.021099474 0.0042846976 -0.011296006
-0.021098252 0.0042843404 -0.011652457
-0.021099087 0.0048204008 -0.0077214967
-0.021277312 0.0017857059 -0.0091516767
-0.021277742 0.00071423914 -0.011295414
-0.014304148 0.01624636 -0.0062928107
-0.013708222 0.016782241 -0.0072454261
-0.013589446 0.017139621 -0.0057560215
-0.01358864 0.017139146 -0.0062926468
-0.014661632 0.016067594 -0.005756204
-0.018774178 0.010712378 -0.0071862331
-0.018774839 0.010711577 -0.0062927762
-0.018774277 0.01035473 -0.0066489549
-0.018237919 0.011782719 -0.0057566697
-0.007688744 0.0067839404 -0.00021685101
-0.016271355 -0.014281961 -0.012188795
0.0037554952 -0.021245332 -0.022732275
0.0051261284 -0.021066368 -0.02225513
0.0037549296 -0.021244766 -0.022196244
0.0046491106 -0.021066599 -0.0221956
0.0076293005 -0.020352289 -0.020826412
0.0060795369 -0.020710301 -0.020230487
0.0032178275 -0.021245169 -0.022195477
0.0042919233 -0.021066206 -0.023804806
0.0046485486 -0.021066846 -0.023267763
0.0042914636 -0.021066813 -0.012724835
0.006258274 -0.020709425 -0.0077212108
0.0062579056 -0.02071044 -0.0071859807
0.012516499 -0.017852878 -0.014869627
0.0076887119 -0.02035266 -0.0087942788
0.0071526398 -0.020710448 -0.0091519421
0.0067947153 -0.020709526 -0.0077214045
0.0092972238 -0.019638874 -0.0095087504
0.0087257354 -0.01971012 -0.0096520036
0.0087018022 -0.019757906 -0.0091515249
0.0067939311 -0.020709181 -0.012010095
0.0071520922 -0.020709703 -0.010580936
0.0057213008 -0.021067427 -0.010580939
0.0067947092 -0.020709597 -0.01058061
0.0092981383 -0.019638874 -0.010223675
0.010191513 -0.019280944 -0.0091512846
0.0062576546 -0.020710453 -0.023268001
0.0062581697 -0.020709973 -0.022731861
0.0075103748 -0.020352872 -0.023089705
0.0092977164 -0.019638119 -0.024161808
0.010012666 -0.019281713 -0.024161186
0.011264757 -0.018567467 -0.024161085
0.011264239 -0.018567909 -0.023804802
0.012516214 -0.017853444 -0.024161125
0.010013176 -0.019281019 -0.023268901
0.011264546 -0.018567499 -0.022731999
0.011801151 -0.018210709 -0.025769545
0.011801681 -0.018210514 -0.025234416
0.012516355 -0.017853316 -0.025234398
0.013589155 -0.017139113 -0.0241623
0.013708798 -0.016782612 -0.024638457
0.012695019 -0.01731747 -0.026305424
0.00822464 -0.019817233 -0.025233742
0.011800556 -0.018210717 -0.019157752
0.012158595 -0.017853364 -0.018801264
0.011086175 -0.018567221 -0.018800518
0.01108586 -0.018566957 -0.019157924
-0.0026815622 -0.015353414 -0.00021631084
-0.0021451146 -0.015711175 -0.00021666475
-0.0021457293 -0.024816388 -0.0016456507
-0.0017877477 -0.023744427 -0.00021680817
-0.0021450003 -0.024815511 -0.0012883712
-0.0012517547 -0.02178086 -0.0046844147
-0.016807964 -0.013687938 -0.0072450219
-0.015198528 -0.015353448 -0.0062919352
-0.015734805 -0.014818787 -0.0062924298
-0.01519772 -0.015354407 -0.0066497531
-0.015734227 -0.014817562 -0.0077210749
-0.015734201 -0.014758981 -0.008317383
-0.015735026 -0.014818126 -0.0071854349
-0.02074182 -0.0057126679 -0.02469787
-0.021278298 -0.0023213942 -0.029701637
-0.020205019 0.0073204171 -0.026305841
-0.020205261 0.007320263 -0.026663637
-0.020026647 0.0078550782 -0.026663531
-0.020026457 0.0082123885 -0.025233326
-0.02020498 0.0073198988 -0.024697321
-0.021170856 -0.0037129261 -0.017157238
-0.021277076 -0.0037492395 -0.016656373
-0.021218605 -0.0036901217 -0.016298808
-0.021277672 -0.0032141414 -0.01576319
-0.021277649 -0.0028565682 -0.01629933
-0.021277338 -0.0032134845 -0.016298681
-0.021278186 -0.0032131004 -0.016656844
-0.017675797 -0.012292835 -0.028297041
-0.016807657 -0.011783124 -0.038099747
-0.017701041 -0.010711414 -0.038099743
-0.017701128 -0.011246957 -0.038100343
-0.015198097 -0.0062492867 -0.038099986
-0.015734892 -0.0062483349 -0.038100526
-0.015198256 -0.0057132822 -0.038100485
-0.021813992 -0.0042843893 -0.037743039
-0.021813907 -0.0037488912 -0.037742138
-0.021278257 -0.0042851935 -0.03273923
-0.022171864 -0.0037497096 -0.037742689
-0.021218043 -0.0061887139 -0.033811592
-0.021277519 0.0017856256 -0.027200129
-0.021277478 0.0032133765 -0.024697535
-0.021277616 -0.0028564099 -0.030773271
-0.021814361 -0.00035712298 -0.032739256
-0.021277195 0.0032131015 -0.031310022
-0.021252453 0.0037234542 -0.029727139
-0.021814032 -0.0017856519 -0.037742097
-0.018775055 0.0017859369 -0.038100567
-0.019310748 0.00071351888 -0.038100246
-0.01931032 0.0048199226 -0.038099993
-0.020205379 0.0053564077 -0.038100354
-0.020741347 0.0017854752 -0.038099978
-0.021278003 0.0057127592 -0.037743069
-0.021278013 0.005356303 -0.037742212
-0.021278068 0.004820935 -0.037742604
-0.019668141 0.0032142496 -0.038099706
-0.02020538 0.0017851352 -0.038100462
-0.020205449 0.0032136112 -0.038100041
-0.019310577 0.010354503 -0.037742313
-0.019668516 0.0098196547 -0.037742201
-0.019310791 0.012318649 -0.037742909
-0.01877493 0.011783187 -0.037741993
-0.019310886 0.011247518 -0.037742987
-0.022708515 0.0042846855 -0.037742034
-0.021813713 -0.0023202894 -0.037743192
-0.02181443 -0.0028567805 -0.037742756
-0.02181432 0.0017851489 -0.037743099
-0.019667974 -0.0092839897 -0.032202415
-0.018774332 -0.0092837373 -0.038099363
-0.022529252 -0.011068929 -0.037206255
-0.010728566 0.00071378733 -0.03809949
-0.014662443 0.0023206701 -0.038099416
-0.01126455 -0.00071400678 -0.038099904
-0.0076883039 0.0001787634 -0.038100384
-0.0082247211 0.00017903795 -0.038099725
-0.009298332 0.00071479153 -0.038100377
-0.009655471 0.00071448949 -0.038099341
0.0026815934 0.012853902 -0.038099602
0.005722221 0.0037485615 -0.038100652
0.006257833 0.0037487906 -0.038100265
0.006257548 0.003213255 -0.038099989
0.005722092 0.0032137821 -0.038100116
0.0071516917 0.002320793 -0.038100418
0.0087616229 0.0053562899 -0.038099706
0.0076879254 0.00785546 -0.038100064
0.0076885661 0.0067841448 -0.038100421
0.0096552428 0.0092842588 -0.038100168
0.0067940038 0.011248119 -0.038100492
0.0096553946 0.012318429 -0.038100224
0.0092981905 0.011782503 -0.038100153
0.011265003 0.0087475562 -0.038100373
0.011800918 0.009283144 -0.038100529
0.012158452 0.0082120923 -0.038100507
0.013768401 0.0078548761 -0.038100608
0.012158687 0.0073196162 -0.03810063
0.010192152 0.0067847366 -0.038100064
0.010727639 0.0073200832 -0.038100116
0.0096548032 0.0078548603 -0.038099844
0.0076889275 0.0032136564 -0.038099684
0.0082250275 0.0028560124 -0.038100325
0.0082243867 0.0032141909 -0.038099416
0.0082255043 0.0037487273 -0.038099457
0.009655687 0.00071411289 -0.038099337
0.0092978356 0.00071401207 -0.038099378
0.0096559627 0.001249448 -0.038100217
0.010191201 0.0012500598 -0.038099982
0.0096553164 0.0017852692 -0.038099796
0.0087618874 0.0023211648 -0.038100354
0.0087610595 0.0017857522 -0.038099617
0.0082251215 0.0023212784 -0.038099512
0.010728645 0.0017849543 -0.038099449
0.010728206 -0.00071407866 -0.038099408
0.010728461 0.00017863802 -0.03810006
0.010727779 0.000714058 -0.038099375
0.011801204 0.002321522 -0.038099699
-0.0017873977 0.0028563484 -0.038100187
-0.001251596 0.0028563293 -0.038100094
0.0017883617 0.0042844685 -0.038100511
0.0007151824 0.0032136072 -0.038100623
0.0021452622 0.0032141199 -0.038100567
0.0017881491 0.0037495368 -0.038099643
-0.0007145683 0.0028570052 -0.038100492
-0.0012516758 0.0032133905 -0.03809949
-0.00071470049 0.0032130647 -0.038099531
-0.0012518817 0.0037485263 -0.038100176
0.0021454634 -0.00071447052 -0.038100213
0.0046488042 0.0017849122 -0.038100131
0.0046483353 0.0023204081 -0.038099617
0.0046488214 0.0012503192 -0.038099654
0.0042913794 0.0012493844 -0.038100019
0.0046488037 0.00071469159 -0.038099706
0.0037542442 0.0007144878 -0.038099997
0.0051847338 0.00071399938 -0.038100429
0.0037552437 0.0017852581 -0.038099751
0.0057218154 0.0028570986 -0.038099561
-0.0085820835 0.020352865 -0.033453837
-0.008761907 0.019757396 -0.032143299
-0.0087019233 0.019757207 -0.032739185
-0.0042908974 0.021245115 -0.02576948
-0.0046485621 0.021067355 -0.026305579
-0.003754277 0.021245852 -0.025770184
-0.0037547883 0.021245172 -0.025233286
-0.004290889 0.0212448 -0.024161234
-0.0092981793 0.019638782 -0.023804981
-0.0087014697 0.019757673 -0.023804799
-0.0075093545 0.02035336 -0.024697909
-0.011801515 0.018209998 -0.024697667
-0.011801613 0.018210893 -0.023267854
-0.010728782 0.018685851 -0.024638025
-0.010728638 0.018746438 -0.023803692
-0.0087611154 0.019638469 -0.023267837
-0.0067947502 0.021067491 -0.033811752
-0.0051854821 0.021781577 -0.034168251
-0.0051847333 0.021781433 -0.034526497
-0.0076891468 0.020352419 -0.028807383
-0.0076289079 0.020353092 -0.029760288
-0.0087023312 0.019757101 -0.030236889
-0.0087257596 0.019710373 -0.029736385
-0.0082249846 0.019816583 -0.02970106
-0.0062583629 0.020709615 -0.029701076
-0.0057222983 0.021066353 -0.029700849
-0.0062575121 0.020710072 -0.030237991
-0.0067950804 0.020710267 -0.030237589
-0.0062577375 0.020710211 -0.030772928
0.00017933863 0.016782215 -0.038100079
0.00017834501 0.016246749 -0.038099453
0.00071574637 0.016246263 -0.038100049
0.00071581698 0.015711438 -0.038099557
-0.012158825 0.018210735 -0.037742972
-0.012158523 0.01928152 -0.037742116
-0.014303755 0.018209837 -0.037742067
-0.013231905 0.017852988 -0.037742488
-0.013231968 0.018210649 -0.037742209
-0.0087608136 0.022138428 -0.037742503
-0.0096556963 0.021781128 -0.037742399
-0.0096558603 0.021245789 -0.037742369
-0.013231346 0.020709477 -0.037207127
-0.0062581361 0.021245541 -0.037742548
-0.0067951069 0.017317099 -0.038100142
-0.006258355 0.017317394 -0.038100388
-0.0067938836 0.016782138 -0.038099565
-0.0062587266 0.01624608 -0.038100403
-0.0067945686 0.016246263 -0.038100418
-0.0042916182 0.016246304 -0.03809981
-0.0046490263 0.016246559 -0.038099673
-0.0062576625 0.022851689 -0.035776939
-0.0057212119 0.023745239 -0.035956189
-0.0042907838 0.024280004 -0.035776306
-0.0057222201 0.021780454 -0.037742458
-0.0037550074 0.018209709 -0.038099431
-0.0042918478 0.017317958 -0.038100213
-0.0057212356 0.0192816 -0.038099982
-0.0057216915 0.018209975 -0.038100142
-0.0057213469 0.018745895 -0.038099926
-0.0051850677 0.018209865 -0.03810031
-0.0042914846 0.021245399 -0.037743188
-0.010191831 0.013746725 -0.038100205
-0.0096552586 0.014281962 -0.038099509
-0.01019228 0.01481798 -0.03810066
-0.0092982221 0.013746696 -0.03810041
-0.0096554551 0.013747435 -0.038099766
-0.010191606 0.013211424 -0.038100474
-0.0092984522 0.013211753 -0.03810022
-0.01019216 0.012854417 -0.038100637
-0.010191218 0.015353444 -0.038100608
-0.010192248 0.015710868 -0.0381006
-0.0071521732 0.011247586 -0.038100325
-0.0071524363 0.012318906 -0.038100541
-0.00768871 0.011247344 -0.038100407
-0.0071523567 0.011783241 -0.038099706
-0.015198516 0.015353167 -0.031666517
-0.015734749 0.014818243 -0.031666502
-0.015734278 0.014818121 -0.031309664
-0.01519842 0.015354224 -0.030773044
-0.015734935 0.014818478 -0.030774016
-0.016091889 0.014639303 -0.030773254
-0.021277085 -0.0032137264 -0.0062919604
-0.015020157 -0.015711168 -0.029701833
-0.014304281 -0.016782444 -0.033275709
-0.0137676 -0.016781501 -0.032739621
-0.012159079 -0.018567143 -0.034169104
-0.011800941 -0.019995181 -0.035241492
-0.015735025 -0.014639383 -0.027735732
-0.015734464 -0.014758954 -0.028331716
-0.016092373 -0.014640138 -0.028271548
-0.016092796 -0.014282899 -0.027736202
-0.016807904 -0.013568224 -0.027735945
-0.013708757 -0.016782293 -0.028331136
-0.015197678 -0.01535379 -0.028807454
-0.013589582 -0.016781518 -0.026664101
-0.01358863 -0.016782707 -0.026306003
-0.013588601 -0.017139135 -0.025770169
-0.013231844 -0.017139317 -0.026305806
-0.01358856 -0.017138787 -0.027378354
-0.013231523 -0.017139353 -0.027200192
-0.012158489 -0.017853554 -0.026306465
-0.012694513 -0.017317953 -0.026663661
-0.011085363 -0.01856677 -0.026306367
-0.011800412 -0.018210426 -0.030773722
-0.013767825 -0.016781531 -0.031666327
-0.01180045 -0.018210508 -0.031309113
-0.014303713 -0.020352812 -0.03631328
-0.014662459 -0.019816762 -0.035955817
-0.014304906 -0.01731826 -0.037742123
-0.01466154 -0.017318122 -0.037742227
-0.010727691 -0.018746538 -0.022731779
-0.011085213 -0.018567367 -0.022195715
-0.013589493 -0.016782019 -0.019158889
-0.014303698 -0.016245913 -0.019694738
-0.014303777 -0.016247004 -0.020230277
-0.014304358 -0.016246367 -0.017728636
-0.014303664 -0.016246673 -0.016655985
-0.0026814241 0.02124506 -0.030773468
-0.0032178208 0.021780975 -0.033274557
-0.0032179796 0.021245249 -0.032203082
-0.0021456429 0.014282725 -0.038099743
0.010132222 0.019282162 -0.03226281
0.0032190618 0.021245038 -0.013797242
0.0026815115 0.021245494 -0.014691444
0.0026821448 0.0212458 -0.012188999
0.0026816335 0.021245353 -0.01326083
0.0042913361 0.021066243 -0.011295271
0.0042911833 0.021066921 -0.011652514
0.0076884795 0.020352617 -0.017728956
0.0071524177 0.020352744 -0.015762692
0.0092973281 0.019638361 -0.016655868
0.0092974612 0.019638451 -0.016299482
0.0087023238 0.019757785 -0.016299201
0.0082255052 0.019817235 -0.015763531
0.0062584886 0.020710008 -0.016298525
0.006257704 0.020709407 -0.018265279
0.0071520791 0.020352639 -0.012188809
0.0067940773 0.020353314 -0.012724797
0.0042910539 0.02106698 -0.014155105
0.0046491581 0.021067275 -0.013797419
0.0051855571 0.021066841 -0.012189081
0.0046490077 0.021066226 -0.013261243
0.00071542384 0.02178105 -0.010760104
0.0026817711 0.021245137 -0.022732545
0.0021460033 0.021244738 -0.022732427
0.0032186552 0.021186061 -0.023327865
0.0032179959 0.021245601 -0.021302368
0.0026824195 0.021245105 -0.021302337
0.0017875321 0.021245183 -0.017729323
0.0062576239 0.020709898 -0.019694332
0.0037549669 0.021245608 -0.02076596
0.0087017417 0.019758238 -0.025234241
0.0087614898 0.019638127 -0.024698475
0.0076885517 0.020353179 -0.02076707
0.011086108 0.018567437 -0.027199322
0.01001279 0.019281777 -0.027735002
0.011205183 0.018567221 -0.028211758
0.01108627 0.018566964 -0.027735833
0.010728678 0.018745309 -0.02773533
0.011264018 0.018567612 -0.028808434
0.011800482 0.018210907 -0.028272115
0.012158657 0.017853813 -0.027735163
0.0021457262 0.021245172 -0.017192081
0.0026825757 0.021245405 -0.017192082
0.0032183011 0.021245286 -0.016656347
0.0032189931 0.021245619 -0.017192986
0.0026824893 0.021245008 -0.016656213
0.0046493667 0.021066748 -0.016299758
0.003754542 0.021244992 -0.01772929
0.0032179803 0.021246033 -0.018800609
0.0037552237 0.021245662 -0.018264581
0.0032186201 0.021246023 -0.018264584
0.0021460985 0.021245321 -0.015227104
0.0032183623 0.021245757 -0.015227437
0.0082252054 0.019817797 -0.019694228
0.0082254317 0.02356665 -0.0027187169
0.0082250554 0.023209561 -0.0032545552
0.0062578409 0.020709336 -0.0077215964
0.0062576486 0.02070971 -0.006292752
-0.0076882849 0.020352848 -0.015227443
-0.0082256384 0.019817231 -0.013797753
-0.0082246643 0.019817691 -0.014154555
-0.00369563 0.02118616 -0.014154786
-0.0042914785 0.021185821 -0.014750184
-0.0042906492 0.021066403 -0.015762847
-0.0092984261 0.019638533 -0.008257593
-0.008761866 0.019638784 -0.0082574664
-0.0075100944 0.020352401 -0.010223059
-0.0076879151 0.02035288 -0.0077214111
-0.0082254084 0.019816482 -0.0082575651
-0.0087022251 0.019758191 -0.0091515798
-0.0087021533 0.019757807 -0.0087932562
-0.0037550258 0.021245509 -0.013260907
-0.0042914497 0.021185854 -0.013321251
-0.0021451691 0.021245793 -0.013797048
-0.0026817273 0.021245912 -0.014155268
-0.00035744661 0.021781208 -0.0077223992
0.00017925879 0.02178056 -0.0087945107
0.00017942706 0.021780552 -0.0091517912
0.0012519489 0.021780532 -0.0062918123
-0.002145814 0.02178156 -0.0091510974
-0.0032188506 0.021244932 -0.0087937722
-0.0026822677 0.021245437 -0.0087941289
-0.0032186264 0.021245586 -0.0091513423
-0.0037542209 0.021245293 -0.0087941326
-0.0026814546 0.021245524 -0.0066495426
-0.0032190739 0.021246051 -0.0071850279
0.0021453532 0.021245664 -0.0082571954
0.0026816297 0.021245396 -0.0087937843
0.0032191211 0.021245297 -0.0087945573
-0.0026813985 0.021245936 -0.010224027
-0.002681396 0.021245847 -0.0096874628
-0.0032188683 0.021245239 -0.009686864
-0.004649132 0.021066776 -0.010223688
-0.0046482459 0.021066649 -0.0096868211
-0.0057220832 0.021067055 -0.0091508785
-0.0051846597 0.021066353 -0.0091516096
-0.0046489416 0.021066753 -0.0082584443
-0.003217936 0.021245448 -0.011296105
-0.0032184238 0.021245888 -0.011653007
-0.0042912611 0.021185556 -0.010700136
-0.00035764568 0.021780821 -0.0057566967
0.00017894924 0.021780549 -0.0062923012
-0.00035724405 0.021781554 -0.01326104
-0.00071491877 0.021780526 -0.012189079
-0.00035808323 0.021780722 -0.013797816
-0.00071546575 0.021780597 -0.013440019
-0.0012513585 0.022852609 -0.0037907353
-0.00071540457 0.021780964 -0.0046838475
0.0017882101 0.021245969 -0.017192824
-0.0067940364 0.020710088 -0.028807258
-0.015198788 0.015354444 -0.020766487
-0.015018947 0.015354396 -0.0202301
-0.0037546607 0.021245215 -0.016656693
-0.0037554258 0.021245103 -0.017192844
-0.0037542374 0.021245839 -0.017729323
-0.0042908899 0.021066856 -0.017192133
-0.0046492419 0.021066878 -0.017728316
-0.00035712559 0.021780742 -0.020766877
-0.0017878767 0.021245953 -0.020230843
-0.0032180063 0.021245202 -0.025234109
-0.0021457369 0.021245869 -0.025233353
-0.0026826479 0.021245681 -0.026305582
0.0037295104 0.021219661 -0.015788374
-0.0032184087 0.021245999 -0.017728869
-0.016270962 0.014282675 -0.023803707
-0.010728532 0.018745488 -0.023268377
-0.015198661 0.015353853 -0.01772874
-0.018237971 0.017138556 -0.0021819659
-0.017522674 0.017852671 -0.00128836
-0.017164936 0.018210456 -0.0016456582
-0.016807266 0.013569007 -0.011296136
-0.014303744 0.016246675 -0.012189329
-0.013767834 0.016781943 -0.012189179
-0.017523307 0.012854403 -0.01826464
-0.017165683 0.013210862 -0.018800966
-0.014304519 0.01618715 -0.0096275462
-0.013230951 0.017139232 -0.024697641
-0.01430405 0.016246209 -0.024161741
-0.013588727 0.016782146 -0.026306447
-0.013767767 0.016782036 -0.025770277
-0.014303859 0.016247101 -0.025770398
-0.019668322 0.0092843324 -0.025770387
-0.0185952 0.011247664 -0.028271826
-0.01966856 0.0092842076 -0.026663575
-0.019667801 0.0092830677 -0.027199723
-0.020025842 0.0085696187 -0.024519624
-0.0200259 0.0082128644 -0.027199339
-0.020026397 0.0078558065 -0.027735263
-0.020026062 0.0082131671 -0.026306638
-0.020168481 0.014711273 -0.03581224
-0.018238379 0.011783355 -0.032203589
-0.019311205 0.0098196948 -0.019157829
-0.020741792 0.010712588 -0.037742123
-0.020026136 0.010711735 -0.034883663
-0.0017885468 0.022138104 -0.034168702
-0.00071533106 0.022137769 -0.033811722
-0.0026826207 0.022137957 -0.033811852
-0.0026815271 0.021245643 -0.026663546
-0.0021451511 0.021245945 -0.026306314
-0.0012510431 0.021780912 -0.027198937
0.0026820223 0.021244742 -0.028271213
0.002682243 0.021245288 -0.027735576
0.0021450382 0.021245586 -0.027735149
0.0032182226 0.021245606 -0.027736127
0.0026819787 0.02124575 -0.027199384
0.00071573089 0.021780919 -0.026663838
-0.0046488498 0.021066902 -0.030773692
-0.005185232 0.021067329 -0.03130905
-0.0042915377 0.021186028 -0.028331487
-0.0021461733 0.02124588 -0.02970152
-0.0037550016 0.021244993 -0.03023795
-0.000357354 0.021780385 -0.031666707
0.0001781383 0.021781625 -0.03130915
-0.004648834 0.022315981 -0.037742157
-0.0071522603 0.021066353 -0.0341685
-0.0051859352 0.021066882 -0.031667307
-0.005184894 0.021067128 -0.032203216
-0.0067947675 0.020710006 -0.031666603
-0.0042907381 0.024637785 -0.0021817088
-0.003754904 0.0246379 -0.0027180221
-0.0037542556 0.024637001 -0.002181882
-0.0037553292 0.024636874 -0.0007526651
-0.0037545701 0.0246379 -0.0016462505
-0.0076885247 0.020352269 -0.023804732
-0.0092982743 0.019638339 -0.015226789
-0.0092980834 0.01963903 -0.015763428
-0.010013627 0.019281629 -0.015763298
-0.010012899 0.019281555 -0.016299572
-0.012516085 0.017853314 -0.01665649
-0.010013675 0.019281534 -0.022731898
-0.0046484252 0.021066798 -0.017192921
-0.0051849266 0.021066939 -0.011652796
-0.004649091 0.02106712 -0.011295138
-0.0051858835 0.021067016 -0.01218853
-0.0060798945 0.020710327 -0.012724796
-0.0026819957 0.021245789 -0.021659823
-0.0037555166 0.021245882 -0.020766284
-0.0042911996 0.021245494 -0.019694475
-0.0042908019 0.02118603 -0.020825662
-0.0037543401 0.021244852 -0.019158537
-0.0037551953 0.021244997 -0.019694323
-0.0032182729 0.021245701 -0.019694494
-0.0032178964 0.021244941 -0.019158369
-0.00679436 0.020709625 -0.022732487
-0.0026824481 0.021244921 -0.023267835
-0.0032179325 0.021245558 -0.024697993
-0.0057212566 0.021066234 -0.024162225
-0.0062579587 0.020709246 -0.024161117
-0.0046492359 0.021066839 -0.025234535
-0.0042915456 0.021066496 -0.025234494
-0.0087617785 0.019638423 -0.011295659
-0.0082248347 0.019817287 -0.01075936
-0.011086133 0.021066599 -0.0037905164
-0.0082245916 0.019816795 -0.0052195583
-0.0092971977 0.01963865 -0.0062927967
-0.0087618502 0.019639157 -0.0052196458
-0.011086492 0.018567808 -0.0052201375
-0.010727998 0.018745655 -0.0046841512
-0.011228673 0.018639343 -0.0046480522
-0.013231332 0.0171385 -0.0066492064
-0.013232045 0.017138898 -0.0071860319
-0.011801287 0.018210677 -0.0082572326
-0.011801522 0.018567828 -0.0045055533
-0.011801716 0.019282093 -0.0037908247
-0.01180165 0.019817591 -0.0037906468
-0.013231367 0.019281227 -0.0037907111
-0.014303774 0.016781669 -0.0045047216
-0.015198505 0.017317861 -0.0037910668
-0.015198493 0.016781425 -0.0037907092
-0.013767651 0.018210707 -0.00021633692
-0.0067948429 0.020709269 -0.010223042
-0.0076285019 0.020352948 -0.01069997
-0.0046486929 0.021066656 -0.009150858
-0.017701091 0.012319001 -0.015226571
-0.0037543294 0.021781169 -0.033811446
0.0012517713 0.020709837 -0.038099632
0.0012521219 0.020352712 -0.038099959
0.00071477058 0.020353353 -0.038100183
0.0017885434 0.020352267 -0.038099363
0.0026821359 0.018745953 -0.038099736
-0.010013504 0.019281702 -0.030773964
-0.0096560419 0.019638184 -0.031666756
-0.010012726 0.019281652 -0.031310067
-0.0092981821 0.019638756 -0.031309556
-0.0087614795 0.019817231 -0.031666473
-0.0092975544 0.019638056 -0.031667385
-0.010132403 0.019281913 -0.032142974
-0.0076888162 0.020353107 -0.030237548
-0.0092978617 0.019638069 -0.030773422
-0.0092982091 0.019638408 -0.032202788
-0.013767326 0.020709721 -0.0016455483
-0.0057211989 0.02320957 -0.0037905127
-0.0062574833 0.022851609 -0.0037909904
-0.0067944075 0.020709993 -0.0057558268
-0.010727954 0.018745322 -0.03130893
-0.010727722 0.018746322 -0.031667504
-0.010191561 0.019280942 -0.032738954
-0.011800684 0.018745683 -0.03416815
-0.010728291 0.018746192 -0.02773514
-0.013768456 0.01678233 -0.030237246
-0.014303666 0.016246401 -0.030236829
-0.010727957 0.018745378 -0.029701261
-0.010013308 0.01928135 -0.028807351
-0.010728016 0.01874559 -0.028807521
-0.0076283976 0.020352542 -0.02571106
-0.0076287519 0.020353347 -0.027140014
-0.0082253162 0.019816544 -0.027735095
-0.0082243532 0.019816475 -0.027199218
-0.0092978328 0.019638937 -0.027198948
-0.0092982175 0.019638009 -0.027735099
-0.0092973523 0.01963846 -0.028271973
-0.0092975097 0.01963881 -0.028807767
-0.010012954 0.019281847 -0.026663512
-0.010012395 0.019281726 -0.027736004
-0.013588591 0.016782003 -0.019157672
-0.016807582 0.017852621 -0.0032547414
-0.016807429 0.018210191 -0.0032540001
-0.015138332 0.019757038 -0.0021820385
-0.015139145 0.01975725 -0.0012887735
-0.017164838 0.018209977 -0.0007526502
-0.015019914 0.0157104 -0.029879749
-0.014661935 0.016067872 -0.028807713
-0.014661277 0.016067365 -0.029879369
-0.015734611 0.014818552 -0.023804381
-0.011800849 0.018210828 -0.026306113
-0.01376794 0.016781734 -0.025233496
-0.01466127 0.016246533 -0.037742056
-0.014303789 0.016246466 -0.016656388
-0.013767507 0.018746125 -0.0037909094
-0.014662364 0.018567132 -0.0037910538
-0.0096556228 0.019281138 -0.012725486
-0.0092978403 0.019639179 -0.014154648
-0.0092981206 0.019639069 -0.013796866
-0.011204504 0.018567702 -0.010699361
-0.011085602 0.018567933 -0.010223787
-0.012695135 0.017317913 -0.015762633
-0.012159178 0.017853292 -0.015763462
-0.014303716 0.019817289 -0.0032547861
-0.0032186173 0.021244999 -0.029165009
-0.0037542472 0.021245953 -0.029701032
-0.0037548535 0.021245118 -0.031309374
-0.0037552943 0.021244835 -0.031666655
-0.0067946818 0.020709835 -0.027020425
-0.0062583531 0.020709544 -0.026306495
-0.0067940135 0.020709673 -0.025591832
-0.0057220096 0.021066625 -0.027199425
-0.0051851305 0.021067159 -0.027200142
-0.0051849424 0.021066375 -0.026663365
-0.0087607307 0.020353237 -0.033810798
-0.010132387 0.021781052 -0.035836283
-0.016807653 0.013568787 -0.015763504
-0.014304625 0.016186394 -0.017133627
-0.014304482 0.016246226 -0.021302588
-0.01823757 0.011782982 -0.022732511
-0.018596176 0.011068393 -0.020231053
-0.018596102 0.011069221 -0.018801317
-0.019310264 0.0096413689 -0.021659419
-0.020204727 0.0073194606 -0.02022999
-0.0012514816 0.018210921 -0.00021591596
-0.00035701488 0.017317057 -0.00021675602
-0.00035738459 0.016782593 -0.00021676347
0.00017830421 0.023209792 -0.0037898673
-0.0012519404 0.023209885 -0.0037906943
-0.00071462651 0.022851976 -0.0037898095
-0.0012511646 0.024816288 -0.0032544136
-0.001787491 0.022852378 -0.0037906012
-0.0021462615 0.023566118 -0.0037906859
-0.001787974 0.024280237 -0.0032546967
-0.0017877617 0.021781133 -0.0073644277
0.0026814546 0.021245236 -0.0057565486
-0.00035771343 0.020352989 -0.00021654367
0.00017905392 0.020710221 -0.00021625869
0.00017834142 0.020352604 -0.00021665916
-0.0021451917 0.020352742 -0.00021654554
-0.0017875565 0.020352673 -0.00021662377
-0.001251836 0.019817384 -0.00021623261
-0.00178789 0.019280901 -0.00021667406
-0.0007147509 0.020709183 -0.00021615438
-0.0012520187 0.02070961 -0.00021711923
-0.001787588 0.020710139 -0.00021630898
0.00017929811 0.019816784 -0.00021631643
0.00071460323 0.020353213 -0.00021716766
0.00017931653 0.021245735 -0.00021634996
-0.002682592 0.023209352 -0.00021664798
-0.0021459132 0.02285246 -0.00021618046
-0.0042909817 0.022852648 -0.00021696277
-0.0042911074 0.021780781 -0.00021650642
-0.0051849447 0.021245105 -0.00021682493
-0.0032185614 0.021245545 -0.0052198619
-0.0026826463 0.021780616 -0.0045056771
-0.0042906329 0.02106696 -0.0066490145
-0.013231725 0.018209854 -0.00021613576
-0.012694664 0.018210176 -0.00021648221
-0.014661834 0.019281264 -0.00021688081
-0.014661869 0.012854757 -0.00021629408
-0.010728329 0.014817819 -0.00021690316
-0.011264388 0.015710317 -0.00021623448
-0.011800556 0.015711432 -0.00021713413
-0.012158291 0.015354414 -0.00021698698
-0.0082251485 0.020352114 -0.00021693483
-0.0092976689 0.019816766 -0.00021613389
-0.0096549662 0.018210046 -0.0002160836
-0.010728209 0.018210856 -0.00021637045
-0.010192014 0.016782474 -0.0002169013
-0.010727822 0.017317094 -0.00021642447
-0.0087619247 0.016782401 -0.0002163928
-0.0076885815 0.016246703 -0.00021665171
-0.0087610986 0.016245993 -0.00021692924
-0.0082251225 0.019817095 -0.0066490462
-0.0082254549 0.01981733 -0.0062927669
-0.0082247155 0.019816946 -0.0071851462
-0.0082246074 0.023209875 -0.0032539498
-0.0082247397 0.022138534 -0.0037901271
-0.005721217 0.024280917 -0.0027180146
-0.0051854039 0.024280943 -0.0021825079
-0.0062579582 0.023745161 -0.0032542907
-0.0067939451 0.023745354 -0.0032539126
-0.0071522789 0.02070996 -0.015227352
-0.0067939409 0.020709796 -0.016299091
-0.0062580639 0.020710144 -0.01415432
-0.0067948531 0.020709768 -0.013797112
-0.005185504 0.021066546 -0.016299102
-0.0042918362 0.021185242 -0.01820462
-0.0062587815 0.020709654 -0.017728284
-0.0062580984 0.020709466 -0.017192366
-0.0067939064 0.020710124 -0.01808662
-0.0062580761 0.020710241 -0.018800674
0.004291249 0.021066761 -0.010222841
0.0046483483 0.021066317 -0.010759487
0.0051856493 0.021066291 -0.010581118
-0.018595077 0.011069654 -0.015763167
-0.017700991 0.012318803 -0.016299017
-0.018594945 0.011247624 -0.016298948
-0.013231202 0.017139133 -0.016298486
-0.015139326 0.015353174 -0.017132705
-0.015198463 0.015354045 -0.016657073
-0.015198718 0.015353964 -0.016298996
-0.017642474 0.01225909 -0.015762782
-0.016271673 0.01428268 -0.010223247
-0.016211996 0.014282752 -0.010819388
-0.010012449 0.019281549 -0.013797326
-0.010728454 0.018567648 -0.012724756
-0.010191458 0.020352529 -0.0037901895
-0.010728294 0.020710174 -0.0037910677
-0.009297261 0.021781605 -0.0037909755
-0.0096548358 0.022851575 -0.0032542627
-0.0075097149 0.020352965 -0.013797536
-0.014304926 0.016246352 -0.010759464
-0.014304395 0.016067747 -0.011652721
-0.012695096 0.017318251 -0.011653036
-0.013707774 0.016782237 -0.013320221
-0.021098569 0.0048209717 -0.021302378
-0.022171373 0.010711702 -0.037207022
-0.02252906 0.011246965 -0.03667042
-0.023244884 0.0078551965 -0.037206993
-0.020026449 0.0067844088 -0.038100261
-0.019669052 0.006784833 -0.038099475
-0.019668631 0.0062487572 -0.038099792
-0.019310759 0.0062485337 -0.038099676
-0.021099029 0.005355983 -0.023804797
-0.021169906 0.0037130383 -0.020802096
-0.015734883 0.016781455 -0.00021610409
-0.01680804 0.016781427 -0.0002158843
-0.016807355 0.015710413 -0.00021718815
-0.017522488 0.012853753 -0.019158309
-0.018773789 0.010712199 -0.017191952
-0.018595736 0.011187866 -0.018205281
-0.020741388 0.0098196454 -0.00379082
-0.021277431 0.011783194 -0.0032547861
-0.020204455 0.0073200827 -0.0071852198
-0.019311199 0.012854557 -0.0037905341
-0.019668456 0.011247706 -0.0037905946
-0.017164929 0.013211411 -0.0071861465
-0.021277953 0.012318268 -0.0032542367
-0.018595831 0.01428245 -0.0037902687
-0.018237365 0.014282136 -0.00379017
-0.020205321 0.013747609 -0.0032544266
-0.01823801 0.01321203 -0.0037908135
-0.016806955 0.013687427 -0.0056967316
-0.017641626 0.012259332 -0.0082581546
-0.018237663 0.011782925 -0.017192157
-0.017164858 0.013210861 -0.017013248
-0.015019097 0.015711101 -0.021660477
-0.015734375 0.01475885 -0.02332766
-0.015734807 0.014817918 -0.022196338
-0.01627147 0.01428223 -0.028271474
-0.015198843 0.015354338 -0.025770318
-0.015019639 0.015710741 -0.025233259
-0.016271319 0.014282205 -0.025233312
-0.01215833 0.0012497058 -0.038099863
-0.02020504 0.007319421 -0.018800948
-0.021813454 0.0098198298 -0.037743129
-0.021814693 0.0092833415 -0.037742812
-0.021814311 0.0087485062 -0.037741959
-0.021277748 0.0087481448 -0.037743133
-0.020741036 0.0067844777 -0.037742317
-0.020025752 0.0092830556 -0.033811212
-0.022171421 0.010712342 -0.0032537263
-0.02181446 0.010712606 -0.0032546408
-0.021098323 0.0048207403 -0.016656717
-0.021099238 0.0048207613 -0.014690953
-0.021277746 0.0023212314 -0.016298501
-0.02127799 0.0017847627 -0.016299659
-0.021277161 0.0017849521 -0.015763469
-0.021277649 0.0028561337 -0.01629862
-0.021278115 0.0023206368 -0.015763434
-0.02127748 0.0023215711 -0.016656032
-0.021814331 -0.00071440288 -0.013440266
-0.021814594 -0.00035669337 -0.013440557
-0.021813713 -0.00071351125 -0.014869725
-0.020741194 0.0057127262 -0.011652561
-0.021252776 0.0037238449 -0.013286606
-0.021277284 0.0028565379 -0.010759628
-0.020204742 0.0073202248 -0.029165357
-0.021098729 0.0048206239 -0.032202527
-0.0207406 0.0062488411 -0.030236755
-0.02074158 0.0082118809 -0.033810653
-0.02109828 0.0082126223 -0.034883693
-0.020741846 0.0067842924 -0.0057564555
-0.024675233 0.0028569226 -0.0032547545
-0.024316879 0.0023214431 -0.003253758
-0.020740848 0.0062484723 -0.0071860664
-0.015198438 -0.017317533 -0.0037908982
-0.014661932 -0.017317774 -0.0037903618
-0.023243878 -0.008212354 -0.037206993
-0.023781417 -0.0078550354 -0.036670048
-0.022171771 0.0053560911 -0.0037910864
-0.023243835 -0.0017856131 -0.037743255
-0.021218551 -0.0036896165 -0.031309929
-0.020025602 -0.0096412152 -0.0341684
-0.020168841 -0.0097836759 -0.034812119
-0.022708287 -0.00071369973 -0.0037898114
-0.021277411 -0.0023209515 -0.022195674
-0.021277191 -0.0028569594 -0.02219581
-0.024316758 0.00071467098 -0.035955198
-0.021278011 -0.0032138401 -0.025233466
-0.021278001 -0.0028569675 -0.025770549
-0.021251626 0.003723166 -0.023243252
-0.021278225 0.0028571323 -0.023268113
-0.021277504 0.0032138834 -0.023267997
-0.021278251 0.001785746 -0.023267647
-0.023602406 -0.0017852287 -0.0037906161
-0.02270814 -0.0023213578 -0.0037900368
-0.021813707 -0.0012495056 -0.004505801
-0.021813896 0.00035747528 -0.010223895
-0.021814318 0.00017865471 -0.013440546
-0.021277655 0.0023205094 -0.012188921
-0.021278149 0.0028559803 -0.014155388
-0.021277303 -0.003213336 -0.013797961
-0.021276994 -0.0032137984 -0.014690641
-0.021252273 -0.0037231555 -0.014716975
-0.021277839 -0.0028565982 -0.015226598
-0.021278096 -0.0032139735 -0.015226528
-0.021098722 -0.0042848694 -0.011295672
-0.021252504 -0.0037232428 -0.012164106
-0.021099135 -0.0042853048 -0.0096867988
-0.021277292 -0.0028563091 -0.0096867587
-0.02127758 0.0017852634 -0.0077220006
-0.021277169 0.0023209439 -0.0071859332
-0.021277456 0.0017849635 -0.0057566594
-0.021278277 -0.0017859328 -0.020230696
-0.021277718 -0.0017849527 -0.018264854
-0.021277489 -0.0028570094 -0.01880138
-0.021277456 -0.0028561577 -0.019158501
-0.02127783 -0.0032140422 -0.018800873
-0.021277212 -0.0032133015 -0.018265303
-0.020025866 -0.0082122888 -0.026663689
-0.021218454 -0.0036901406 -0.026664022
-0.020026548 -0.0082128113 -0.027198946
-0.020205235 -0.00732029 -0.029165339
-0.020025833 -0.008212598 -0.028271306
-0.018774599 -0.010711795 -0.02666356
-0.022708746 -0.0098199425 -0.036670335
-0.022529354 -0.01035524 -0.03667102
-0.020145847 -0.0086890273 -0.032739632
-0.02109905 -0.004819979 -0.028807996
-0.02109836 -0.0046421676 -0.027735684
-0.021098707 -0.0053556832 -0.031667501
-0.02324461 -0.0057127373 -0.035777465
-0.02383985 -0.00630851 -0.0359556
-0.023244774 -0.0067841234 -0.035955939
-0.021098938 -0.0048200479 -0.031309441
-0.021099484 -0.0042842724 -0.020767102
0.0021454669 0.021244917 -0.021660101
0.0021452925 0.021244796 -0.021302102
-0.0067939796 0.0087481225 -0.00021588244
-0.0067941495 0.0092833685 -0.00021588244
-0.0071527893 0.0087481672 -0.00021605939
-0.0076879975 0.0082131708 -0.00021633506
-0.0087616555 0.0087483637 -0.00021674857
-0.0087611433 0.0082129929 -0.00021715276
-0.0021458694 0.0087479996 -0.00021599978
-0.0057214168 0.010355165 -0.00021644309
-0.0062581217 0.0098189237 -0.00021680072
-0.0057222955 0.016782112 -0.00021629781
-0.0046493607 0.017317617 -0.00021627732
-0.0046487236 0.015353484 -0.00021694228
-0.0021457796 0.015711414 -0.00021647289
-0.0021452759 0.015353226 -0.00021637604
-0.0092982464 0.012318672 -0.00021601282
-0.0087609664 0.011783235 -0.00021593273
-0.0087609282 0.012318721 -0.00021711551
-0.0051850551 0.010711697 -0.00021699443
-0.0046485751 0.010711953 -0.00021646358
-0.0046482543 0.011248195 -0.00021707267
-0.0071526729 0.014818374 -0.00021614507
-0.0096559105 0.013746594 -0.00021604076
-0.0082244761 0.012854111 -0.00021612085
-0.0092973178 0.014817895 -0.00021624193
-0.0076883193 0.014282799 -0.000216363
-0.0071515278 0.01374756 -0.00021598116
-0.0076879389 0.013747539 -0.00021710247
0.0012515489 0.007855162 -0.00021666847
0.00071534351 0.0078556016 -0.00021697022
0.0046492345 0.0078559164 -0.00021696836
-0.002681545 0.0012495581 -0.00021622889
-0.0026814984 0.00017900697 -0.00021603331
-0.00035726189 -0.00071362039 -0.00021702982
-0.00071471452 -0.0003572721 -0.00021715835
0.00017915282 -0.0003570882 -0.00021690503
0.00017936784 0.0012503687 -0.00021614879
-0.0067941393 0.004285234 -0.00021677092
-0.0071527883 0.0042853598 -0.00021707639
-0.0051851519 0.0037488672 -0.00021670014
-0.0057220254 0.0037487161 -0.00021708757
-0.005721359 0.0042848084 -0.00021677837
-0.005722363 0.0048198928 -0.00021707639
-0.0067947879 0.0053559742 -0.00021593831
-0.0046483218 0.0057126419 -0.00021597557
-0.0051854844 0.0053562666 -0.00021689944
-0.0046492484 0.0062485933 -0.0002158992
-0.0062582814 0.0057127802 -0.00021674484
-0.0026815506 0.0053555006 -0.00021687336
-0.0042912872 -0.0032136445 -0.00021706522
-0.0051856874 -0.0023206931 -0.00021587312
-0.0067938976 0.0028565342 -0.00021609105
-0.0067945006 0.0023203893 -0.00021652691
-0.0062586083 0.0017852512 -0.00021607243
-0.0071516181 0.0017853293 -0.00021593645
-0.0076886122 0.0023203886 -0.00021639839
-0.007689131 0.001785807 -0.00021682866
-0.0067942939 0.00071451673 -0.00021586381
-0.0071515343 0.001249715 -0.00021609664
-0.0071523767 0.00071405241 -0.00021702051
-0.0082250424 -0.0017850543 -0.00021689199
-0.0076880697 -0.0057125697 -0.00021708757
-0.0071522612 -0.0057134163 -0.0002167616
-0.0071526482 -0.0053559574 -0.00021643192
-0.0067949365 -0.0067839995 -0.00021689944
-0.0067938864 -0.0057127383 -0.00021694228
-0.00679392 -0.0012494698 -0.00021622702
-0.0057222424 -0.003749158 -0.00021625496
-0.0057214242 -0.0032134033 -0.0002167467
-0.0062587718 -0.0032134464 -0.00021626614
-0.0051850597 -0.003213471 -0.00021648593
-0.0062577305 -0.0037493145 -0.00021586195
-0.0092978617 -0.0037490462 -0.00021624193
-0.0076881377 -0.003749623 -0.00021701306
-0.00035782202 0.0012501416 -0.00021586381
-0.0003582529 0.00071457133 -0.0002163481
-0.015198266 0.011247572 -0.00021664426
-0.015198953 0.01035506 -0.00021685474
-0.016270755 0.0082130954 -0.00021603703
-0.017701002 0.0082119526 -0.00021596253
-0.017702093 0.010354612 -0.00021671318
-0.016271122 0.0098187346 -0.00021692179
-0.016808163 0.010355111 -0.0002160985
-0.016807459 0.0098191733 -0.00021703914
-0.01716562 0.0092839552 -0.00021620281
-0.012159298 0.0017851952 -0.00021684729
-0.01180046 0.0028561158 -0.00021675229
-0.008225549 0.0001789723 -0.00021623448
-0.0076883337 0.0012497297 -0.00021634251
-0.0087612281 -0.00035675371 -0.0002162531
-0.0087611442 0.00017904662 -0.00021690875
-0.011264075 0.002320705 -0.00021655671
-0.010191725 0.0012503692 -0.00021664239
-0.0096548991 0.001250339 -0.00021589361
-0.0087608024 0.0017856621 -0.00021710992
-0.0096548693 0.0037487643 -0.0002168268
-0.0082249204 0.0028559801 -0.00021674111
-0.0092984466 0.0082122246 -0.00021621026
-0.0092983106 0.0078559285 -0.00021668896
-0.0096549056 0.0073199677 -0.00021634065
-0.0087607522 0.0062487256 -0.00021702796
-0.0057223337 0.0067845313 -0.00021588989
-0.0057212412 0.0062492294 -0.00021684915
-0.0051848497 0.0067836461 -0.0002163779
-0.0051848176 0.0082120029 -0.00021626614
-0.0032183351 0.007319916 -0.00021612085
-0.0037544835 0.0067843911 -0.00021641143
-0.0037543566 0.0062491386 -0.00021699257
-0.0046486314 0.007320154 -0.00021691248
-0.0042912201 0.0078554293 -0.00021626987
-0.0042909128 0.0073200976 -0.00021681376
-0.0042918078 0.0067838081 -0.00021667778
-0.0087616341 0.0078560775 -0.00021713227
-0.010192366 0.0062488918 -0.00021674298
-0.021813648 0.0073203691 -0.00021686964
-0.014661956 -0.0032133453 -0.00021605939
-0.015735108 -0.0032136799 -0.00021625124
-0.014661492 -0.0012497662 -0.0002163779
-0.014304476 -0.0012499993 -0.00021636672
-0.014304183 -0.0017849876 -0.0002161935
-0.015734686 -0.000714219 -0.00021684356
-0.014661898 -0.0023212719 -0.00021649525
-0.016271612 -0.0042852596 -0.00021688454
-0.015734101 -0.0053558443 -0.0002167616
-0.015735304 -0.0057125576 -0.00021684729
-0.016270535 -0.0057132216 -0.00021651015
-0.015734944 -0.0062480527 -0.00021638721
-0.016271705 -0.0062492518 -0.00021703355
-0.017164813 -0.0062479861 -0.00021631829
-0.017701643 -0.0057133115 -0.00021630898
-0.017701497 -0.0062486189 -0.00021716021
-0.014304338 -0.00035706736 -0.00021703728
-0.014662359 -0.00071424764 -0.0002158992
-0.011265186 -0.0028566432 -0.00021656603
-0.010728842 -0.0028565803 -0.00021698326
-0.015735386 0.0012502216 -0.00021656789
-0.01627096 -0.00071371184 -0.00021645427
-0.017702188 -0.0017851542 -0.00021683797
-0.017701212 -0.0023213453 -0.0002167169
-0.018238649 -0.00071464013 -0.00021666661
-0.013231505 -0.0023211897 -0.00021601282
-0.013767961 -0.0017851306 -0.00021595694
-0.013767368 -0.0012499121 -0.00021588989
-0.013231482 -0.00035685394 -0.00021685287
-0.013768333 0.00017838278 -0.00021640398
-0.012158519 0.00071379141 -0.00021607056
-0.019310631 -0.010711928 -0.00021667592
-0.019310804 -0.013211031 -0.00021621026
-0.01966797 -0.012854421 -0.00021689571
-0.022171455 -0.011783599 -0.00021699071
-0.022171356 -0.011247714 -0.00021669641
-0.018774068 -0.015710672 -0.00021616742
-0.008225359 0.010354337 -0.0002163928
-0.008760781 0.010355317 -0.00021683611
-0.0076889456 0.009284215 -0.0002160389
-0.007688392 0.0098193679 -0.000217136
-0.007152244 0.009818729 -0.00021699816
-0.0071517657 0.010354711 -0.00021671131
-0.0092971893 0.010354939 -0.00021588057
-0.0096555147 0.010712119 -0.00021630526
-0.010728818 0.0098191984 -0.00021618046
-0.011264055 0.010355548 -0.00021586195
-0.010728521 0.010711503 -0.000215929
-0.011800886 0.010354572 -0.00021699071
-0.013768251 0.0092836451 -0.00021658093
-0.014662236 0.0092838407 -0.00021709129
-0.016271431 0.01071145 -0.00021626614
-0.0012510587 0.011783097 -0.03809981
-0.00071562326 0.011248002 -0.038099676
-0.0026815846 0.013211287 -0.038099535
0.0051851068 0.0098190913 -0.03810025
0.0046483381 0.010354557 -0.038100347
0.0046492191 0.0092839403 -0.038100041
0.0057213819 0.0098195523 -0.038099982
-0.0012516726 0.013210917 -0.038100421
-0.0012521691 0.012853818 -0.0380999
-0.00071558054 0.012854701 -0.038099725
-0.0026815562 0.013746986 -0.038100217
-0.0026821296 0.014282078 -0.038100347
-0.0012511475 0.016782362 -0.038100459
-0.00071474421 0.01624693 -0.038100004
-0.0012517462 0.016247097 -0.038099498
-0.0042910124 0.013746659 -0.038099974
-0.0051850132 0.013747566 -0.038099863
-0.0067948895 0.018745452 -0.038100265
-0.0076886583 0.018745923 -0.038100317
-0.012159256 0.013746892 -0.038099542
-0.011801152 0.013747049 -0.038099729
-0.012158539 0.013211968 -0.038100086
-0.010728343 0.013211899 -0.038100574
-0.011264614 0.013211031 -0.038100265
-0.010728841 0.014282601 -0.038099784
-0.0096556135 0.013212048 -0.038099416
-0.010192307 0.014282523 -0.038099632
-0.0076880553 0.010354676 -0.038100511
-0.0062584952 0.010355087 -0.038100652
-0.0096552642 0.0098195905 -0.038100556
-0.010191157 0.0087486953 -0.03810057
-0.0092975106 0.0087485397 -0.038100336
-0.0096553378 0.0087478366 -0.038099885
-0.0042918976 0.0073197745 -0.038099431
-0.0037546884 0.0073194033 -0.038099423
-0.0037550419 0.0078549385 -0.0380999
0.0026816155 0.011783093 -0.038100429
0.0012516993 0.012854295 -0.038100511
0.0017878735 0.012854557 -0.038100205
0.0026814158 0.0078551918 -0.038100563
0.0042906781 0.0092831813 -0.038100652
0.0042908117 0.0098192161 -0.038100097
0.0046483092 0.0098188287 -0.038099878
-0.00035803209 0.0048206919 -0.038100161
-0.00035753308 0.0042850832 -0.038100563
-0.00071465725 0.0042849625 -0.038100023
-0.00071471039 0.0048202453 -0.038099334
-0.0026819303 0.0078551667 -0.03809958
-0.0026823401 0.0082118874 -0.03809965
-0.002145292 0.0082125664 -0.038100027
-0.0021450832 0.0078556947 -0.03809946
-0.0037547774 0.011782554 -0.038100488
-0.00268146 0.010711527 -0.038100459
-0.003218625 0.0092835976 -0.03810057
-0.0026826705 0.00981938 -0.038100295
-0.0021453716 0.0098196836 -0.038099941
-0.0021455935 0.0092833955 -0.038100094
-0.0026817175 0.009283945 -0.038100146
-0.00035806527 0.01321192 -0.03809977
-0.00071472413 0.013746661 -0.038099468
0.0017883989 0.014817906 -0.038099855
0.00017849111 0.015711341 -0.038099721
0.0017885605 0.010711773 -0.03809987
0.0017879186 0.011246931 -0.038099337
0.0012512641 0.010711348 -0.03809974
-0.0012517774 0.012318942 -0.038099967
-0.0051856791 0.0057135909 -0.03809993
-0.0051853675 0.0053560408 -0.038099386
-0.0057211784 0.005356031 -0.038100142
-0.0057216105 0.0057132435 -0.038099606
-0.003218685 0.0098197069 -0.038100004
-0.003754722 0.0098190662 -0.03809987
0.0017874528 0.022137946 -0.033811137
0.002145987 0.021244913 -0.02880799
0.0037543715 0.021245379 -0.030773554
0.0042917281 0.021246035 -0.032202478
0.0046484075 0.021245116 -0.032739673
0.0046483204 0.021067346 -0.030773215
0.00071587018 0.021781558 -0.02380489
0.00017946544 0.02178069 -0.024161842
-0.00035696931 0.021781407 -0.023804689
0.0042915232 0.022316668 -0.037742034
0.0062582423 0.022852758 -0.035777546
0.0042909817 -0.00678402 -0.038099442
0.0042909426 -0.007320324 -0.038099341
0.0062577091 -0.013747435 -0.038099736
0.0062585007 -0.01428239 -0.03810028
0.0051856586 -0.013211044 -0.038100213
0.0051847203 -0.014282616 -0.038100462
0.0042912895 -0.01428244 -0.038099468
0.00572195 -0.013211785 -0.03810022
0.010191813 -0.016246526 -0.038099587
0.010192433 -0.016781561 -0.038100034
0.0087617347 -0.016245866 -0.038099639
0.0082250228 -0.014818488 -0.038099747
0.0082246345 -0.015354224 -0.038099684
0.0067950431 -0.016247088 -0.038100168
0.0067944909 -0.016782129 -0.038100082
0.0062582768 -0.016781665 -0.038099386
-0.0076891361 -0.0032136061 -0.038099352
-0.0076879286 -0.0028570388 -0.038099371
-0.0067941723 -0.00035767042 -0.038100172
-0.0062579527 -0.0007143463 -0.038100347
-0.0057215076 -0.00071414124 -0.038100623
-0.0087618446 0.0023207911 -0.038100563
-0.0082256133 0.0017852874 -0.038099699
-0.0082255621 0.0023206654 -0.038099967
-0.0092980023 0.0023206745 -0.038099773
-0.0096557792 0.0023209059 -0.038100127
-0.009655985 0.0028567233 -0.038100082
-0.0087613538 0.0017857559 -0.038099371
-0.0082254251 0.0012502986 -0.038099464
-0.0087615652 0.0012500208 -0.038100574
-0.0067944471 0.0042853802 -0.038100593
-0.0067940727 0.0028560092 -0.03810031
-0.0071517401 0.0028562041 -0.038100295
-0.0067942147 0.0032142552 -0.038099408
-0.0076891971 0.00125028 -0.038099669
-0.0076888604 0.0067839925 -0.038100585
-0.0082254633 0.0073193102 -0.038099661
-0.0076886634 0.0073203477 -0.0381
-0.0082245851 0.0067836507 -0.038099483
-0.0071521308 0.0098190838 -0.038100239
-0.0071518938 0.010354767 -0.038100366
-0.0071521923 0.0078549245 -0.038100205
-0.0067940974 0.0073204315 -0.038099468
-0.0067946324 0.007854796 -0.038100153
-0.007152162 0.0067838398 -0.038099915
-0.01019241 0.0098195216 -0.038100585
-0.0087607857 0.0082128579 -0.038100626
-0.0092975879 0.0082127256 -0.038099706
-0.009298061 0.0078551574 -0.03809993
-0.0087608648 0.0078549199 -0.03809981
-0.012158044 0.0092837857 -0.038100556
-0.012695645 0.0078555951 -0.038100436
-0.010192351 0.0067845481 -0.038100541
-0.011801265 0.0062483666 -0.038100369
-0.013231311 0.0062480876 -0.038100526
-0.012694856 0.0082118968 -0.038100377
-0.012158626 0.0082119647 -0.038099885
-0.01180047 0.0078558084 -0.038100261
-0.01019156 0.0073193172 -0.038099747
-0.011265268 0.0078549031 -0.038100503
0.00071559031 0.0062489216 -0.038099721
0.00017874615 0.006783735 -0.038100269
0.00071458734 0.0067844503 -0.038100328
0.0012517688 0.0067848568 -0.038100176
-0.00035733124 0.0067837434 -0.038100533
0.00017945508 0.0062486278 -0.038099594
0.00017828878 0.0057129324 -0.038099498
-0.00071583386 0.0073198923 -0.038100656
-0.00035788049 0.0073204162 -0.038100094
-0.015734313 -0.00071391318 -0.038100623
-0.015734179 -0.00035759914 -0.038100086
-0.014661675 -0.0067843739 -0.038100608
