# .PCD v0.7 - Point Cloud Data file format
VERSION 0.7
FIELDS x y z
SIZE 4 4 4
TYPE F F F
COUNT 1 1 1
WIDTH 1182
HEIGHT 1
VIEWPOINT 0 0 0 1 0 0 0
POINTS 1182
DATA ascii
0.018746745 0.0043030586 -0.00032173353
0.019302787 0.0047811768 -0.00032173353
0.020097146 0.0031874508 -0.00080433325
0.020160692 0.003187451 -0.0013191066
0.017714085 0.0062155295 -0.00032173353
0.01676086 0.0057374118 -0.00032173353
0.016284253 0.0057374113 -0.00032173353
0.017714087 0.0081280014 -0.0003217333
0.018190699 0.0072514513 -0.00032173353
0.016760858 0.0078092557 -0.0003217333
0.016284253 0.0078092557 -0.0003217333
0.01628425 0.0081280014 -0.00080433325
0.015807636 0.0081280014 -0.00080433337
0.01628425 0.0081280014 -0.0003217333
0.0092939362 -0.0012590432 -0.0051638195
0.0088173253 -0.0012749805 -0.0051477333
0.0088385083 -0.00077561312 -0.0052120793
0.0042100744 -0.0017530982 -0.0051477333
0.0042100744 -0.0012749805 -0.0051477333
0.0023036255 -0.0022312158 -0.0051477333
0.0023036255 -0.0017530982 -0.0051477333
0.00027361047 -0.0038072334 -0.0051477333
0.00071491813 -0.0031874508 -0.0051477333
0.00071491813 -0.0037452551 -0.0051477333
0.00023830589 -0.0022312158 -0.0051477333
0.00071491813 -0.0057374118 -0.0051477333
0.00023830589 -0.0017530982 -0.0051477333
0.0072286171 0.00079686282 -0.005228166
0.0077052298 0.00079686282 -0.005228166
0.011200385 0.0037452553 -0.00032173353
0.011200388 0.0043030586 -0.0003217333
0.0072331564 0.0072446219 -0.00031713722
0.0072355256 0.0078231143 -0.0002937566
0.0067520053 0.0072514531 -0.00032173353
0.006275394 0.0072514513 -0.00032173353
0.0077052289 0.0072514522 -0.00032173353
0.0077052317 0.0066936468 -0.0003217333
0.0007149186 0.0037452553 -0.0003217333
0.0007149186 0.0043030586 -0.00032173353
0.00071491813 0.003187451 -0.0003217333
0.0042100749 -0.0031874508 -0.0003217333
0.0042100744 -0.0037452553 -0.00032173353
0.0037334627 -0.0037452553 -0.0003217333
0.0032568497 -0.0037452558 -0.00032173353
0.0027802372 -0.0043030586 -0.0003217333
0.0046866867 -0.0043030586 -0.0003217333
0.0052427319 -0.0037452553 -0.0003217333
0.0052427333 -0.0043030586 -0.00032173353
0.018746743 -0.0022312158 -0.0051477333
0.018190699 -0.0027093336 -0.0051477333
0.018746745 -0.0027093336 -0.0051477333
0.019302793 -0.0027093336 -0.0051477333
0.018190699 -0.0037452551 -0.0051477333
0.017237475 -0.0031874508 -0.0051477333
0.019302793 -0.00031874512 -0.0051477333
0.019302791 0.00023905885 -0.0051477333
0.019779405 0.00023905885 -0.0051477333
0.019779406 -0.00031874512 -0.0051477333
0.019779405 -0.00079686282 -0.0051477333
0.019302793 -0.0012749805 -0.0051477333
0.015807636 0.00079686282 -0.0051477333
0.011756433 0.0022312154 -0.00032173353
0.011200388 0.0022312156 -0.00032173353
0.011200388 0.0027093333 -0.0003217333
0.013265704 -0.00031874512 -0.0003217333
0.012312479 0.001753098 -0.0003217333
0.012789094 0.0022312156 -0.0003217333
0.012312479 0.0022312154 -0.0003217333
0.011756435 0.00023905885 -0.0003217333
0.011200386 0.0007968627 -0.00032173353
0.010723772 0.00023905883 -0.00032173353
0.011200388 0.00023905883 -0.00032173353
0.019779408 0.0022312154 -0.0003217333
0.019779408 -0.00031874512 -0.00032173353
0.019779405 -0.0007968627 -0.0003217333
0.020160696 -0.00079686282 -0.00028956006
0.019302789 -0.00031874512 -0.00032173353
0.020097146 0.00021249674 -0.00026811124
0.020126032 -0.00034772197 -0.00030710921
0.019779408 -0.0012749804 -0.00032173353
0.019302789 -0.0012749804 -0.00032173353
0.018746743 -0.00031874512 -0.00032173353
0.018746743 -0.00079686265 -0.00032173353
0.018746747 0.0007968627 -0.00032173353
0.01874675 0.0052592945 -0.00032173353
0.020256016 0.005099922 -0.0041825334
0.018746747 0.0081280014 -0.0032173332
0.02023332 0.0077068019 -0.0041595516
0.018190699 0.0047811768 -0.0051477333
0.018190699 0.0043030586 -0.0051477333
0.017714085 0.0047811768 -0.0051477333
0.018746745 0.0047811768 -0.0051477333
0.018746745 0.0052592941 -0.0051477333
0.020097146 0.0011156079 -0.0051477333
0.019779406 0.0017530982 -0.0051477333
0.020097146 0.0023109021 -0.0051477333
0.016760863 0.0043030591 -0.0051477333
0.016760862 0.0037452551 -0.0051477333
0.01628425 0.0043030591 -0.0051477333
0.01628425 0.0037452553 -0.0051477333
0.016760862 0.0031874508 -0.0051477333
0.017237473 0.0031874508 -0.0051477333
0.01628425 0.0027093336 -0.0051477333
0.015807636 0.0027093336 -0.0051477333
0.01628425 0.0031874508 -0.0051477333
0.015251588 0.0062155295 -0.0051477333
0.015807636 0.00621553 -0.0051477333
0.015251591 0.0057374113 -0.0051477333
0.015807636 0.0066936472 -0.0051477333
0.01628425 0.00621553 -0.0051477333
0.01628425 0.0057374123 -0.0051477333
0.017237473 0.0057374123 -0.0051477333
0.017714087 0.0057374113 -0.0051477333
0.017714085 0.007729569 -0.0051477333
0.017714083 0.0062155295 -0.0051477333
0.020256016 0.0043030586 -0.0017695328
0.020192467 0.0037739426 -0.0012998027
0.020203058 0.0037718175 -0.0017695331
0.0057193465 -0.0076498832 -0.0022521336
-0.018746747 -0.0057374123 -0.0030564666
-0.01628425 -0.0066936468 -0.0030564666
0.01231248 -0.0081280014 -0.00072390004
0.01231248 -0.007729569 -0.0018499667
0.011200386 -0.0081280014 -0.0036999332
0.010723774 -0.0081280014 -0.0036999334
0.011200386 -0.0081280004 -0.0033782001
0.011756434 -0.0081280014 -0.0036999332
0.011279821 -0.0081280004 -0.00072390004
0.011279821 -0.0076498827 -0.0012065
0.0077052298 -0.0071717645 -0.0012869333
0.0088173263 -0.0070920787 -0.0022521331
0.0088173253 -0.0070920787 -0.0027347333
0.012312481 -0.0077295685 -0.0022521329
0.011756434 -0.0081280004 -0.0033781999
0.012312482 -0.0081280004 -0.0033782001
0.007228618 -0.007171765 -0.0027347335
0.0057987813 -0.0072297198 -0.0036853084
0.0035745914 -0.0081280004 -0.00072390004
0.0032568499 -0.0081280004 -0.0017695333
0.0046866857 -0.0076498832 -0.0036195002
0.0046866862 -0.0076498822 -0.0043433998
0.0041646822 -0.0076498832 -0.0042055142
0.0027802377 -0.0062155295 -0.0003217333
0.0042100744 -0.0078092548 -0.0003217333
0.004661601 -0.0077505386 -0.00078740017
0.0027575418 -0.0081280014 -0.00075837132
0.0023036255 -0.0077893347 -0.0036798248
0.0032341536 -0.0077068019 -0.0042055137
0.0032469204 -0.007719608 -0.003679825
-0.014701216 -0.0037281797 -0.002780695
-0.01421893 -0.0037186933 -0.0027883558
-0.01373684 -0.0037150299 -0.0027735636
-0.014695544 -0.0027093331 -0.0027347335
-0.0042100744 -0.0027093333 -0.0027347337
-0.0042100744 -0.0031874508 -0.002734734
-0.0037334636 -0.0031874508 -0.0027347337
-0.010247163 -0.00079686276 -0.0027347335
-0.0072286185 -0.0027093333 -0.0027347335
-0.0072286185 -0.003187451 -0.0027347337
-0.0077052321 -0.003187451 -0.0027347337
-0.01581311 -0.0037644901 -0.0027735634
-0.015801279 -0.0042966837 -0.002747603
-0.017237473 -0.0057312823 -0.0027409205
-0.018190695 -0.0052592941 -0.0028151665
0.0027802377 -0.00079686276 -0.0003217333
0.0032568495 -0.0012749804 -0.0003217333
0.0027802372 -0.0012749804 -0.0003217333
0.0017475779 0.00023905885 -0.00032173353
0.002303625 0.00023905883 -0.0003217333
0.0017475779 -0.00031874512 -0.0003217333
0.0011915304 -0.00031874512 -0.0003217333
0.0011915308 0.00023905883 -0.00032173353
0.0037334624 -0.001753098 -0.00032173353
0.0046866862 -0.0022312158 -0.0003217333
0.0046866857 -0.0017530982 -0.0003217333
0.0046866857 -0.0027093333 -0.00032173353
0.0052427319 -0.0027093338 -0.00032173353
0.0023036255 -0.003187451 -0.0003217333
0.0077370047 -0.0081280004 -0.0046007866
0.0082877558 -0.0081280014 -0.0046293852
0.010247162 -0.0081280004 -0.0033782001
0.004210074 0.0076498822 -0.0051477333
0.0068314411 0.0076498832 -0.0036999332
0.0017475779 0.0077893338 -0.0031972243
0.00118542 0.0078031253 -0.0032111458
0.0027802377 0.0077136317 -0.00318516
0.0027802377 0.0076498827 -0.0036999332
-0.012789095 0.0057374113 -0.0028151667
-0.012789093 0.0062155295 -0.0028151665
-0.012789095 0.005259295 -0.002815167
-0.012312483 0.0057374113 -0.0028151667
-0.013265705 0.0066936477 -0.0028151663
-0.012789095 0.0066936472 -0.0028151665
-0.013265705 0.0062155295 -0.0028151672
-0.0037334627 0.005259295 -0.0028151663
-0.0042100754 0.0047811768 -0.0028151665
-0.0042100744 0.0052592941 -0.0028151665
0.00023830589 0.0047811768 -0.0003217333
0.0007149186 0.0047811773 -0.0003217333
-0.011756433 0.0037452553 -0.0028151674
-0.0088173244 0.0057374118 -0.0028151665
-0.0092939381 0.0062155295 -0.002815167
-0.0092939381 0.0057374113 -0.002815167
-0.0092939381 0.0052592945 -0.0028151665
-0.010247162 0.0066936482 -0.0028151667
-0.006275394 0.0043030586 -0.0028151663
-0.0067520067 0.0047811773 -0.0028151665
-0.006275394 0.0031874508 -0.0028151663
-0.0067520067 0.0037452551 -0.0030564666
-0.006275394 0.0037452551 -0.0030564666
-0.0067520058 0.0043030591 -0.0030564666
-0.0072286176 0.0043030586 -0.0030564666
-0.0057987813 0.003187451 -0.0030564666
-0.0052427351 0.0027093336 -0.0030564666
-0.0052427342 0.0031874508 -0.0030564666
-0.0097705498 0.0037452551 -0.0028151667
-0.0077052312 0.0043030591 -0.002815166
-0.0077052312 0.0062155295 -0.0030564666
-0.0082612755 0.0062155295 -0.0028151667
-0.0052427342 0.0062155291 -0.0030564666
-0.0057987813 0.0062155295 -0.0030564666
-0.006275394 0.0057374123 -0.0030564666
-0.0067520058 0.0057374113 -0.0030564666
-0.006275394 0.0062155295 -0.0030564666
-0.0067520067 0.0072514513 -0.0028151667
-0.0072286185 0.0062155295 -0.002815167
-0.0062753949 0.0072514513 -0.0030564666
-0.012312481 0.0052592945 -0.0028151663
-0.013265705 0.0052592945 -0.0028151667
-0.006275394 0.0043030591 -0.0030564666
-0.0057987813 0.0037452551 -0.0030564666
0.0027802372 0.0043030586 -0.00032173353
0.0032568497 0.0043030586 -0.00032173353
0.0027802377 0.0047811773 -0.00032173353
-0.020732634 0.003187451 -0.0028151667
-0.020256016 0.0027093336 -0.002815167
-0.020256018 0.0022312154 -0.0028151665
-0.019779406 0.0027093331 -0.0028151667
-0.0002184473 0.0027093331 -0.00034184172
-0.011200389 0.0012749805 -0.0027347337
-0.020666433 0.0052327323 -0.0028285722
-0.020732632 0.00023905885 -0.0028151672
-0.020732632 -0.001753098 -0.0028151665
-0.020256015 -0.0012749804 -0.0028151667
-0.011756433 0.0012749804 -0.0027347337
-0.012312479 0.0012749804 -0.0027347335
-0.012312481 0.0017530982 -0.0027712935
-0.012312481 0.0022232472 -0.0027910362
-0.011756435 0.0022312154 -0.0028151665
-0.011756433 0.0027093329 -0.0028151667
-0.012789095 0.00023905885 -0.0030564666
-0.012789093 0.00079686282 -0.0030564666
-0.012789093 -0.00031874512 -0.0030564666
-0.012312481 0.00023905883 -0.0027347344
-0.012789097 -0.00031874512 -0.0027347335
-0.012312479 -0.00031874512 -0.0027347335
-0.012789097 0.00023905883 -0.002734734
-0.014207581 -0.0017189468 -0.0031139187
-0.013245845 -0.0031874513 -0.0031268457
-0.013742318 -0.0022457039 -0.0030857148
-0.01421893 -0.0022312158 -0.0030564666
-0.013265707 -0.00079686282 -0.0030564666
-0.012789093 -0.00079686282 -0.0030564666
-0.012325721 -0.00079686282 -0.003096683
-0.00015887059 0.00079686282 -0.0051477333
-0.017714087 0.00079686282 -0.0028151663
-0.018183788 0.0012819095 -0.00276271
-0.01722911 0.0007884748 -0.0028024663
-0.00023830635 0.0062155291 -0.0047455672
-0.00023830635 0.0066936472 -0.0051477333
-0.0017475784 0.0027093333 -0.002734734
0.00023830589 0.0017530982 -0.0051477333
-0.00023830589 0.0022312151 -0.0047455663
-0.00023830589 0.001753098 -0.0047455668
-0.00055604754 0.0017530982 -0.0036194995
-0.0017475784 0.0017530982 -0.0031368996
-0.0017158035 0.0022152783 -0.0031208131
-0.0022936957 0.0017331765 -0.0031268457
-0.0011915304 0.0022312156 -0.0031368998
-0.0011915304 0.0017530982 -0.0031368998
-0.0023036255 0.0012749803 -0.0031368998
-0.0017475784 0.0012749803 -0.0031368996
-0.0092939381 0.0012749805 -0.0030564666
-0.0088173263 0.0012749805 -0.0030564666
-0.0097705498 0.0017530982 -0.0030564666
-0.0027802382 0.0066936472 -0.0028151667
-0.0017475784 0.0066936477 -0.0030564666
-0.0011915304 0.0066936468 -0.0030564666
0.00023830589 0.0066936463 -0.00032173353
0.0007149186 0.0066936482 -0.0003217333
-0.01628425 0.0062155295 -0.0028151665
-0.016284252 0.0057374113 -0.0028151665
-0.016760862 0.0057374118 -0.002815166
-0.017237475 0.0052592941 -0.0030564666
-0.017714083 0.0057374123 -0.0028151665
-0.017714085 0.0052592945 -0.0028151665
-0.017237473 0.0052592945 -0.0028151663
-0.01525159 0.0057374113 -0.0030564666
-0.01628425 0.0052592941 -0.0030564666
-0.0017475784 0.0062155295 -0.0028151665
-0.00023830635 0.0043030586 -0.0012869333
-0.00023830635 0.0047811768 -0.0012869333
-0.00055604754 0.0031874508 -0.0019303999
-0.00023830635 0.0031874508 -0.0012869334
0.0027802377 -0.0047811768 -0.0003217333
0.00071491813 -0.0078092557 -0.0017695333
0.0017952393 -0.0081280004 -0.0031208131
0.0007149186 -0.0078092557 -0.0036999332
0.0007149186 -0.0078092557 -0.0032173332
0.0011915304 -0.0078092557 -0.003217333
0.00023830589 -0.0078092548 -0.0036999334
0.00071491813 -0.0081280014 -0.0026543001
-0.0062674498 0.0026933961 -0.0027910369
-0.0032568499 0.00079686276 -0.002734734
-0.0037334627 0.001753098 -0.0027347335
-0.0046866862 0.0052592945 -0.0028151665
-0.0052427342 0.0043030591 -0.0030564666
-0.0046866862 0.0047811768 -0.0030564666
-0.0046866862 0.0043030591 -0.0030564666
-0.0037334636 0.0037186935 -0.002788356
-0.0027802382 0.0031874508 -0.0027347337
-0.0027643507 0.0037293183 -0.0027669067
-0.0023036255 0.0037452551 -0.0027347342
-0.0027802372 0.0012749803 -0.0031368998
-0.003256849 0.00079686282 -0.0031368998
-0.0027802382 0.00079686282 -0.0031368998
-0.0027802382 0.0017212236 -0.0031208133
-0.0002184473 0.0017730198 -0.0051477333
-0.018190697 0.00079686282 -0.0030564666
-0.018746747 0.00023905885 -0.0030564666
-0.019302793 0.00023905885 -0.0030564666
-0.0077052303 0.0017530982 -0.0030564666
-0.0082612773 0.0017530982 -0.0030564666
-0.0082612773 0.0012749805 -0.0030564666
-0.0032568499 -0.00031874512 -0.0031368998
-0.0027802382 -0.00031874512 -0.0031368996
-0.0027802372 -0.00079686282 -0.0031368998
-0.00055604754 0.0012749805 -0.0019303999
-0.00055604754 0.001753098 -0.0019303999
-0.0023036255 0.0017530982 -0.0027347337
-0.0023036255 0.0022312158 -0.0027347337
-0.0027802382 0.0022312156 -0.0027347335
-0.0017475784 0.0022312151 -0.002734734
-0.0017475784 0.001753098 -0.0027347347
0.00023830589 0.0078092557 -0.00080433348
0.0007149186 0.0078092557 -0.0022521331
0.0007149186 0.0078092557 -0.0027347337
0.00023830589 0.0078092557 -0.003217333
0.0007149186 0.0078092557 -0.003217333
0.0011915304 0.0078092553 -0.0027347337
-0.0011915304 0.0072514513 -0.0030564666
-0.0011915304 0.0078092548 -0.0030564666
-0.00066603487 0.0077847368 -0.0031307128
-0.00023219548 0.0078031262 -0.0036937462
0.0007149186 0.0078092557 -0.001769533
-0.00019291462 0.0066936472 -0.00080433337
0.001721099 0.0077030072 -0.004155722
0.0017393604 0.0077213254 -0.0047705295
0.014695542 -0.0081280014 -0.00080433325
0.015251589 -0.0081280014 -0.00080433337
0.015251589 -0.0081280014 -0.0012065
0.014695543 -0.0081280014 -0.0018499666
0.014695542 -0.0081280014 -0.0003217333
0.015807636 -0.0081280014 -0.0003217333
0.01525159 -0.0078092567 -0.00032173353
0.015251587 -0.0072514527 -0.00032173353
0.016760863 -0.0081280014 -0.00080433337
0.018190699 -0.0081280014 -0.0036999332
0.018190695 -0.0081280014 -0.0027347333
0.015807636 -0.0081280014 -0.003217333
0.01525159 -0.0081280014 -0.0032977664
0.015251588 -0.0081280014 -0.0036999334
0.015251589 -0.0081280014 -0.0041825329
0.012789093 -0.0081280014 -0.0036999332
0.01469554 -0.0072514513 -0.00032173353
0.014298365 -0.0081280004 -0.0018499666
0.013265704 -0.0062155295 -0.00032173353
0.012789093 -0.007729569 -0.0018499667
0.013742317 -0.0077864877 -0.0018154952
0.013742317 -0.0078092548 -0.0022521331
0.013288402 -0.0081280014 -0.00075837155
0.010247163 -0.0047811768 -0.0003217333
0.011756432 -0.0037452553 -0.00032173353
0.011756433 -0.0031874506 -0.0003217333
0.01120039 -0.003187451 -0.0003217333
0.012312483 -0.0037452558 -0.00032173353
0.01231248 -0.0047811768 -0.0003217333
0.011756433 -0.0047811768 -0.0003217333
0.012312478 -0.0052592945 -0.0003217333
0.011756435 -0.005259295 -0.00032173353
0.013265703 -0.003187451 -0.0003217333
0.012789094 -0.003187451 -0.0003217333
0.012789097 -0.0027093336 -0.0003217333
0.01231248 -0.0027093333 -0.00032173353
0.01231248 -0.0022312154 -0.0003217333
0.01231248 -0.0031874508 -0.0003217333
0.012789094 -0.0057374118 -0.0003217333
0.012789095 -0.0052592945 -0.0003217333
0.010247163 -0.0052592955 -0.0003217333
0.009770547 -0.0052592955 -0.00032173353
0.0097705489 -0.0057374118 -0.0003217333
0.010247163 -0.0057374123 -0.00032173353
0.009770548 -0.0062155295 -0.0003217333
0.01024716 -0.0066936472 -0.0003217333
0.010247163 -0.00621553 -0.00032173353
0.010723773 -0.0062155295 -0.0003217333
0.0093008447 -0.0077884677 -0.0002937566
0.0097705461 -0.0072514513 -0.00032173353
0.010247161 -0.0072514513 -0.00032173353
0.011756432 -0.0072514508 -0.0003217333
0.011200387 -0.0066936472 -0.0003217333
0.01421893 -0.00079686282 -0.0051477333
0.01421893 -0.0012749805 -0.0051477333
0.017237473 0.00023905883 -0.0003217333
0.016760862 0.00023905883 -0.00032173353
0.01676086 -0.001753098 -0.00032173353
0.016760858 -0.0043030586 -0.00032173353
0.017237475 -0.0043030586 -0.0003217333
0.017237466 -0.0037452553 -0.00032173353
0.006275394 -0.0062155286 -0.00032173353
0.0052427324 -0.0062155295 -0.0003217333
0.0067520048 -0.0066936472 -0.00032173353
0.0067520053 -0.0052592945 -0.0003217333
0.0057987804 -0.0043030586 -0.00032173353
0.0067520058 -0.0022312156 -0.00032173353
0.0077052307 -0.0043030586 -0.0003217333
0.0062753949 -0.0031874513 -0.00032173353
0.01525159 -0.0057374109 -0.0003217333
0.015251587 -0.0066936468 -0.0003217333
0.018190697 -0.0057374118 -0.0003217333
0.017237475 -0.0052592945 -0.0003217333
0.017237473 -0.0047811768 -0.0003217333
0.019239245 -0.0061730305 -0.00036463118
0.020256016 -0.0057374123 -0.00040216674
0.01525159 -0.0047811768 -0.0003217333
0.017714085 -0.0081280014 -0.0017695331
0.017714085 -0.0081280014 -0.0012869333
0.018190697 -0.0081280014 -0.00080433337
0.016760863 -0.0081280014 -0.0032173332
0.016760863 -0.0081280014 -0.0017695331
0.016760863 -0.0081280014 -0.0022521333
0.018746745 -0.0066936472 -0.00032173353
0.018190697 -0.0066936468 -0.00032173353
0.018190701 -0.0072514513 -0.0003217333
0.017237473 -0.0072514513 -0.00032173353
0.017714085 -0.0066936468 -0.0003217333
0.016760858 -0.0057374113 -0.0003217333
0.016284253 -0.0062155295 -0.00032173353
0.020256015 -0.0055780392 -0.0014478
0.019207472 -0.006183655 -0.0017695334
0.020626716 -0.0037983793 -0.0022521331
0.020622643 -0.0048056957 -0.0036751849
0.019143922 -0.0066936472 -0.0017695331
0.018190695 -0.0012749804 -0.00032173353
0.018190693 -0.001753098 -0.00032173353
0.018746749 -0.001753098 -0.0003217333
0.020256018 -0.0037452551 -0.00032173353
0.020176578 -0.0027093331 -0.00080433337
0.020256015 -0.0031874508 -0.0003217333
-0.0046866862 -0.0077295695 -0.0030564666
-0.0052427342 -0.0072514513 -0.0030564666
-0.0046866862 -0.0072514508 -0.0030564666
-0.0092939381 -0.007729569 -0.0028151665
-0.0042100744 -0.0072514513 -0.0030564666
-0.0046866862 -0.0066936472 -0.0030564666
-0.015225111 -0.0071186405 -0.0030564666
-0.0072286185 -0.0072514508 -0.0030564666
-0.0097705498 -0.0072514513 -0.0030564666
-0.010247163 -0.0072514513 -0.0030564666
-0.010723773 -0.0066936468 -0.0030564666
-0.0097705517 -0.0066936472 -0.0030564666
-0.011200387 -0.0066936472 -0.0030564666
-0.011756435 -0.0066936477 -0.0030564666
-0.011756435 -0.00621553 -0.0030564666
-0.0032568499 -0.0052592941 -0.0030564666
-0.0027802382 -0.0052592945 -0.0030564666
-0.0027802382 -0.0047811768 -0.0030564666
-0.013742318 -0.0057374113 -0.0030564666
-0.01421893 -0.0052592941 -0.0030564666
-0.013742318 -0.0052592941 -0.0030564666
-0.012312481 -0.0062155295 -0.0030564666
-0.012312481 -0.0057374118 -0.0030564666
-0.012789093 -0.0057374123 -0.0030564666
-0.010247162 -0.0062155295 -0.0030564666
-0.0032568499 -0.0043030591 -0.0030564666
-0.0032568499 -0.0047811768 -0.0030564666
-0.00014298363 -0.0048130513 -0.0051477333
-0.00023830589 -0.0043030586 -0.0047455668
-0.00023830589 -0.0047811773 -0.0047455672
-0.0088173263 -0.0057374118 -0.0030564666
-0.0092939381 -0.0052592941 -0.0030564666
-0.0088173263 -0.0052592941 -0.0030564666
-0.0092939381 -0.0057374118 -0.0030564666
-0.017237473 -0.0057374123 -0.0030564666
-0.0092939381 -0.0066936472 -0.0030564666
-0.0082612773 -0.0057374113 -0.0030564666
-0.0077052312 -0.0062155295 -0.0030564666
-0.0082612773 -0.0052592945 -0.0030564666
-0.018190699 -0.0062155295 -0.0030564666
-0.018190699 -0.0057374118 -0.0030564666
-0.0072286185 -0.0066936472 -0.0030564666
-0.006275394 -0.0062155295 -0.0030564666
-0.0062753949 -0.0066936472 -0.0030564666
-0.0057987813 -0.0066936472 -0.0030564666
-0.0027802382 -0.0057374123 -0.0030564666
-0.0032568499 -0.0057374118 -0.0030564666
-0.014204487 -0.0072297188 -0.0030564666
-0.013742318 -0.0062155295 -0.0030564666
-0.006275394 -0.0072514522 -0.0028151663
-0.011756433 -0.0057374113 -0.0030564666
-0.0002238634 -0.0072297193 -0.0017695334
-0.0002238634 -0.0072297198 -0.0012869334
-0.0011915304 -0.0078092548 -0.0030564666
-0.0017475784 -0.0081280004 -0.0027347333
-0.0092939381 -0.0072514513 -0.0030564666
0.0052244025 -0.0076621426 -0.0012869333
0.0046866862 -0.0052592945 -0.0003217333
-0.0032568499 -0.0072514508 -0.0030564666
-0.0032568499 -0.0062155295 -0.0030564666
-0.0037334627 -0.0072514513 -0.0028151665
-0.0037334617 -0.0078092548 -0.0030564666
-0.0037334617 -0.0072514513 -0.0030564666
-0.00023830635 -0.0066936468 -0.0017695329
-0.0011915304 -0.0078092557 -0.0028151663
-0.0017475784 -0.0078092557 -0.0028151665
-0.0037334627 -0.0066936477 -0.002815166
-0.0032568499 -0.0066936482 -0.002815167
-0.0023036255 -0.0078092557 -0.0028151665
-0.0023036255 -0.0081280014 -0.0028151665
-0.0002238634 -0.0072297193 -0.0041825329
-0.00055604754 -0.0060561574 -0.0036999332
-0.00055604754 -0.0057374113 -0.0036999332
-0.0011915304 -0.0062155295 -0.0030564666
-0.013742317 -0.0066936477 -0.0028151658
-0.014241628 -0.0047811773 -0.0027806947
0.0017475779 -0.0062155295 -0.00032173353
0.0011915304 -0.0037452553 -0.00032173353
0.00071491813 -0.0037452551 -0.0003217333
0.0011915304 -0.003187451 -0.0003217333
0.0007149186 -0.0047811768 -0.0003217333
0.00023830589 -0.0047811768 -0.00032173353
-0.0072286185 0.00023905883 -0.002734734
-0.0067520048 0.00023905883 -0.0027347344
-0.0067520058 -0.00031874512 -0.0027347337
-0.0042100744 0.0012749801 -0.0027347335
-0.0042100744 0.00079686276 -0.0027347335
-0.0037334627 0.00079686276 -0.0027347337
-0.0042100754 0.00023905885 -0.0031369
-0.0042100735 -0.00031874512 -0.0031368998
-0.0037334627 -0.00031874512 -0.0031368998
-0.0046866862 0.00079686276 -0.0027347337
-0.0042100744 0.00023905883 -0.002734734
0.00071491813 0.0022312158 -0.0003217333
0.00023830589 0.0012749804 -0.0003217333
0.00023830589 0.0007968627 -0.0003217333
0.00071491813 0.0007968627 -0.0003217333
0.00023830589 0.00023905883 -0.00032173353
0.0007149186 0.0012749804 -0.00032173353
0.0007149186 -0.00031874512 -0.0003217333
0.00023830589 -0.00031874512 -0.0003217333
0.0011915304 -0.0027093331 -0.0003217333
0.0011915304 -0.0022312156 -0.0003217333
0.00071491813 -0.0031874508 -0.0003217333
-0.0042100754 -0.00079686282 -0.0031369
-0.0037334627 -0.0017212236 -0.0031208133
-0.0092939381 0.0027093336 -0.0030564666
-0.0097705498 0.0027093336 -0.0030564666
-0.0097705498 0.003187451 -0.0030564666
-0.0088173263 0.0012749804 -0.0027347335
-0.0088173244 0.00079686276 -0.0027347337
-0.011200387 -0.0026993724 -0.0031268457
-0.011789141 -0.0027187082 -0.0031037799
-0.012815572 -0.0012749805 -0.0030966832
-0.013290146 -0.0017285793 -0.003105964
-0.012802333 -0.0017398172 -0.0030966836
-0.011756433 -0.0012849412 -0.0030966832
-0.0088173244 -0.00079686282 -0.0030564666
-0.01075555 -0.0022312156 -0.0031208133
-0.010281205 -0.0022425994 -0.0031139192
-0.0098023247 -0.0027093333 -0.0031208133
-0.011200387 0.0031874513 -0.0028151667
-0.010247163 0.0031874508 -0.0030564666
-0.010247163 0.0037452551 -0.0030564666
-0.013265707 0.00079686282 -0.0030564666
-0.013265707 0.0012749805 -0.0030564666
-0.015251588 0.00079686282 -0.0030564666
-0.01525159 0.0012749805 -0.0030564666
-0.0067520058 -0.003720525 -0.0027735631
-0.0072286185 -0.00031874512 -0.0027347335
-0.019302793 -0.00031874512 -0.0030564666
-0.019779406 -0.00031874512 -0.0030564666
-0.019779405 -0.00079686282 -0.0030564666
-0.019787351 -0.00030280786 -0.0027910364
-0.019302791 0.001753098 -0.0028151665
-0.019302789 0.0012749804 -0.0028151667
-0.019779406 0.0012749804 -0.0028151665
-0.02073263 0.001753098 -0.0028151667
-0.020256016 0.001753098 -0.0028151665
-0.020256015 0.0012749804 -0.002815166
-0.016760862 0.0027093336 -0.0030564666
-0.017237473 0.0027093336 -0.0030564666
-0.016760863 0.003187451 -0.0030564666
-0.018746747 0.0043030591 -0.0030564666
-0.018190697 0.0037452551 -0.0030564666
-0.018199058 0.00080525083 -0.0028024665
-0.020256016 -0.00079686282 -0.0030564666
-0.0072286185 -0.00031874512 -0.0030564666
-0.0072286185 0.00023905885 -0.0030564666
-0.0067520058 0.0022312158 -0.0030564666
-0.0067444406 0.001753098 -0.002780695
0.0077052307 0.0031874513 -0.005228166
0.010755548 0.0077136317 -0.0051477333
0.010723773 0.0081280004 -0.0051477333
0.011220244 0.0077893338 -0.0051477333
0.010261604 0.0037307672 -0.0052208537
0.011756431 0.0037452551 -0.0052096047
0.011756432 0.0043030591 -0.0052013551
0.011746503 0.0047512944 -0.0051879496
0.014695542 0.0057374118 -0.0051477333
0.015251588 0.0052592941 -0.0051477333
0.0088173253 0.0057374118 -0.0051477333
0.0092939371 0.0066936477 -0.0051477333
0.0097705489 0.0066936472 -0.0051477333
0.019766698 0.0077965055 -0.003693498
0.01588707 -0.0057374118 -0.0051477333
0.0088173263 0.0022312156 -0.005228166
0.0092939381 0.0027093333 -0.005228166
0.0092939371 0.0022312158 -0.005228166
0.012312481 -0.0062155295 -0.0051477333
0.011756432 -0.0062155295 -0.0051477333
0.012312481 -0.0057374118 -0.0051477333
0.011200386 -0.0047811768 -0.0051477333
0.012312481 -0.0031874508 -0.0051477333
0.013265706 -0.0047811768 -0.0051477333
0.013742317 -0.0043030591 -0.0051477333
0.015251591 -0.0052592941 -0.0051477333
0.015251589 -0.0043030591 -0.0051477333
0.01421893 0.0022312156 -0.005228166
0.010247162 0.0012749804 -0.005228166
0.010723773 0.001753098 -0.005228166
0.010723773 0.0012749803 -0.005228166
0.010247162 0.001753098 -0.005228166
0.010723773 0.0022312156 -0.005228166
0.0097705498 0.0017530982 -0.005228166
0.011756431 0.0022312156 -0.005228166
0.011756432 0.001753098 -0.005228166
0.011200387 0.001753098 -0.005228166
0.012312482 0.0022312154 -0.005228166
0.013265705 0.0012749804 -0.005228166
0.011200387 0.0012749804 -0.005228166
0.013742317 0.0022312158 -0.005228166
0.012789094 0.0022312156 -0.005228166
0.013265706 0.0022312156 -0.005228166
0.014695542 -0.0031874508 -0.0051477333
0.015251589 -0.0027093336 -0.0051477333
0.013253485 -0.00028196684 -0.0051972303
0.013742317 -0.00031874512 -0.0051477333
0.013265705 -0.00079686282 -0.0051477333
0.016760862 0.00079686282 -0.0051477333
0.015797043 0.0017743479 -0.0052120793
0.01628425 -0.0012749805 -0.0051477333
0.015807636 -0.00079686282 -0.0051477333
0.01628425 -0.00079686282 -0.0051477333
0.01628425 -0.00031874512 -0.0051477333
0.015251589 -0.00079686282 -0.0051477333
0.014209585 0.00029062055 -0.0051950468
0.01024716 0.0031874513 -0.005228166
0.010247162 0.0027093333 -0.005228166
0.010723773 0.0027093331 -0.005228166
0.0097705489 0.0022312156 -0.005228166
0.019809194 -0.0063250982 -0.0048058918
0.018746745 -0.0047811768 -0.0051477333
0.020256018 -0.0037452551 -0.0051477333
0.020097146 -0.00079686282 -0.0041825334
0.020097146 -0.00079686282 -0.0046651335
0.020573759 0.0033468239 -0.002734733
0.020128923 -0.0013068549 -0.0047294805
0.020203058 -0.0027093336 -0.0047723777
0.020573759 -0.0033468236 -0.0036195
0.020573759 -0.0027093336 -0.0030564666
0.020573759 -0.0031874508 -0.002734733
0.020176582 -0.0022312158 -0.0041825329
0.020176578 -0.0027093333 -0.0041825329
0.020573759 -0.0033468236 -0.0049868664
0.020256016 -0.0031874508 -0.0041825329
0.020236155 -0.0022312154 -0.003679825
-0.019779405 -0.0037452548 -0.0030564666
-0.014695544 0.0066936477 -0.002815167
0.0032568497 -0.0066936477 -0.0051477333
0.0037190192 -0.0072297184 -0.0051477333
0.0032568497 -0.0072514513 -0.0051477333
0.0046866862 -0.0062155295 -0.0051477333
0.004210074 -0.0066936468 -0.0051477333
0.0046866857 -0.0066936477 -0.0051477333
0.0042100744 -0.0062155295 -0.0051477333
0.0067917239 -0.0076897256 -0.0051477333
0.0023036255 -0.0076498822 -0.0051477333
0.003727108 -0.0077391309 -0.004742349
0.003733462 -0.0076897256 -0.0042227502
0.0017475779 -0.00621553 -0.0051477333
0.0023036255 -0.0057374123 -0.0051477333
0.0017475779 -0.0057374113 -0.0051477333
0.0023036255 -0.0062155295 -0.0051477333
0.0011915304 -0.0047811773 -0.0051477333
0.0011915304 -0.0052592941 -0.0051477333
0.0017475779 -0.0047811768 -0.0051477333
0.00071491813 -0.0043030591 -0.0051477333
0.0011915304 -0.0043030591 -0.0051477333
0.0017475779 -0.0043030591 -0.0051477333
0.0023036255 -0.0037452553 -0.0051477333
0.0023036255 -0.0043030591 -0.0051477333
0.0011915304 -0.0037452551 -0.0051477333
-0.0017475784 -0.0047811768 -0.0030564666
-0.0023036255 -0.0047811768 -0.0030564666
-0.0023036255 -0.0043030591 -0.0030564666
-0.0052427333 -0.0043030586 -0.0028151667
-0.0046866862 -0.0043030586 -0.0028151667
-0.0037334617 -0.0043030591 -0.0030564666
-0.0027802372 -0.0037452553 -0.0027347344
-0.0017475784 -0.0062155295 -0.0028151665
-0.0017475784 -0.0066936463 -0.0028151667
-0.00055604754 -0.0062155295 -0.002413
-0.0011915304 -0.0062155295 -0.0028151663
-0.0017475784 -0.0057374113 -0.0028151667
-0.0023036255 -0.0057374118 -0.0028151667
-0.0023036255 -0.0052592941 -0.0030564666
-0.0017475775 -0.0052592941 -0.0030564666
-0.00021067634 -0.0062086005 -0.00079034502
-0.0023036255 -0.0052592945 -0.0028151665
-0.0027802382 -0.0052592945 -0.0028151665
-0.0023036255 -0.0047811768 -0.0028151667
-0.0027802382 -0.0047811768 -0.0028151665
-0.0058204457 -0.0031802068 -0.002771294
-0.0052403258 -0.002694845 -0.0027493578
-0.005811491 -0.0027029582 -0.0027476028
-0.0052427333 -0.0022312158 -0.0027347342
-0.0057987813 -0.0022312158 -0.0027347335
-0.016756047 0.00022698517 -0.0027493576
-0.013742318 -0.0052592945 -0.0028151665
-0.013742318 -0.0057374113 -0.0028151663
-0.014227292 -0.0057290238 -0.0028024667
-0.0077052303 -0.0052592941 -0.0030564666
-0.0077052303 -0.0057374123 -0.0030564666
-0.011756435 -0.0052592941 -0.0030564666
-0.0037334617 -0.0052592945 -0.0030564666
-0.00015887059 -0.0057374113 -0.0051477333
-0.011180528 -0.0037054119 -0.003096683
0.003733462 0.0037452548 -0.0051477333
0.0046866857 0.0037452548 -0.0051477333
0.0046866862 0.0043030591 -0.0051477333
0.0052427338 0.0037452551 -0.0051477333
0.0052427338 0.0031874513 -0.0051477333
0.0088173263 0.0047811768 -0.0051477333
0.007228618 0.0052592945 -0.0051477333
0.0023036255 0.0043030591 -0.0051477333
0.0017475779 0.0037452548 -0.0051477333
0.0011915304 0.0043030586 -0.0051477333
0.0011915304 0.0037452551 -0.0051477333
0.0011915304 0.0031874508 -0.0051477333
-0.002287739 0.0022152786 -0.0030725531
-0.0027802382 0.0022312158 -0.0030564666
-0.0027802382 0.0027093333 -0.0030564666
-0.0032568499 0.0027093336 -0.0030564666
-0.0032568499 0.0031874508 -0.0030564666
-0.0037334617 0.0043030591 -0.0030564666
-0.0032568499 0.0037452551 -0.0030564666
-0.0032568499 0.0043030591 -0.0030564666
-0.012789095 0.0043030586 -0.0028151667
-0.013265707 0.0043030586 -0.0028151667
-0.013265705 0.0037452553 -0.0028151665
-0.014218932 0.0047811773 -0.002815166
-0.013742318 0.0047811768 -0.0028151667
-0.014218932 0.0043030586 -0.002815167
-0.017237475 0.0037452551 -0.0030564666
-0.01628425 0.0031874508 -0.0030564666
-0.014695544 0.0037452551 -0.0030564666
-0.01525159 0.0037452551 -0.0030564666
-0.01421893 0.0031874508 -0.0030564666
-0.014695544 0.0031874508 -0.0030564666
-0.01421893 0.0037452551 -0.0030564666
-0.01525159 0.0047811768 -0.0028151665
-0.014695546 0.0057374118 -0.0028151667
-0.015807636 0.0057374113 -0.0028151665
-0.015807636 0.0043030591 -0.0028151663
-0.01628425 0.0047811768 -0.0028151667
-0.015807636 0.0047811768 -0.0028151667
0.0017475775 0.0072514508 -0.0051477333
0.0023036255 0.0062155295 -0.0051477333
0.0046866857 0.0047811768 -0.0051477333
0.0027802377 0.0052592941 -0.0051477333
0.0032568499 0.0047811768 -0.0051477333
0.0057987813 0.0072514531 -0.0036999332
0.0050044279 0.0076498827 -0.0051477333
0.0032568499 0.0027093333 -0.0003217333
0.0037334622 0.001753098 -0.00032173353
0.0037334622 0.0012749804 -0.0003217333
0.0032568499 0.0012749804 -0.0003217333
0.0067520058 0.0022312154 -0.0003217333
0.0052427328 0.0022312154 -0.0003217333
0.0046866862 0.0027093333 -0.0003217333
0.0046866857 0.0022312156 -0.0003217333
0.0082612764 0.0022312158 -0.00032173353
0.0088173253 0.0022312156 -0.00032173353
0.0082612764 0.0027093336 -0.00032173353
0.0072286185 0.0031874508 -0.0003217333
0.0067520053 0.0037452553 -0.00032173353
0.0072286162 0.0037452558 -0.00032173353
0.0072286185 0.0043030586 -0.0003217333
0.006275394 0.003187451 -0.00032173353
0.0062753949 0.0037452553 -0.00032173353
0.0077052303 0.0052592955 -0.0003217333
0.0082612764 0.005259295 -0.0003217333
0.0082612764 0.0057374113 -0.00032173353
0.0088173263 0.0052592945 -0.0003217333
0.0041902154 0.0076498832 -0.0022320249
0.0037334624 0.0077295685 -0.0017695331
0.0046866857 0.0072514522 -0.00032173353
0.0046866862 0.0066936472 -0.0003217333
0.0052427333 0.0072514527 -0.00032173353
0.0052427333 0.0078092567 -0.00030162511
0.0046805753 0.0078092557 -0.00031554629
0.010247162 0.0081280014 -0.0047455663
0.0088101039 0.0077947676 -0.00028517283
0.0082689635 0.0078143971 -0.00029578712
0.0088173244 0.0072195772 -0.00028956006
0.0093008438 0.0077884682 -0.00228011
0.0092939371 0.0081280004 -0.0025738666
0.0077052303 0.0081280004 -0.00080433337
0.0082738195 0.0077169868 -0.0022944666
0.0082612755 0.007729569 -0.0041825329
-0.0077052312 0.0052592941 -0.0030564666
-0.0077052312 0.0047811768 -0.0030564666
-0.0072286185 0.0047811768 -0.0030564666
-0.015807636 0.0052592941 -0.0030564666
-0.0092939381 0.0047811768 -0.0030564666
-0.0097705498 0.0043030591 -0.0030564666
-0.0092939381 0.0043030591 -0.0030564666
0.0011915304 0.0052592941 -0.0051477333
0.0011915304 0.0057374118 -0.0051477333
-0.0057987813 0.0066936472 -0.0030564666
-0.011200387 0.0062155295 -0.0030564666
-0.0097705498 0.0066936472 -0.0030564666
-0.0092939381 0.0066936472 -0.0030564666
-0.010723775 0.0057374118 -0.002815167
-0.012312481 0.0062155295 -0.0030564666
-0.013265705 0.0062155295 -0.0030564666
-0.0097705498 0.0057374123 -0.0030564666
-0.0097705498 0.0052592941 -0.0030564666
-0.014695542 0.0052592941 -0.0030564666
-0.0092939381 0.007729569 -0.0028151665
-0.0088173263 0.0072514508 -0.0028151672
-0.0017475784 0.0072514513 -0.0028151672
-0.00055604754 0.007729569 -0.002413
-0.0017475784 0.0066936468 -0.0028151665
-0.012312481 0.0062155295 -0.0028151663
-0.0046866853 0.0072514513 -0.0028151665
-0.0046866853 0.0062155295 -0.0028151667
-0.0046866862 0.0057374118 -0.0028151667
-0.0052427333 0.0062155295 -0.0028151665
-0.012312481 0.0072514513 -0.0030564666
-0.011756433 0.0072514513 -0.0030564666
0.0092939371 -0.0081280014 -0.0041825334
0.0097705498 -0.0076498822 -0.0033782001
0.0097705498 -0.0043030586 -0.0051477333
0.0092939362 -0.0043030591 -0.0051477333
0.010723773 -0.0043030591 -0.0051477333
0.010247162 -0.0043030586 -0.0051477333
0.0088173253 -0.0037452548 -0.0051477333
0.0082612773 -0.0031874513 -0.0051477333
0.0092939371 -0.0022312156 -0.0051477333
0.010247161 -0.00031874512 -0.005228166
0.011200387 -0.0027093336 -0.0051477333
0.010723773 -0.0027093336 -0.0051477333
0.011756434 -0.001753098 -0.0051477333
0.00023830589 -0.00031874512 -0.0051477333
-0.00015887059 -0.00079686282 -0.0051477333
-0.00015887059 -0.00031874512 -0.0051477333
0.0017475779 -0.00079686282 -0.0051477333
0.0023036255 -0.00031874512 -0.0051477333
0.0017475779 -0.00031874512 -0.0051477333
0.0011915304 -0.00031874512 -0.0051477333
0.0011915304 -0.00079686282 -0.0051477333
-0.0046773413 -0.00030937025 -0.0031321684
-0.0057987822 -0.00079686276 -0.0027347337
-0.0046866862 0.0027093336 -0.0030564666
-0.0052427342 0.0022312158 -0.0030564666
-0.0052427333 0.001753098 -0.0027347342
-0.0052427333 0.0012749804 -0.002734734
-0.010694887 -0.00030425671 -0.0030857152
-0.0097705498 0.00079686282 -0.0030564666
-0.0097705498 -0.0027093331 -0.0027347337
-0.0092939381 -0.003187451 -0.0027347335
-0.0097705498 -0.003187451 -0.0027347337
-0.0092939381 -0.0022312156 -0.0031208133
-0.0097705498 -0.0022312158 -0.0030966832
0.0032568499 -0.0052592945 -0.0051477333
0.0027802377 -0.0047811768 -0.0051477333
0.0027802377 -0.0052592945 -0.0051477333
-0.0052427342 -0.0017530982 -0.0030564666
-0.0057987813 -0.0017530982 -0.0027347335
-0.0052427333 -0.001753098 -0.0027347342
-0.0077052312 -0.0027093336 -0.0030564666
-0.0067520058 -0.0037452551 -0.0030564666
-0.0062753949 -0.003187451 -0.0030564666
-0.0057987813 -0.0031874508 -0.0030564666
-0.006275394 -0.0022312158 -0.0030564666
-0.0067520058 -0.0012749805 -0.0030564666
-0.0072286185 -0.0012749805 -0.0030564666
-0.0077052303 -0.0012749805 -0.0030564666
-0.0077052303 -0.0017530982 -0.0030564666
-0.0041956315 -0.0037380115 -0.0027493578
-0.0057987813 -0.00079686282 -0.0030564666
-0.0052427342 -0.00079686282 -0.0030564666
-0.0042100744 -0.0031874508 -0.0030564666
-0.0046805758 -0.0027032036 -0.0027409208
-0.017237475 -0.0012749804 -0.0027347335
-0.017714083 -0.001753098 -0.0027347337
-0.017237471 -0.0017530982 -0.002734733
-0.018190699 -0.00031874512 -0.0030564666
-0.01628425 -0.00031874512 -0.0030564666
-0.020256016 -0.0017530982 -0.0030564666
-0.019302793 -0.00079686282 -0.0030564666
-0.018737216 -0.0031810761 -0.002805515
-0.019302791 -0.0031874508 -0.002815167
-0.018746743 -0.0027093336 -0.0030564666
0.0082612773 0.00079686282 -0.005228166
-0.019779405 -0.0027093336 -0.0030564666
0.0023036255 0.0022312158 -0.0051477333
0.0017475779 0.0022312158 -0.0051477333
0.0032568497 0.0027093336 -0.0051477333
0.003733462 0.0027093333 -0.0051477333
0.002303625 0.00023905885 -0.0051477333
0.0011915304 0.00079686282 -0.0051477333
0.0011915304 0.0047811773 -0.0051477333
0.00071491813 0.0043030591 -0.0051477333
0.003733462 -0.0012749805 -0.0051477333
0.0046866862 0.00023905885 -0.0051477333
0.0046866862 -0.00031874512 -0.0051477333
0.01421893 0.0078092548 -0.0051477333
0.014695541 0.0072514513 -0.0051477333
0.01421893 0.0066936477 -0.0051477333
0.012789092 0.0052592941 -0.0051477333
0.012789093 0.0047811768 -0.0051477333
-0.0032568499 -0.0037452551 -0.0030564666
-0.0027802382 -0.0031874508 -0.0030564666
-0.0032568499 -0.0031874508 -0.0030564666
-0.00023830635 -0.0027093336 -0.0047455672
-0.00055604754 -0.0027093336 -0.0036194997
-0.00055604754 -0.0022312158 -0.0036194997
-0.00023830635 -0.0022312154 -0.0041825329
-0.0023036255 -0.0031874508 -0.0027347335
-0.0023036255 -0.0037452553 -0.0027347344
-0.0037334627 -0.0027093336 -0.0027347337
-0.0017475784 -0.001753098 -0.002734734
-0.0017475784 -0.0012749804 -0.0027347337
-0.00055604754 -0.001753098 -0.0019303999
-0.0023036255 -0.0012749804 -0.0027347337
-0.001721099 -0.0022046538 -0.0031100886
-0.002287739 -0.0022152786 -0.0030725533
-0.015807636 -0.00079686282 -0.0030564666
-0.01628425 -0.00079686282 -0.0030564666
-0.016760863 -0.00079686282 -0.0030564666
-0.016760862 -0.0012749805 -0.0030564666
-0.016760862 -0.0017530982 -0.0030564666
-0.01628425 -0.0022312158 -0.0030564666
-0.016760858 -0.0022312158 -0.0027347335
-0.01676086 -0.0017530982 -0.0027347335
0.006275394 -0.00079686282 -0.0051477333
0.0046866862 0.0031874508 -0.0051477333
0.0057987813 0.0017530982 -0.0051477333
0.0052427333 0.0022312158 -0.0051477333
0.0023036255 0.0027093336 -0.0051477333
0.015251592 -0.0027093333 -0.0003217333
0.010247161 -0.0057374113 -0.0051477333
0.010723773 -0.0062155295 -0.0051477333
0.0097705498 -0.0062155295 -0.0051477333
0.0088173253 -0.0057374123 -0.0051477333
0.0088173253 -0.0047811768 -0.0051477333
0.0076907873 -0.0072297184 -0.0051477333
0.0082877548 -0.0078225378 -0.0047857836
0.0057987813 -0.0027093336 -0.0051477333
0.006275394 -0.0027093336 -0.0051477333
0.0057987813 -0.003187451 -0.0051477333
0.006275394 -0.0031874508 -0.0051477333
0.003733462 -0.0022312158 -0.0051477333
0.0027802377 -0.0017530982 -0.0051477333
0.01421893 -0.0072514522 -0.0047455668
0.012789098 -0.0072514513 -0.0047455668
0.011756432 -0.0081280014 -0.0041825329
0.019302793 -0.0078092548 -0.0041825329
0.018587876 -0.0081280014 -0.0032173332
0.020097146 0.0017530982 -0.0017695334
0.02017658 0.00079686282 -0.0027347328
0.02017658 -0.0012749804 -0.0017695336
0.019779406 -0.001753098 -0.0003217333
0.020200409 -0.0017690354 -0.00031368993
0.020166652 -0.0012849412 -0.00030162511
0.020097146 -0.00031874512 -0.0041825334
0.013742317 -0.003187451 -0.0051477333
0.013265706 -0.0031874508 -0.0051477333
0.013265706 -0.0027093336 -0.0051477333
0.012789093 -0.0031874508 -0.0051477333
0.017237475 -0.0012749805 -0.0051477333
0.015251588 0.0057374109 -0.0003217333
0.015807632 0.0057374118 -0.0003217333
0.015807636 0.0037452558 -0.0003217333
0.015807632 0.0043030586 -0.00032173353
0.018746747 0.0047811763 -0.0003217333
0.017714085 0.0052592945 -0.0003217333
0.017237475 0.0047811768 -0.0003217333
0.019302793 0.0052592945 -0.0003217333
0.016284255 0.0012749804 -0.0003217333
0.01676086 0.0012749804 -0.0003217333
0.01525159 0.0012749804 -0.00032173353
0.014695543 0.0022312156 -0.0003217333
0.014695545 0.0027093336 -0.00032173353
0.015251588 0.0027093336 -0.00032173353
0.014218928 0.0027093336 -0.00032173353
0.01421893 0.003187451 -0.0003217333
0.014695543 0.0031874508 -0.0003217333
0.01469554 0.0037452558 -0.00032173353
0.017237473 0.003187451 -0.0003217333
0.017714085 0.003187451 -0.0003217333
0.017714085 0.0027093333 -0.0003217333
0.018190697 0.0031874508 -0.00032173353
0.018190697 0.0037452551 -0.00032173353
0.016284255 0.0022312156 -0.0003217333
0.016760858 0.0022312156 -0.0003217333
0.01676086 0.0017530979 -0.00032173353
0.017237475 0.00079686276 -0.00032173353
-0.0032568499 0.0047811768 -0.0030564666
-0.0037334617 0.0047811768 -0.0030564666
-0.002772294 0.0042871214 -0.0027910366
-0.0023036255 0.0043030591 -0.0028151665
-0.0023036255 0.0047811768 -0.002815166
-0.0032568499 0.0066936472 -0.0030564666
0.0017952393 0.0081280014 -0.0003217333
0.002303625 0.0078092557 -0.0017695331
0.0027603786 0.0077893338 -0.0012869334
0.0011915304 0.0078092557 -0.0051477333
0.0011915304 0.0072514508 -0.0051477333
0.0011710306 0.0077835498 -0.0047533503
0.0007149186 0.0078092557 -0.0047455668
0.00023830589 0.0078092553 -0.0036999339
0.00023830589 0.0078092557 -0.0041825329
-0.0002184473 0.0077295695 -0.0041825329
0.0011835867 0.0077534751 -0.0041664462
0.00023830589 0.0078092548 -0.0047455663
-0.0077052303 0.0072514522 -0.0028151665
-0.0082612773 0.0072514513 -0.0030564666
-0.0032568499 0.0078092557 -0.0030564666
0.0011915304 0.0066936468 -0.00032173353
0.0007149186 0.0072514513 -0.00032173353
0.0007149186 0.0062155295 -0.00032173353
0.0052268454 0.0072355145 -0.0027347344
0.0057987813 0.0072514522 -0.002734734
0.0057987813 0.0072514513 -0.0022521326
0.007228618 0.0076498827 -0.002734733
0.0057987813 0.0072514522 -0.0017695331
0.011200386 0.0081280004 -0.00080433337
0.011220245 0.0081280014 -0.00030162511
0.0097308317 0.0081280004 -0.00076411664
0.011756432 0.0081280014 -0.0003217333
0.010254069 0.0078231134 -0.0002937566
0.010247162 0.0081280014 -0.0023325668
0.010723774 0.0081280014 -0.0023325665
0.0098159406 0.0081280014 -0.0027117522
0.010247163 0.0081280014 -0.002734733
0.011756433 0.0043030586 -0.00032173353
0.011756434 0.0047811768 -0.00032173353
0.01421893 0.0052592945 -0.0003217333
0.01421893 0.0047811773 -0.0003217333
0.014695543 0.0062155286 -0.0003217333
0.014695543 0.0066936472 -0.00032173353
0.015251587 0.0062155291 -0.0003217333
0.013742317 0.0081280004 -0.00080433337
0.013265706 0.0081280014 -0.0041825334
0.015251589 0.0081280014 -0.0041825329
0.014695542 0.0081280014 -0.0027347333
0.01421893 0.0081280014 -0.002734733
0.014695542 0.0081280014 -0.0036999332
0.01421893 0.0081280014 -0.0032173332
0.015807636 0.0081280014 -0.0036999332
0.015807636 0.0081280014 -0.0032173332
0.012630222 0.0081280004 -0.00072390004
0.0037334627 0.0072514522 -0.00032173353
0.0037334624 0.0078092553 -0.0003217333
0.0042100744 0.0062155295 -0.0003217333
0.0046866862 0.0062155295 -0.00032173353
0.0057987808 0.0047811768 -0.0003217333
0.006275394 0.0047811773 -0.0003217333
0.0057987808 0.0043030586 -0.0003217333
0.0032568497 0.0057374118 -0.0003217333
0.0037334624 0.0052592945 -0.0003217333
0.0032568495 0.0052592945 -0.00032173353
0.0032568497 0.0062155295 -0.0003217333
0.0037334631 0.0066936463 -0.0003217333
0.0037334627 -0.00031874512 -0.0003217333
0.0032568495 -0.00031874512 -0.00032173353
0.0037334631 0.00023905883 -0.0003217333
0.004210074 0.0047811768 -0.0003217333
0.0037334627 0.0047811768 -0.0003217333
0.0052427333 0.0043030581 -0.00032173353
0.0052427314 0.0037452551 -0.00032173353
0.0057987818 0.0037452558 -0.00032173353
0.0052427324 0.0031874506 -0.00032173353
0.0046866857 0.003187451 -0.0003217333
0.0023036255 0.0047811768 -0.0003217333
0.0027802372 0.0052592945 -0.0003217333
0.0023036255 0.0052592945 -0.0003217333
0.0032568497 0.0047811773 -0.0003217333
0.015251588 0.0081280014 -0.002734733
0.015807636 0.0081280014 -0.0022521333
0.015807636 0.0081280014 -0.0017695334
0.015807634 0.0078092557 -0.0003217333
0.014695543 0.0081280004 -0.00080433337
0.01525159 0.0081280004 -0.0019303999
0.01421893 0.0066936482 -0.00032173353
0.014695544 0.0072514522 -0.0003217333
0.01628425 0.0081280014 -0.002734733
0.01628425 0.0081280014 -0.0036999332
0.017237473 0.0081280014 -0.0041825334
0.016760862 0.0081280014 -0.0036999332
0.013265703 0.0077893343 -0.00030162511
0.013742318 0.0072514522 -0.00032173353
0.013748671 0.0077965055 -0.00030886405
-0.020256016 0.0022312158 -0.0030564666
-0.019779406 0.0022312158 -0.0030564666
-0.018746747 0.001753098 -0.0028151667
-0.018746747 0.0022312156 -0.0028151663
-0.018182337 0.0017530981 -0.0028024663
-0.019302791 0.0022312154 -0.002815166
-0.019302793 0.0031874508 -0.0030564666
-0.019302793 0.0027093336 -0.0030564666
-0.019302793 0.0022312158 -0.0030564666
0.018190697 0.0043030586 -0.0003217333
0.018190695 0.0047811773 -0.00032173353
0.020176578 0.0043030591 -0.00080433325
0.017237475 0.0043030586 -0.0003217333
0.01676086 0.0052592945 -0.00032173353
0.015251588 0.0066936472 -0.00032173353
0.015807632 0.0066936468 -0.0003217333
0.015251589 0.0072514513 -0.00032173353
0.015807632 0.0062155286 -0.0003217333
0.017237475 0.0081280014 -0.00080433337
0.015807634 0.0072514513 -0.00032173353
0.015251588 0.0078092548 -0.00032173353
0.014718237 0.0081280014 -0.00027577137
0.015251589 0.0081280014 -0.0003217333
0.014695542 0.0078092557 -0.0003217333
0.016760862 0.0081280014 -0.0003217333
0.0088173263 -0.00031874512 -0.005228166
0.0088173244 0.00023905885 -0.005228166
0.0046866857 -0.00079686282 -0.0051477333
0.0046866857 -0.0012749805 -0.0051477333
0.0052427338 -0.0022312158 -0.0051477333
0.0046866857 -0.0027093336 -0.0051477333
0.0046866857 -0.0022312156 -0.0051477333
0.0017475779 -0.0027093336 -0.0051477333
0.0017475779 -0.0022312158 -0.0051477333
0.0017475779 -0.0031874508 -0.0051477333
0.0023036255 -0.0027093336 -0.0051477333
0.00035745883 -0.0031476077 -0.0051477333
-7.9435296e-05 -0.0020718432 -0.0051477333
-0.0052427342 -0.0031874508 -0.0030564666
-0.0052427342 -0.0027093336 -0.0030564666
0.0011915304 -0.0062155295 -0.0051477333
0.0017475779 -0.0052592941 -0.0051477333
0.0023036255 -0.0047811768 -0.0051477333
0.0011915304 -0.0017530982 -0.0051477333
0.00071491813 -0.0017530982 -0.0051477333
0.0072286185 0.00023905885 -0.005228166
0.0077052298 0.0012749804 -0.005228166
0.0052427338 -0.00031874512 -0.0051477333
0.0057987813 -0.00079686282 -0.0051477333
0.0052427338 -0.0012749805 -0.0051477333
0.0057987813 -0.0012749805 -0.0051477333
0.010247163 0.0027093333 -0.0003217333
0.009770548 0.0027093331 -0.0003217333
0.010247163 0.003187451 -0.0003217333
0.010723773 0.0027093331 -0.0003217333
0.0097705489 0.0022312158 -0.0003217333
