# .PCD v0.7 - Point Cloud Data file format
VERSION 0.7
FIELDS x y z
SIZE 4 4 4
TYPE F F F
COUNT 1 1 1
WIDTH 418
HEIGHT 1
VIEWPOINT 0 0 0 1 0 0 0
POINTS 418
DATA ascii
0.0007186319 0.0016184904 -0.000258049
0.00023837623 0.0016532431 -0.00025616388
0.00072260783 0.0016118581 -0.0017535589
0.001112242 0.0015517342 -0.0017513051
0.00071875978 0.0016160088 -0.0032638619
-0.0021390999 -0.00026920525 -0.0042260517
-0.0021521258 -0.00074660755 -0.004603805
-0.0021668153 -0.0007470398 -0.0037530481
-0.0021480285 -0.00075087306 -0.0042189853
0.0015266973 -0.00046093512 0.003258121
0.001524986 -0.00046626216 0.0035877016
0.0015173582 -0.00056947221 0.0035859675
0.00023699089 -0.00075826491 -0.0046111722
0.00023699105 -0.0012565543 -0.0046111727
-0.00025853497 -0.0007582648 -0.004611162
0.0022132928 -0.00075923849 -0.0046092421
0.0017451129 -0.00075826503 -0.0046111527
0.002180977 -0.0012338808 -0.0046040807
0.0022081807 -0.00026600313 -0.0046109478
0.0021959047 -0.0012369533 -0.0042459602
0.0022190935 -0.00075826654 -0.0042459569
0.00023680512 0.0016504976 -0.0037518709
0.00023925837 0.0016547838 -0.004247386
0.0007194925 0.0016164038 -0.0037511915
0.00072223973 0.0016204837 -0.0042473474
0.00023635203 0.0016531167 -0.0046052635
0.00071976322 0.0016158394 -0.004600862
-0.00069878378 0.0015835174 -0.0045993044
-0.00024484491 0.0016360113 -0.0046098838
-0.0002585352 0.0012565539 -0.0046111569
-0.00075406308 0.0012565543 -0.0046111625
0.00023699105 0.0012565543 -0.0046111713
-0.0017451139 -0.00025997672 -0.004611169
-0.0020873626 0.00019340265 -0.0046084896
-0.0017451148 0.00025997672 -0.0046111671
-0.0017356928 -0.0016819899 -0.0046123047
-0.0020359685 -0.0015706914 -0.0046111741
-0.0017451139 -0.00075826503 -0.0046111671
-0.0021008938 -0.0012295353 -0.0046071834
0.0015081244 -0.00058494706 0.0012535721
0.0022154979 -0.00075886829 -0.00025378889
0.0015253599 -0.00046362448 0.0012535721
0.0015081244 -0.00058061414 0.00075947237
0.0017231153 -0.0016111012 -0.0002839677
0.0020908571 -0.0015773956 -0.00030544994
0.0012961726 -0.00060719671 0.003251448
0.0015081244 -0.00058494706 0.0032514527
0.0012961724 -0.00060719723 0.0027573498
-0.0020359689 -0.0015706915 -0.00375187
-0.0017337375 -0.0016784067 -0.0037518695
-0.0017337394 -0.0016784065 -0.003257775
-0.0020359685 -0.0015706914 -0.0017539904
-0.0017337392 -0.0016784052 -0.0022480916
-0.0020359687 -0.0015706912 -0.0022480898
-0.0021058901 -0.0012317373 -0.0022480888
-0.0021084331 -0.0012300274 -0.003755359
-0.0020359689 -0.0015706912 -0.0012384078
-0.0017337364 -0.0016784064 -0.00074430916
-0.0020359687 -0.0015706912 -0.00074430846
-0.0020338141 -0.0015728578 -0.00026309863
-0.0020359687 -0.0015706914 -0.0042459709
-0.0020251968 0.00056328229 -0.00031465676
-0.0017438813 0.00025895651 -0.00025122054
-0.0017009187 0.00072807475 -0.00026486313
-0.0020835313 0.0001946492 -0.00029482692
-0.0020865977 0.00020256518 -0.00074430916
0.001621577 0.0011191593 -0.0027424633
0.0016215772 0.0011191592 -0.0017537178
0.0016212354 0.001118741 -0.0022480907
0.001112242 0.0015517339 -0.0027448751
0.001107862 0.0015512452 -0.0022480895
0.0016211725 0.0011191091 -0.00074609451
0.0016231867 0.001114768 -0.0012383617
0.0020491357 0.00060420472 -0.0017539904
0.002049136 0.00060420466 -0.0022480891
-0.0010556877 0.0015381944 -0.0037518705
-0.0010556877 0.0015381944 -0.003257771
-0.00070537487 0.0016193698 -0.0032515563
-0.00071563083 0.0015979219 -0.0037518691
-0.0010556877 0.0015381944 -0.0042459709
-0.0015696818 0.0010677611 -0.0037518728
-0.001569682 0.0010677611 -0.0032577713
-0.002025197 0.00056328234 -0.0037518705
-0.00025537433 0.0016445944 -0.0027426039
-0.000707264 0.0016146845 -0.002743721
0.0011073945 0.0015511927 -0.0032592039
0.0011145761 0.0015516741 -0.0037499613
0.0012495879 0.0007582648 -0.0046111681
0.0012495883 0.00025997672 -0.0046111695
0.00075406308 0.00075826491 -0.0046111583
0.0017358894 0.00075100898 -0.0046099322
0.001625719 0.0011185609 -0.0046105399
0.0020640304 0.00064539444 -0.0045920783
0.0021412265 0.00022112536 -0.004610809
0.00075406185 0.00025997672 -0.0046111559
0.0012374867 0.0012419929 -0.0046107494
0.00075406232 0.0012565543 -0.0046111592
0.0011140155 0.001551933 -0.0046048863
0.00023365291 0.0016449932 -0.0017539873
0.00023578046 0.0016487089 -0.00074162718
0.00023365293 0.0016449918 -0.0012384064
-0.00025319803 0.0016432698 -0.0017546871
-0.00025147747 0.0016422225 -0.00074430916
-0.00024972027 0.0016398414 -0.00025284069
-0.0021028346 -0.001230392 -0.0012392183
-0.002025197 0.00056328234 -0.0042459704
-0.0020865973 0.00020256518 -0.0037518744
-0.0021530837 -0.00027389391 -0.003752809
-0.0021660235 -0.00074611313 -0.003257768
-0.00071146293 0.0016066378 -0.0042615929
-0.0010556877 0.0015381941 -0.0045682085
-0.0015696816 0.0010677611 -0.0042459704
-0.0015694941 0.0010641966 -0.0046072686
-0.0020251966 0.00056328234 -0.0045682089
-0.0012495883 0.00025997672 -0.0046111648
-0.0016992721 0.00073013385 -0.0046069184
-0.00071224052 0.0016050127 -0.00074430835
-0.00071444811 0.0016003974 -0.00025159481
-0.0015655779 0.0010651819 -0.000282433
-0.0012135932 0.0012084176 -0.00025165558
-0.0010556877 0.0015381944 -0.00025020901
-0.002025197 0.00056328234 -0.0032577708
-0.002025197 0.00056328234 -0.002742189
-0.0020865963 0.00020256524 -0.0027421932
-0.0020865961 0.00020256518 -0.0022480884
-0.0021431267 -0.00027514188 -0.0046060719
-0.0021660246 -0.0007461129 -0.0022480874
-0.002105888 -0.0012317372 -0.0027421918
4.4779081e-05 0.00073362648 0.0035960188
-0.0010556874 0.0015381944 -0.0027421892
-0.0015696818 0.0010677611 -0.0027421883
0.0022097747 -0.00026650485 -0.0042468943
0.0021419902 0.0002238356 -0.0042484687
0.0022085609 -0.0002664488 -0.003752186
0.0021411066 0.00021878317 -0.0032577752
0.0021411118 0.0002187832 -0.0027421915
0.0017451148 -0.00025997672 -0.0046111601
0.0012495881 -0.00075826462 -0.0046111709
0.00075406214 -0.00075826491 -0.0046111564
-0.00075406348 -0.0012565542 -0.0046111653
-0.00075406331 -0.0007582648 -0.0046111667
-0.000258535 -0.0012565542 -0.0046111578
0.0012961728 -0.00060719647 0.0012535702
0.0012961735 -0.00060719659 0.001747671
0.0012386099 -0.0016499457 -0.00027185818
-0.0017337366 -0.0016784063 -0.0027421934
-0.0020359687 -0.0015706912 -0.003257771
-0.0017337354 -0.0016784059 -0.0012384078
-0.0017337389 -0.0016784058 -0.0042459723
-0.002025197 0.00056328234 -0.0012384078
-0.002086597 0.00020256521 -0.0017539904
-0.002025197 0.00056328234 -0.0017539902
4.5869339e-05 0.00073170743 0.00073798979
-0.0015696818 0.0010677612 -0.00074430823
0.001623746 0.0011192118 -0.0037523541
0.0016212012 0.0011186982 -0.003257911
0.0011203215 0.001552636 -0.0042459709
0.0016274774 0.0011177829 -0.0042464486
0.0020491364 0.0006042046 -0.0027421894
0.0021411101 0.00021878317 -0.0022480902
-0.001569682 0.0010677611 -0.0017539902
0.0021954514 -0.0012364329 -0.00074356224
0.0020904914 -0.0015844459 -0.0012322145
0.0020929088 -0.0015846168 -0.00074430811
0.0021880874 -0.001235088 -0.0037622107
0.0020866338 -0.0015834786 -0.0032604041
0.0020898303 -0.0015841569 -0.0037585497
0.0020929084 -0.0015846168 -0.0042459676
0.001727418 -0.0016194396 -0.0027421908
0.0021688505 -0.0012324295 -0.0032683611
0.0022093283 -0.00026599766 -0.00025081926
0.0021414754 0.00021948187 -0.00025040982
0.0015253599 -0.00046362454 0.0017476717
0.0012620639 -0.00043671561 0.0017476704
0.00023699096 0.00075826491 -0.0046111722
0.00023655112 0.0016500549 -0.0032628851
0.00023365273 0.0016449922 -0.0022480905
-0.000257495 0.001645886 -0.0032562695
0.0020664576 0.00065636687 -0.0042612618
0.0011114061 0.0015516412 -0.00074430858
0.0011009313 0.0015490268 -0.0012255188
0.0016218857 0.0011165718 -0.00025400543
0.0011068908 0.0015505743 -0.00028898928
-0.0021576853 -0.00074641069 -0.0012398763
-0.0020996628 -0.0012299631 -0.0007446917
-0.0020946749 -0.0012304659 -0.00026351528
-0.0020995487 -0.0012289421 -0.0017556747
-0.0021481358 -0.00074675179 -0.0017571442
-0.002086597 0.00020256524 -0.0042459732
-0.0021523607 -0.00027371553 -0.003257765
-0.0021523619 -0.00027371541 -0.0022480863
-0.00025208876 0.001642594 -0.004249352
-0.0010556877 0.0015381944 -0.00074430846
-0.0010556877 0.0015381944 -0.0017539904
-0.0021660211 -0.00074611272 -0.0027421894
4.4632892e-05 0.00073226652 0.0032527356
0.0012901109 -0.0005961383 0.0035806617
-0.0010556877 0.0015381944 -0.0022480898
0.0020500571 0.0005999459 -0.00025351415
0.0017290732 0.00074649329 -0.00025044172
0.0022096953 -0.00026629234 -0.0007436265
0.0021415078 0.00021954505 -0.00074376143
0.0012961717 -0.00060719677 0.0022417728
0.0012620632 -0.00043671543 0.0022417728
0.00023699091 -0.00025997672 -0.0046111732
-0.0002585348 -0.00025997669 -0.0046111615
-0.0002585352 0.00025997672 -0.0046111578
0.0007540615 -0.0012565539 -0.0046111555
0.0012495879 -0.001256554 -0.0046111676
0.0017451132 -0.0012565538 -0.0046111513
0.001293859 -0.00060661125 0.00073946267
0.00023699181 -0.00075826491 -0.00025020842
0.00023699172 -0.0012565537 -0.00025020819
-0.0020359682 -0.0015706912 -0.0027421887
-0.0021058854 -0.0012317374 -0.003257775
0.0002369908 -0.0016898484 -0.001753988
-0.00025853526 -0.0016898478 -0.0017539886
0.00023699095 -0.001689848 -0.0022480933
-0.0017337357 -0.001678406 -0.0017539877
-0.0012495872 -0.0016898474 -0.0022480928
-0.0017451122 -0.001256554 -0.0046111685
-0.0012495883 -0.0016898479 -0.0042459727
-0.0012495907 -0.001689846 -0.0046111634
-0.002025197 0.00056328234 -0.00224809
-0.002025197 0.00056328234 -0.00074430858
-0.0012495888 0.0002599773 -0.00025020842
-0.0010556874 0.0015381944 -0.001238408
-0.00071010244 0.0016094865 -0.0017571464
0.0022073789 -0.0002651141 -0.0032578434
0.0022070778 -0.00026477009 -0.0027421943
0.00071866793 0.0016111516 -0.0012379715
0.00072260725 0.0016118586 -0.002742622
0.00072034268 0.0016117395 -0.0022480926
0.0022070773 -0.00026477015 -0.0022480905
0.0022070806 -0.00026477023 -0.0017539879
-0.00075406348 0.00025997672 -0.0046111662
-0.00075406389 0.00075826491 -0.0046111643
-0.0012135799 0.0012027696 -0.0046087801
-0.0015696816 0.0010677611 -0.0012384083
-0.0015696816 0.0010677612 -0.0022480886
0.0021493924 -0.0012348893 -0.0027420053
0.0020858299 -0.0015824505 -0.0022480888
0.0021495328 -0.001235186 -0.0022480895
0.0021876912 -0.0012361968 -0.00026089582
0.0020845514 -0.0015829569 -0.0027429014
0.0022038834 -0.00076081528 -0.0027421885
0.0022038789 -0.0007608154 -0.0022480909
0.0022075712 -0.00076129194 -0.0032590504
0.0022164956 -0.00075870228 -0.0037544623
0.0020876208 -0.0015826329 -0.0017523385
0.0017274183 -0.0016194393 -0.0032577724
0.0017451167 -0.001256554 -0.00025020773
0.0015117154 -0.00058133627 0.0017619929
0.0015253597 -0.00046362454 0.002241771
-0.0012495881 -0.00075826485 -0.0046111611
-0.0012495874 -0.00025997678 -0.0046111653
-0.00025853491 0.00075826485 -0.0046111597
-0.00024898775 0.0016407075 -0.0037518712
0.0021411611 0.00021985268 -0.0037518663
0.002049135 0.00060420454 -0.0032577703
0.0017451136 0.00025997672 -0.0046111564
0.00023699086 0.00025997678 -0.0046111695
-0.0021407197 -0.00074852636 -0.00075211597
-0.0021445001 -0.00026937839 -0.00074988336
-0.0021304064 -0.00075339299 -0.0002684131
-0.002125971 -0.0002697189 -0.00027404516
-0.0017326293 -0.0016769218 -0.00025240658
-0.002086597 0.00020256524 -0.0032577734
-0.0021512855 -0.00027247056 -0.0012385387
-0.0021523603 -0.00027371547 -0.0027421883
4.5191307e-05 0.00073290075 0.0012519991
0.0012352671 0.0012369048 -0.00025412906
0.0012495897 0.0007582659 -0.00025020842
4.4967932e-05 0.00073181768 0.0027570592
0.0015253599 -0.00046362454 0.002757353
-0.00017851246 0.00072298234 0.0032514569
0.0012599037 -0.00043675135 0.003594259
-0.00070793089 0.001614023 -0.0022480898
0.0020491357 0.00060420472 -0.001238408
0 0.00049828825 0.0017476715
-0.00099105388 -0.00060943759 0.0012554398
-0.00099105388 -0.00060661184 0.0017476713
-0.00099105388 -0.0006109447 0.0022403395
4.565145e-05 0.00073062716 0.0022410813
-0.00017346985 0.0007218112 0.0027580659
-0.0011935732 -0.00048528891 0.0032514522
0.00075052195 -0.0016813379 -0.00026367314
-0.0002585357 -0.001689846 -0.0046111732
0.0012406122 -0.0016591554 -0.0042459765
0.00075406209 -0.0016898483 -0.004245962
0.0012406139 -0.0016591549 -0.0037518698
0.00075406145 -0.0016898483 -0.003257772
0.0012406122 -0.0016591556 -0.0022480935
0.00075406348 -0.001689848 -0.0027421899
0.0007540629 -0.0016898481 -0.0022480919
0.00075406337 -0.0016898483 -0.0017539848
0.0020863558 -0.0015731374 -0.0045598936
0.00075406255 -0.0016898483 -0.0037518716
0.0012406134 -0.001659155 -0.0012384066
0.00075406185 -0.0016898484 -0.001238409
0.0012406134 -0.0016591554 -0.00074430904
0.0015280608 -0.0004581922 0.00073061534
0.0017451239 0.00025997742 -0.00025020761
5.4569682e-12 0.00049828825 0.0012535721
-0.00099105388 -0.00062371546 0.00074929651
-0.0011884307 -0.00048570824 0.00073799002
-0.0012495874 -0.0012565539 -0.0046111634
-0.0012495909 -0.0016898479 -0.0037518691
-0.0020865968 0.00020256521 -0.0012384106
-0.0017451188 -0.0012565539 -0.00025020831
-0.0012183869 -0.0006618927 0.0017476722
-0.00024867163 0.0016405158 -0.0012379785
0.00072063418 0.0016146804 -0.00074125081
0.0002336527 0.0016449931 -0.0027421876
-0.0012495888 0.0007582648 -0.0046111606
0.002204906 -0.000761754 -0.0017536768
0.0022088871 -0.00076106534 -0.0012378907
0.0022075325 -0.00026528563 -0.0012383573
0.0015081244 -0.00058494706 0.002757353
0.0022181277 -0.00075880607 -0.00074323837
0.0017274176 -0.0016194398 -0.00375187
0.0012406122 -0.0016591555 -0.0027421894
0.0020580722 0.00062891853 -0.0037518719
0.00075406511 0.0012565539 -0.00025020761
-0.002150208 -0.00027121033 -0.0017542511
-0.001249589 -0.0016898478 -0.001753985
-0.0012495872 -0.0016898477 -0.0012384041
-0.00075406593 0.0012565538 -0.00025020784
-0.00017851278 0.00072298176 0.0035951778
-0.0011905755 -0.00048981048 0.0035867675
0.0012620632 -0.00043671572 0.0027573498
-0.0002550809 0.0016444159 -0.002248094
0.0012495888 -0.00025997669 -0.0046111713
0.0021411101 0.00021878311 -0.0017539874
0.0020496286 0.00060192158 -0.00074829499
-0.0012167098 -0.00066269789 0.0035942744
-0.0001552482 0.00049828785 0.0032558765
0.00075406308 -0.0016898479 -0.00074430963
0.00023517633 -0.001688252 -0.00025224453
0.00023699066 -0.0016898479 -0.00074430869
0.00075406471 -0.0012565543 -0.00025020773
-0.00075406284 -0.0016898459 -0.0046111713
-0.00025853535 -0.001689848 -0.0042459709
0.0017274176 -0.0016194398 -0.0042459713
-0.00075406302 -0.0016898479 -0.0022480921
-0.00075406343 -0.0016898486 -0.0027421883
0.00074882701 -0.0016750649 -0.004603338
0.0012303703 -0.0016360753 -0.0045972606
0.0012406118 -0.0016591551 -0.0017539889
0.0017274199 -0.0016194396 -0.0017539898
0.0017274204 -0.0016194393 -0.0012384092
3.6379788e-12 0.00049828825 0.00073799002
0.00023699166 -0.00025997727 -0.00025020808
0.0012620641 -0.00043671578 0.0012535709
-0.00025853599 -0.0007582659 -0.00025020773
-0.00025853608 -0.0012565546 -0.00025020773
-0.0012183881 -0.00066189264 0.0012535718
-0.0012495888 -0.0016898484 -0.00025020936
-0.00075406343 -0.0016898487 -0.00025020924
-0.0012495888 0.0007582659 -0.00025020854
-0.0012495916 -0.0016898483 -0.00074430904
-0.00075406377 -0.0016898476 -0.00074430893
-0.00025853555 -0.0016898484 -0.0012384076
-0.0007540636 -0.001689848 -0.0012384099
-0.0021093278 -0.0012305173 -0.0042384476
-0.00075406302 -0.0016898484 -0.0042459667
-0.00071609014 0.0015969654 -0.0012362588
-0.00075406273 -0.00025997672 -0.0046111685
0.0021754766 -0.0012337113 -0.001233713
0.0021411115 0.0002187832 -0.0012384052
0.0015081244 -0.000584947 0.002241771
0.0012406127 -0.0016591551 -0.0032577706
0.00023453642 -0.0016879262 -0.0046103601
0.0012646308 -0.00043574738 0.0032532772
0.00075406185 -0.00025997672 -0.0046111559
-0.00015081248 0.00049828825 0.0035951736
-0.00099105388 -0.00061808131 0.0035875922
-0.0012183888 -0.00066189276 0.0022417672
-0.0011790798 -0.00048647058 0.0017476722
4.5129149e-05 0.00073301001 0.0017472897
-5.4569682e-12 0.00049828825 0.002241771
-0.00099105388 -0.0006158966 0.0027542843
-0.00025853535 -0.0016898474 -0.00025020959
-0.001218389 -0.0006618927 0.0027573539
-0.00099105388 -0.00062827644 0.0032514532
0.0017274197 -0.0016194405 -0.00074430904
-0.00025853535 -0.0016898477 -0.0022480942
0.0017134771 -0.0015963779 -0.0045861336
0.0012620632 -0.00043671561 0.00073799002
-0.0011813096 -0.00048628886 0.0012542331
-0.0001444759 0.00049828785 0.00074051716
-0.00017631194 0.0007224718 0.0007386154
0.00023699109 -0.0016898485 -0.0012384092
-0.00075406325 -0.001689848 -0.001753988
-0.0007540629 -0.0016898481 -0.0037518789
-0.0012183888 -0.00066189264 0.00073799072
0.0021593953 -0.0012335948 -0.0017500947
0.00023699092 -0.001689848 -0.0042459639
0 0.00049828825 0.0035951741
-0.0011859818 -0.00048590789 0.0027563304
-0.0001717136 0.00072140293 0.0022417672
-0.00017171371 0.00072140194 0.0017476697
-0.0012179313 -0.00066254655 0.0032522504
0.0017274183 -0.0016194405 -0.0022480963
0.00023699053 -0.0016898477 -0.0037518695
-0.00025853555 -0.0016898479 -0.002742195
-0.00017575193 0.00072234147 0.0012517741
-0.0012495876 -0.0016898479 -0.0032577713
0.00023699127 -0.0016898485 -0.0032577727
-0.00025853614 -0.001689848 -0.0032577699
-0.0011790798 -0.0004864707 0.002241771
3.6379788e-12 0.00049828825 0.0032514527
-0.00025853558 -0.0016898477 -0.00074430997
-0.0002585355 -0.0016898473 -0.0037518663
-0.00075406244 -0.0016898481 -0.0032577689
-0.0012495867 -0.0016898476 -0.0027421857
0.00023699089 -0.0016898479 -0.0027421862
5.4569682e-12 0.00049828825 0.002757353
