# .PCD v0.7 - Point Cloud Data file format
VERSION 0.7
FIELDS x y z
SIZE 4 4 4
TYPE F F F
COUNT 1 1 1
WIDTH 1227
HEIGHT 1
VIEWPOINT 0 0 0 1 0 0 0
POINTS 1227
DATA ascii
-0.0038606061 -0.0027134616 -0.0083456794
-0.012369697 0.0039903848 -0.0025444448
0.0040181819 0.0039903848 -0.0086592594
-0.012527273 0.0039903848 -0.0025444448
0.011424243 0.0041499999 -0.0037987656
-0.011109091 -0.0041499999 -0.0053666672
-0.011266666 -0.0041499999 -0.0044259261
0.0040181819 0.0038307693 -0.0086592594
-0.012212121 -0.0041499999 -0.0025444448
-0.012212121 -0.0039903848 -0.0025444448
-0.012212121 -0.0038307693 -0.0025444448
-0.010951515 -0.0041499999 -0.0080320993
0.0098484848 0.0041499999 -0.0017604941
-0.011266666 -0.0041499999 -0.0053666672
-0.011109091 -0.0041499999 -0.0044259261
0.011581819 0.0041499999 -0.0037987656
-0.012054546 -0.0041499999 -0.0025444448
0.0038606061 0.0036711539 -0.0075617288
0.0038606061 0.0038307693 -0.0075617288
-0.010793939 -0.0041499999 -0.0080320993
-0.010951515 -0.0041499999 -0.0053666672
-0.011424243 -0.0041499999 -0.0044259261
-0.0054363636 0.0041499999 -3.5802645e-05
0.0040181819 0.0033519231 -0.0086592594
0.0040181819 0.0035115385 -0.0086592594
0.0040181819 0.0036711539 -0.0086592594
0.0010242424 -0.0019153847 0.00027777761
0.00055151514 0.0041499999 -3.5802645e-05
0.00055151514 0.0039903848 -3.5802645e-05
0.00055151514 0.0038307693 -3.5802645e-05
0.00055151514 0.0036711539 -3.5802645e-05
0.00055151514 0.0035115385 -3.5802645e-05
0.00055151514 0.0033519231 -3.5802645e-05
0.0090606064 0 0.002159259
0.00055151514 0.0031923077 -3.5802645e-05
0.00055151514 0.0030326925 -3.5802645e-05
0.00055151514 0.0028730771 -3.5802645e-05
0.00055151514 0.0027134616 -3.5802645e-05
0.00055151514 0.0025538462 -3.5802645e-05
0.0027575758 0.00031923078 0.002159259
-0.0060666665 -0.0033519231 -3.5802645e-05
0.0010242424 0 0.00027777761
0.0011818182 -0.0015961538 0.00027777761
0.0011818182 -0.0014365385 0.00027777761
0.0011818182 0.00031923078 0.002159259
0.00039393941 0.0041499999 -3.5802645e-05
0.00039393941 0.0039903848 -3.5802645e-05
0.00039393941 0.0038307693 -3.5802645e-05
0.00039393941 0.0036711539 -3.5802645e-05
0.00039393941 0.0035115385 -3.5802645e-05
0.00039393941 0.0033519231 -3.5802645e-05
0.00039393941 0.0031923077 -3.5802645e-05
0.00039393941 0.0030326925 -3.5802645e-05
0.00039393941 0.0028730771 -3.5802645e-05
0.00070909091 0.0039903848 -3.5802645e-05
-0.0038606061 0.0012769231 -0.0086592594
-0.0038606061 0.0014365385 -0.0086592594
-0.0038606061 0.0015961538 -0.0086592594
-0.0038606061 0.0017557692 -0.0086592594
-0.0038606061 0.0019153847 -0.0086592594
-0.0038606061 0.002075 -0.0086592594
-0.0038606061 0.0022346154 -0.0086592594
-0.0038606061 0.0023942308 -0.0086592594
-0.0038606061 0.0025538462 -0.0086592594
-0.0062242425 0.0041499999 -3.5802645e-05
-0.0060666665 -0.0039903848 -3.5802645e-05
-0.0060666665 -0.0038307693 -3.5802645e-05
0.00070909091 0.0041499999 -3.5802645e-05
0.00039393941 0.0027134616 -3.5802645e-05
0.00070909091 0.0038307693 -3.5802645e-05
0.00070909091 0.0036711539 -3.5802645e-05
0.00070909091 0.0035115385 -3.5802645e-05
0.00070909091 0.0033519231 -3.5802645e-05
0.00070909091 0.0031923077 -3.5802645e-05
0.00070909091 0.0030326925 -3.5802645e-05
0.00070909091 0.0028730771 -3.5802645e-05
0.00070909091 0.0027134616 -3.5802645e-05
0.00070909091 0.0025538462 -3.5802645e-05
0.00070909091 0.0023942308 -3.5802645e-05
-0.0060666665 -0.0036711539 -3.5802645e-05
-0.00086666667 0 0.0026296296
-0.012842424 -0.0015961538 -0.0025444448
-0.0059090909 -0.0033519231 -3.5802645e-05
-0.0010242424 0 0.0026296296
-0.012842424 -0.0014365385 -0.0025444448
-0.012842424 -0.0012769231 -0.0025444448
-0.00086666667 -0.002075 0.0026296296
-0.012842424 -0.0011173077 -0.0025444448
-0.012842424 -0.00095769233 -0.0025444448
-0.012842424 -0.00079807692 -0.0025444448
-0.00086666667 -0.0014365385 0.0026296296
0.0030727272 -0.0015961538 0.00027777761
0.0030727272 0 0.00027777761
0.00023636363 0.0041499999 -3.5802645e-05
0.00023636363 0.0039903848 -3.5802645e-05
0.00023636363 0.0038307693 -3.5802645e-05
0.00023636363 0.0036711539 -3.5802645e-05
0.00023636363 0.0035115385 -3.5802645e-05
0.00023636363 0.0033519231 -3.5802645e-05
0.00023636363 0.0031923077 -3.5802645e-05
0.00023636363 0.0030326925 -3.5802645e-05
0.00023636363 0.0028730771 -3.5802645e-05
0.00023636363 0.0027134616 -3.5802645e-05
-0.0060666665 0.0038307693 -3.5802645e-05
0.00039393941 0.0025538462 -3.5802645e-05
0.0011818182 -0.0015961538 0.002159259
0.0011818182 -0.0017557692 0.002159259
0.0011818182 -0.0019153847 0.002159259
0.0010242424 0 0.002159259
0.0068545453 0 0.002002469
0.012842424 0.0036711539 -0.0050530867
0.0068545453 0.00047884617 0.002002469
-0.0060666665 0.0031923077 -3.5802645e-05
-0.0060666665 0.0033519231 -3.5802645e-05
-0.0038606061 0.0011173077 -0.0086592594
-0.0060666665 0.0039903848 -3.5802645e-05
-0.0060666665 0.0041499999 -3.5802645e-05
-0.0059090909 -0.0039903848 -3.5802645e-05
-0.0059090909 -0.0038307693 -3.5802645e-05
-0.0059090909 -0.0036711539 -3.5802645e-05
-0.0011818182 0 0.0026296296
0.0010242424 -0.002075 0.002159259
0.0038606061 0.00047884617 -0.0083456794
-0.012369697 0.0039903848 -0.0044259261
-0.012212121 -0.0041499999 -0.0044259261
-0.012212121 -0.0039903848 -0.0044259261
0.0038606061 0.0014365385 -0.0083456794
0.0038606061 0.0012769231 -0.0083456794
0.0038606061 0.0011173077 -0.0083456794
0.0038606061 0.00095769233 -0.0083456794
0.0038606061 0.00079807692 -0.0083456794
0.0038606061 0.00063846156 -0.0083456794
0.013 -0.0027134616 -0.0027012348
0.013 -0.0025538462 -0.0027012348
0.013 -0.0023942308 -0.0027012348
0.013 -0.0022346154 -0.0027012348
0.013 -0.002075 -0.0027012348
0.013 -0.0019153847 -0.0027012348
0.013 0.0017557692 -0.0027012348
0.013 0.0027134616 -0.0027012348
-0.012054546 -0.0041499999 -0.0044259261
-0.013 -0.0035115385 -0.0025444448
-0.013 -0.0033519231 -0.0025444448
-0.013 -0.0031923077 -0.0025444448
0.012842424 0.0014365385 -0.0027012348
0.0038606061 0.0028730771 -0.0083456794
0.0038606061 0.0027134616 -0.0083456794
0.0038606061 0.0025538462 -0.0083456794
0.0038606061 0.0023942308 -0.0083456794
0.0038606061 0.0022346154 -0.0083456794
0.0038606061 0.002075 -0.0083456794
0.0038606061 0.0019153847 -0.0083456794
0.0038606061 0.0017557692 -0.0083456794
0.0038606061 0.0015961538 -0.0083456794
0.012842424 0.00079807692 -0.0027012348
0.012842424 0.00095769233 -0.0027012348
0.012842424 0.0011173077 -0.0027012348
0.012842424 0.0012769231 -0.0027012348
-0.013 -0.0030326925 -0.0025444448
0.012842424 0.0015961538 -0.0027012348
-0.010636363 -0.0041499999 -0.0080320993
0.012842424 0.0036711539 -0.0027012348
-0.0038606061 -0.0017557692 -0.0086592594
-0.0040181819 0.0035115385 -0.0086592594
-0.0038606061 -0.0031923077 -0.0086592594
-0.0038606061 -0.0030326925 -0.0086592594
-0.0038606061 -0.0028730771 -0.0086592594
-0.0038606061 -0.0027134616 -0.0086592594
-0.0038606061 -0.0025538462 -0.0086592594
-0.0038606061 -0.0023942308 -0.0086592594
-0.0038606061 -0.0022346154 -0.0086592594
-0.0038606061 -0.002075 -0.0086592594
-0.0038606061 -0.0019153847 -0.0086592594
-0.0011818182 0 0.00027777761
0.0014969697 -0.00063846156 -0.0074049388
-0.0010242424 0 0.00027777761
-0.012842424 -0.0036711539 -0.0025444448
-0.0038606061 -0.0015961538 -0.0086592594
-0.0038606061 -0.0014365385 -0.0086592594
-0.0038606061 -0.0012769231 -0.0086592594
-0.0038606061 -0.0011173077 -0.0086592594
-0.0038606061 -0.00095769233 -0.0086592594
-0.0038606061 -0.00079807692 -0.0086592594
-0.0038606061 -0.00063846156 -0.0086592594
-0.0038606061 -0.00047884617 -0.0086592594
-0.0038606061 0.00047884617 -0.0086592594
-0.0038606061 0.00063846156 -0.0086592594
-0.0038606061 0.00079807692 -0.0086592594
-0.0038606061 0.00095769233 -0.0086592594
-0.00086666667 0 0.00027777761
-0.013 0.0022346154 -0.0025444448
-0.013 -0.0028730771 -0.0025444448
-0.013 -0.0027134616 -0.0025444448
-0.0041757575 0.0038307693 -0.0086592594
-0.0041757575 0.0039903848 -0.0086592594
-0.0041757575 0.0041499999 -0.0086592594
-0.013 -0.0017557692 -0.0025444448
-0.013 0.0011173077 -0.0025444448
-0.013 0.0012769231 -0.0025444448
-0.013 0.0014365385 -0.0025444448
-0.013 0.0015961538 -0.0025444448
-0.013 0.0017557692 -0.0025444448
-0.013 0.0019153847 -0.0025444448
-0.013 0.002075 -0.0025444448
0.00023636363 0.0025538462 -3.5802645e-05
-0.013 0.0023942308 -0.0025444448
-0.013 0.0025538462 -0.0025444448
-0.013 0.0027134616 -0.0025444448
-0.013 0.0028730771 -0.0025444448
-0.013 0.0030326925 -0.0025444448
-0.013 0.0031923077 -0.0025444448
-0.01189697 -0.0041499999 -0.0044259261
-0.013 0.0033519231 -0.0025444448
-0.013 0.0035115385 -0.0025444448
-0.013 0.0036711539 -0.0025444448
-0.013 0.0038307693 -0.0025444448
0.011109091 -0.0015961538 0.0026296296
-0.00023636363 0.0031923077 -3.5802645e-05
0.012842424 0.0015961538 -0.0050530867
0.0089030303 0 0.002159259
0.011266666 0.00031923078 0.0026296296
0.011266666 0.00015961539 0.0026296296
-0.00023636363 0.0030326925 -3.5802645e-05
-0.00023636363 0.0028730771 -3.5802645e-05
-0.00023636363 0.0027134616 -3.5802645e-05
-0.00023636363 0.0025538462 -3.5802645e-05
0.011109091 0 0.0026296296
-0.00023636363 0.0033519231 -3.5802645e-05
0.007169697 -0.0015961538 0.00059135788
0.007169697 -0.0019153847 0.00059135788
0.010951515 0.00047884617 0.0026296296
0.010951515 0 0.0026296296
-0.0055939392 0.0033519231 -3.5802645e-05
0.010951515 -0.0019153847 0.0026296296
0.010793939 0.00031923078 0.0026296296
0.0070121214 0.00047884617 0.00059135788
0.0070121214 0 0.00059135788
0.010793939 0.00015961539 0.0026296296
0.011109091 0 0.00027777761
0.0089030303 0 0.00059135788
0.0089030303 -0.0015961538 0.00059135788
-0.011739394 -0.0041499999 -0.0044259261
0.0090606064 0 0.00027777761
0.0090606064 0.00047884617 0.00027777761
0.0092181815 -0.0017557692 0.00027777761
0.010793939 0.00031923078 0.00027777761
0.010951515 -0.0019153847 0.00027777761
0.010951515 0 0.00027777761
0.010951515 0.00015961539 0.00027777761
0.010951515 0.00047884617 0.00027777761
0.011109091 -0.0015961538 0.00027777761
0.0070121214 -0.0014365385 0.00059135788
0.011109091 0.00015961539 0.00027777761
-0.010793939 -0.0019153847 0.0027864196
-0.010951515 0.00031923078 0.0027864196
0.0089030303 0.00047884617 0.002159259
0.011266666 0.00031923078 0.00027777761
-0.011109091 0.00031923078 0.0027864196
-0.011109091 -0.0019153847 0.0027864196
-0.00023636363 0.0041499999 -3.5802645e-05
-0.00023636363 0.0039903848 -3.5802645e-05
-0.00023636363 0.0038307693 -3.5802645e-05
-0.00023636363 0.0036711539 -3.5802645e-05
-0.00023636363 0.0035115385 -3.5802645e-05
0.0049636364 -0.002075 0.00059135788
0.0089030303 -0.0017557692 0.0026296296
0.0089030303 -0.0019153847 0.0026296296
-0.012684848 -0.0036711539 -0.0025444448
0.0049636364 0 0.00059135788
0.0049636364 -0.0014365385 0.00059135788
0.012527273 -0.0038307693 -0.0050530867
-0.01189697 0.0033519231 0.00043456774
0.0048060608 0.00031923078 0.00059135788
0.0048060608 0.00015961539 0.00059135788
-0.00086666667 -0.002075 0.002159259
-0.011109091 0.00031923078 0.00043456774
-0.010951515 0.00015961539 0.00043456774
-0.010951515 0.00031923078 0.00043456774
-0.010793939 -0.0019153847 0.00043456774
-0.010793939 -0.0015961538 0.00043456774
-0.0054363636 0.0033519231 -3.5802645e-05
-0.0054363636 0.0039903848 -3.5802645e-05
-0.0054363636 -0.0038307693 -3.5802645e-05
-0.012842424 0.0039903848 -0.0025444448
0.0070121214 -0.002075 0.00059135788
0.0068545453 0.00047884617 0.00059135788
-0.012684848 -0.0041499999 -0.0025444448
0.0068545453 0 0.00059135788
0.0092181815 -0.0017557692 0.0026296296
-0.0055939392 0.0039903848 -3.5802645e-05
-0.0055939392 0.0041499999 -3.5802645e-05
-0.0054363636 -0.0039903848 -3.5802645e-05
-0.0054363636 -0.0036711539 -3.5802645e-05
-0.00086666667 0 0.002159259
0.0090606064 0.00047884617 0.0026296296
0.0089030303 -0.0015961538 0.002159259
0.012842424 0.0014365385 -0.0050530867
0.0090606064 0 0.0026296296
-0.012527273 0.0033519231 0.00043456774
0.012842424 0.0012769231 -0.0050530867
-0.012527273 0.0035115385 0.00043456774
0.0089030303 0.00047884617 0.0026296296
0.0089030303 0 0.0026296296
-0.010951515 -0.0041499999 -0.0061506177
0.0068545453 0 0.00027777761
7.8787882e-05 0.0041499999 -3.5802645e-05
7.8787882e-05 0.0039903848 -3.5802645e-05
7.8787882e-05 0.0038307693 -3.5802645e-05
7.8787882e-05 0.0036711539 -3.5802645e-05
7.8787882e-05 0.0035115385 -3.5802645e-05
7.8787882e-05 0.0033519231 -3.5802645e-05
7.8787882e-05 0.0031923077 -3.5802645e-05
7.8787882e-05 0.0030326925 -3.5802645e-05
7.8787882e-05 0.0028730771 -3.5802645e-05
7.8787882e-05 0.0027134616 -3.5802645e-05
7.8787882e-05 0.0025538462 -3.5802645e-05
0.011266666 0.00031923078 0.00059135788
0.011266666 0.00015961539 0.00059135788
0.007169697 -0.0015961538 0.002002469
0.0068545453 0.00047884617 0.00027777761
-0.012842424 0 -0.0025444448
-0.012842424 0.00015961539 -0.0025444448
0.011109091 0 0.00059135788
0.0070121214 -0.0014365385 0.00027777761
0.011109091 -0.0015961538 0.00059135788
-0.012842424 0.00031923078 -0.0025444448
0.0070121214 0 0.00027777761
-0.012842424 0.00047884617 -0.0025444448
-0.012842424 0.00063846156 -0.0025444448
0.0070121214 0.00047884617 0.00027777761
0.0049636364 -0.0014365385 0.00027777761
0.0070121214 -0.002075 0.002002469
0.0070121214 -0.0014365385 0.002002469
0.0048060608 0 0.00027777761
-0.012842424 -0.00015961539 -0.0025444448
0.0048060608 0.00015961539 0.00027777761
0.0048060608 0.00031923078 0.00027777761
0.0070121214 0 0.002002469
0.0070121214 0.00047884617 0.002002469
0.0049636364 -0.0019153847 0.00027777761
0.0098484848 0.0041499999 -0.0042691361
0.010951515 0.00047884617 0.00059135788
0.0049636364 0 0.00027777761
-0.0059090909 0.0031923077 -3.5802645e-05
-0.0059090909 0.0033519231 -3.5802645e-05
-0.0059090909 0.0038307693 -3.5802645e-05
-0.0059090909 0.0039903848 -3.5802645e-05
-0.0059090909 0.0041499999 -3.5802645e-05
-0.0057515153 -0.0039903848 -3.5802645e-05
-0.0057515153 -0.0038307693 -3.5802645e-05
-0.0057515153 -0.0036711539 -3.5802645e-05
-0.0057515153 -0.0033519231 -3.5802645e-05
0.007169697 -0.0019153847 0.002002469
0.0089030303 0 0.00027777761
0.0011818182 -0.0017557692 0.0026296296
0.0011818182 -0.0015961538 0.0026296296
0.0011818182 0.00031923078 0.0026296296
0.0087454543 0.00031923078 0.00027777761
0.0016545454 -0.00079807692 -0.0074049388
0.0016545454 -0.00063846156 -0.0074049388
-0.0057515153 0.0033519231 -3.5802645e-05
-0.0057515153 0.0039903848 -3.5802645e-05
-0.0057515153 0.0041499999 -3.5802645e-05
-0.0055939392 -0.0039903848 -3.5802645e-05
-0.0055939392 -0.0038307693 -3.5802645e-05
-0.0055939392 -0.0036711539 -3.5802645e-05
0.0089030303 -0.0015961538 0.00027777761
0.0011818182 -0.0019153847 0.0026296296
0.0092181815 -0.0017557692 0.00059135788
0.0090606064 0.00047884617 0.00059135788
0.0090606064 0 0.00059135788
0.0089030303 0.00047884617 0.00027777761
0.0089030303 0.00047884617 0.00059135788
0.010793939 0.00031923078 0.00059135788
-0.012842424 0.00079807692 -0.0025444448
-0.012842424 0.00095769233 -0.0025444448
0.010951515 0 0.00059135788
0.007169697 -0.0015961538 0.00027777761
-0.010636363 -0.0041499999 -0.0053666672
0.010951515 -0.0019153847 0.00059135788
0.0010242424 -0.002075 0.0026296296
0.0010242424 -0.0019153847 0.0026296296
0.0010242424 -0.0017557692 0.0026296296
0.0010242424 -0.0014365385 0.0026296296
0.0010242424 0.00015961539 0.0026296296
0.010793939 0.00015961539 0.00059135788
-7.8787882e-05 0.0041499999 -3.5802645e-05
-7.8787882e-05 0.0039903848 -3.5802645e-05
-7.8787882e-05 0.0038307693 -3.5802645e-05
-7.8787882e-05 0.0036711539 -3.5802645e-05
-7.8787882e-05 0.0035115385 -3.5802645e-05
-7.8787882e-05 0.0033519231 -3.5802645e-05
-7.8787882e-05 0.0031923077 -3.5802645e-05
-7.8787882e-05 0.0030326925 -3.5802645e-05
-7.8787882e-05 0.0028730771 -3.5802645e-05
-7.8787882e-05 0.0027134616 -3.5802645e-05
-7.8787882e-05 0.0025538462 -3.5802645e-05
0.012842424 -0.0038307693 -0.0081888894
0.012842424 -0.0017557692 -0.0081888894
0.012842424 -0.0028730771 -0.0081888894
0.012842424 -0.0030326925 -0.0081888894
0.012842424 -0.0031923077 -0.0081888894
0.012842424 -0.0033519231 -0.0081888894
0.012842424 -0.0035115385 -0.0081888894
0.012842424 -0.0036711539 -0.0081888894
0.012842424 -0.0015961538 -0.0081888894
0.012684848 0.0041499999 -0.0081888894
0.012684848 0.0036711539 -0.0081888894
0.012842424 0.0015961538 -0.0081888894
0.012842424 0.0014365385 -0.0081888894
0.012842424 0.0012769231 -0.0081888894
0.012842424 0.0011173077 -0.0081888894
0.012842424 0.00095769233 -0.0081888894
0.012842424 0.00079807692 -0.0081888894
0.012212121 0.0038307693 -0.0017604941
0.012212121 0.0039903848 -0.0017604941
0.012369697 -0.0039903848 -0.0017604941
0.011109091 0.0041499999 -0.0055234572
0.012842424 -0.00079807692 -0.0081888894
0.012842424 -0.00095769233 -0.0081888894
0.012842424 -0.0011173077 -0.0081888894
0.012842424 -0.0012769231 -0.0081888894
0.012842424 -0.0014365385 -0.0081888894
0.012684848 0.00063846156 -0.0081888894
0.013 0.0027134616 -0.0037987656
0.012684848 -0.00063846156 -0.0081888894
0.012527273 0.0036711539 -0.0017604941
0.012684848 -0.0038307693 -0.0017604941
0.010793939 0.0041499999 -0.0055234572
0.012369697 0.0036711539 -0.0017604941
0.012527273 -0.0038307693 -0.0017604941
0.010951515 0.0041499999 -0.0055234572
-0.012842424 0.00031923078 -0.0080320993
-0.012842424 0.00015961539 -0.0080320993
-0.012842424 0 -0.0080320993
-0.012842424 -0.00015961539 -0.0080320993
-0.012842424 -0.00079807692 -0.0080320993
-0.012842424 -0.00095769233 -0.0080320993
-0.012842424 -0.0011173077 -0.0080320993
-0.012842424 -0.0012769231 -0.0080320993
-0.012842424 -0.0014365385 -0.0080320993
-0.012842424 -0.0015961538 -0.0080320993
-0.012842424 0.00047884617 -0.0080320993
0.011739394 0.0041499999 -0.0017604941
0.01189697 -0.0041499999 -0.0017604941
-0.012842424 -0.0036711539 -0.0080320993
-0.0041757575 0.0039903848 -0.0083456794
-0.010163636 -0.0041499999 -0.0025444448
-0.013 0.0038307693 -0.0080320993
-0.013 0.0036711539 -0.0080320993
-0.013 0.0035115385 -0.0080320993
-0.013 0.0033519231 -0.0080320993
-0.012842424 0.0039903848 -0.0080320993
-0.010321212 -0.0041499999 -0.0025444448
-0.013 0.0031923077 -0.0080320993
0.01189697 -0.0041499999 -0.0055234572
0.011739394 0.0041499999 -0.0055234572
-0.012842424 0.00095769233 -0.0080320993
-0.012842424 0.00079807692 -0.0080320993
-0.012842424 0.00063846156 -0.0080320993
0.013 -0.002075 -0.0081888894
-0.013 -0.0035115385 -0.0080320993
-0.0041757575 0.0038307693 -0.0083456794
0.011581819 -0.0041499999 -0.0055234572
0.011424243 0.0041499999 -0.0055234572
-0.010793939 -0.0041499999 -0.0061506177
0.0021272728 -0.00063846156 -0.0074049388
0.013 0.0027134616 -0.0081888894
0.013 0.0017557692 -0.0081888894
0.012054546 0.0041499999 -0.0017604941
0.013 -0.0019153847 -0.0081888894
-0.010006061 -0.0041499999 -0.0025444448
0.013 -0.0022346154 -0.0081888894
0.013 -0.0023942308 -0.0081888894
0.013 -0.0025538462 -0.0081888894
-0.0098484848 -0.0041499999 -0.0025444448
0.013 -0.0027134616 -0.0081888894
0.011424243 -0.0041499999 -0.0055234572
0.011266666 0.0041499999 -0.0055234572
0.0021272728 -0.00047884617 -0.0074049388
0.012842424 0.0036711539 -0.0081888894
0.013 0.0017557692 -0.0037987656
-0.013 0.0014365385 -0.0080320993
-0.013 0.0030326925 -0.0080320993
0.011739394 -0.0041499999 -0.0055234572
0.011581819 0.0041499999 -0.0055234572
-0.013 0.0028730771 -0.0080320993
-0.013 0.0027134616 -0.0080320993
-0.013 0.0025538462 -0.0080320993
-0.013 0.0023942308 -0.0080320993
-0.013 0.0022346154 -0.0080320993
-0.013 0.002075 -0.0080320993
-0.013 0.0019153847 -0.0080320993
-0.013 0.0017557692 -0.0080320993
-0.013 0.0015961538 -0.0080320993
-0.013 0.0012769231 -0.0080320993
-0.013 0.0011173077 -0.0080320993
-0.013 -0.0017557692 -0.0080320993
0.01189697 0.0041499999 -0.0017604941
0.012054546 -0.0041499999 -0.0017604941
-0.013 -0.0027134616 -0.0080320993
-0.013 -0.0028730771 -0.0080320993
-0.013 -0.0030326925 -0.0080320993
-0.013 -0.0031923077 -0.0080320993
-0.013 -0.0033519231 -0.0080320993
-0.012842424 0.00079807692 -0.0016037039
-0.012842424 -0.0015961538 -0.0016037039
-0.012842424 -0.0014365385 -0.0016037039
-0.012842424 -0.0012769231 -0.0016037039
-0.012842424 -0.0011173077 -0.0016037039
-0.012842424 -0.00095769233 -0.0016037039
-0.012842424 -0.00079807692 -0.0016037039
-0.012842424 -0.00015961539 -0.0016037039
-0.012842424 0 -0.0016037039
-0.012842424 0.00015961539 -0.0016037039
-0.012842424 0.00031923078 -0.0016037039
-0.012842424 0.00047884617 -0.0016037039
-0.012842424 0.00063846156 -0.0016037039
-0.012842424 0.00095769233 -0.0016037039
-0.013 0.0019153847 -0.0016037039
-0.013 0.002075 -0.0016037039
-0.013 0.0022346154 -0.0016037039
-0.013 0.0023942308 -0.0016037039
-0.013 0.0025538462 -0.0016037039
-0.013 0.0027134616 -0.0016037039
-0.013 0.0028730771 -0.0016037039
-0.013 0.0030326925 -0.0016037039
-0.013 0.0031923077 -0.0016037039
-0.013 0.0033519231 -0.0016037039
-0.013 0.0035115385 -0.0016037039
-0.013 0.0036711539 -0.0016037039
-0.013 0.0038307693 -0.0016037039
0.010163636 0.0041499999 -0.0055234572
-0.012842424 -0.0036711539 -0.0016037039
-0.010478788 -0.0041499999 -0.0022308645
-0.012684848 0.0039903848 -0.0016037039
0.0098484848 0.0041499999 -0.0055234572
-0.012527273 -0.0036711539 -0.0016037039
-0.012842424 0.0039903848 -0.0016037039
-0.012684848 -0.0041499999 -0.0016037039
0.010006061 0.0041499999 -0.0055234572
-0.012684848 -0.0036711539 -0.0016037039
-0.013 0.0017557692 -0.0016037039
0.0021272728 -0.00031923078 -0.0074049388
0.012684848 0.0036711539 -0.0017604941
0.012684848 0.0041499999 -0.0017604941
0.012842424 -0.0038307693 -0.0017604941
0.012842424 -0.0036711539 -0.0017604941
0.012842424 -0.0035115385 -0.0017604941
0.010636363 0.0041499999 -0.0055234572
0.012842424 -0.0033519231 -0.0017604941
0.012842424 -0.0031923077 -0.0017604941
0.012842424 -0.0030326925 -0.0017604941
0.012842424 -0.0028730771 -0.0017604941
0.012684848 -0.00063846156 -0.0017604941
0.012684848 0.00063846156 -0.0017604941
0.013 0.0027134616 -0.0017604941
0.010478788 0.0041499999 -0.0055234572
0.013 -0.0027134616 -0.0017604941
0.013 -0.0025538462 -0.0017604941
0.013 -0.0023942308 -0.0017604941
0.013 -0.0022346154 -0.0017604941
0.013 -0.002075 -0.0017604941
0.013 -0.0019153847 -0.0017604941
0.013 0.0017557692 -0.0017604941
0.012684848 -0.0038307693 -0.0081888894
0.010321212 0.0041499999 -0.0055234572
-0.013 -0.0035115385 -0.0016037039
-0.013 -0.0033519231 -0.0016037039
-0.013 -0.0031923077 -0.0016037039
-0.013 -0.0030326925 -0.0016037039
-0.013 -0.0028730771 -0.0016037039
-0.013 -0.0027134616 -0.0016037039
0.012527273 0.0036711539 -0.0081888894
-0.013 -0.0017557692 -0.0016037039
-0.013 0.0011173077 -0.0016037039
-0.013 0.0012769231 -0.0016037039
-0.013 0.0014365385 -0.0016037039
-0.013 0.0015961538 -0.0016037039
0.012842424 -0.0017557692 -0.0017604941
0.012842424 -0.0015961538 -0.0017604941
0.012842424 -0.0014365385 -0.0017604941
0.012842424 -0.0012769231 -0.0017604941
0.012842424 -0.0011173077 -0.0017604941
0.012842424 -0.00095769233 -0.0017604941
0.012842424 -0.00079807692 -0.0017604941
0.012842424 0.00079807692 -0.0017604941
0.012842424 0.00095769233 -0.0017604941
0.012842424 0.0011173077 -0.0017604941
0.012842424 0.0012769231 -0.0017604941
0.012842424 0.0014365385 -0.0017604941
0.012842424 0.0015961538 -0.0017604941
-0.012684848 -0.0041499999 -0.0080320993
0.012842424 0.0036711539 -0.0017604941
0.013 0.0027134616 -0.0055234572
-0.010951515 -0.0041499999 -0.0025444448
-0.013 -0.0027134616 -0.0053666672
-0.013 -0.0028730771 -0.0053666672
-0.013 -0.0030326925 -0.0053666672
-0.013 -0.0031923077 -0.0053666672
-0.013 -0.0033519231 -0.0053666672
-0.013 -0.0035115385 -0.0053666672
-0.013 -0.0036711539 -0.0053666672
0.0011818182 0.0035115385 -3.5802645e-05
-0.013 -0.0017557692 -0.0053666672
0.012684848 -0.00063846156 -0.0037987656
0.013 0.0017557692 -0.0055234572
0.013 -0.0019153847 -0.0055234572
0.013 -0.002075 -0.0055234572
0.013 -0.0022346154 -0.0055234572
0.013 -0.0023942308 -0.0055234572
0.013 -0.0025538462 -0.0055234572
0.013 -0.0027134616 -0.0055234572
0.0011818182 0.0036711539 -3.5802645e-05
-0.013 0.0030326925 -0.0053666672
0.0011818182 0.0033519231 -3.5802645e-05
-0.013 0.0038307693 -0.0053666672
-0.013 0.0036711539 -0.0053666672
-0.013 0.0035115385 -0.0053666672
-0.013 0.0033519231 -0.0053666672
-0.013 0.0031923077 -0.0053666672
-0.013 0.0028730771 -0.0053666672
-0.013 0.0027134616 -0.0053666672
-0.013 0.0025538462 -0.0053666672
-0.013 0.0023942308 -0.0053666672
-0.013 0.0022346154 -0.0053666672
-0.013 0.002075 -0.0053666672
-0.013 0.0019153847 -0.0053666672
-0.013 0.0017557692 -0.0053666672
-0.013 0.0015961538 -0.0053666672
-0.013 0.0014365385 -0.0053666672
-0.013 0.0012769231 -0.0053666672
-0.013 0.0011173077 -0.0053666672
0.012842424 -0.0031923077 -0.0055234572
0.012842424 -0.0033519231 -0.0055234572
0.012842424 -0.0035115385 -0.0055234572
0.012842424 -0.0036711539 -0.0055234572
0.012842424 -0.0038307693 -0.0055234572
0.012684848 0.0041499999 -0.0055234572
0.012684848 0.0036711539 -0.0055234572
0.012842424 -0.0030326925 -0.0055234572
0.012684848 0.00063846156 -0.0055234572
0.012684848 0.00063846156 -0.0037987656
0.012842424 -0.00095769233 -0.0055234572
0.012842424 0.0015961538 -0.0055234572
0.012842424 0.0014365385 -0.0055234572
0.012842424 0.0012769231 -0.0055234572
0.012842424 0.0011173077 -0.0055234572
0.012842424 0.00095769233 -0.0055234572
0.012842424 0.00079807692 -0.0055234572
0.012842424 -0.00079807692 -0.0055234572
0.012842424 -0.0011173077 -0.0055234572
0.012842424 -0.0012769231 -0.0055234572
0.012842424 -0.0014365385 -0.0055234572
0.012842424 -0.0015961538 -0.0055234572
0.012842424 -0.0017557692 -0.0055234572
0.012842424 -0.0028730771 -0.0055234572
0.010951515 0.0041499999 -0.0017604941
0.012684848 -0.0039903848 -0.0037987656
-0.010006061 -0.0041499999 -0.0022308645
0.012527273 0.0036711539 -0.0037987656
-0.012054546 -0.0041499999 -0.0080320993
-0.012527273 -0.0038307693 -0.0053666672
-0.012684848 0.0039903848 -0.0053666672
-0.012842424 0.00015961539 -0.0053666672
-0.012842424 0.00095769233 -0.0053666672
-0.012842424 0.00079807692 -0.0053666672
-0.012842424 0.00063846156 -0.0053666672
-0.012842424 0.00047884617 -0.0053666672
-0.012842424 0.00031923078 -0.0053666672
-0.012842424 0 -0.0053666672
-0.012842424 -0.00015961539 -0.0053666672
-0.012842424 -0.00079807692 -0.0053666672
-0.012842424 -0.00095769233 -0.0053666672
-0.012842424 -0.0011173077 -0.0053666672
-0.012842424 -0.0012769231 -0.0053666672
-0.012842424 -0.0014365385 -0.0053666672
-0.012842424 -0.0015961538 -0.0053666672
-0.012684848 -0.0036711539 -0.0053666672
-0.012684848 -0.0041499999 -0.0053666672
-0.012842424 0.0039903848 -0.0053666672
-0.010636363 -0.0041499999 -0.0025444448
0.012842424 0.0012769231 -0.0037987656
0.012842424 0.0014365385 -0.0037987656
0.012842424 0.0015961538 -0.0037987656
-0.010321212 -0.0041499999 -0.0022308645
0.012054546 0.0041499999 -0.0055234572
0.012842424 0.0036711539 -0.0037987656
-0.0041757575 0.0041499999 -0.0083456794
0.012369697 -0.0039903848 -0.0055234572
0.012212121 0.0039903848 -0.0055234572
0.012212121 0.0038307693 -0.0055234572
0.012842424 0.00079807692 -0.0037987656
0.012842424 0.00095769233 -0.0037987656
0.012842424 0.0011173077 -0.0037987656
0.011424243 0.0041499999 -0.0017604941
0.011266666 0.0041499999 -0.0017604941
0.011424243 -0.0041499999 -0.0017604941
-0.012527273 0.0039903848 -0.0080320993
0.01189697 0.0041499999 -0.0055234572
0.013 -0.0027134616 -0.0037987656
0.013 -0.0025538462 -0.0037987656
0.013 -0.0023942308 -0.0037987656
0.013 -0.0022346154 -0.0037987656
0.013 -0.002075 -0.0037987656
0.013 -0.0019153847 -0.0037987656
0.012054546 -0.0041499999 -0.0055234572
0.011581819 0.0041499999 -0.0017604941
0.011739394 -0.0041499999 -0.0017604941
-0.012684848 -0.0036711539 -0.0080320993
0.011581819 -0.0041499999 -0.0017604941
-0.012527273 -0.0036711539 -0.0080320993
-0.012684848 0.0039903848 -0.0080320993
-0.010478788 -0.0041499999 -0.0025444448
0.012842424 -0.00079807692 -0.0037987656
-0.012212121 -0.0038307693 -0.0080320993
-0.012212121 -0.0039903848 -0.0080320993
-0.012212121 -0.0041499999 -0.0080320993
0.012684848 -0.00063846156 -0.0055234572
0.011109091 0.0041499999 -0.0017604941
0.012684848 -0.0038307693 -0.0055234572
0.012527273 0.0038307693 -0.0055234572
0.012842424 -0.0030326925 -0.0037987656
-0.010163636 -0.0041499999 -0.0022308645
0.012684848 0.0036711539 -0.0037987656
0.012684848 0.0041499999 -0.0037987656
-0.010793939 -0.0041499999 -0.0025444448
0.012842424 -0.0039903848 -0.0037987656
0.012842424 -0.0038307693 -0.0037987656
0.012842424 -0.0036711539 -0.0037987656
0.012842424 -0.0035115385 -0.0037987656
0.012842424 -0.0033519231 -0.0037987656
0.012842424 -0.0031923077 -0.0037987656
0.012842424 -0.0028730771 -0.0037987656
0.012842424 -0.0017557692 -0.0037987656
0.012842424 -0.0015961538 -0.0037987656
0.012842424 -0.0014365385 -0.0037987656
0.012842424 -0.0012769231 -0.0037987656
0.012842424 -0.0011173077 -0.0037987656
0.012842424 -0.00095769233 -0.0037987656
-0.012369697 0.0039903848 -0.0080320993
0.012842424 -0.00095769233 -0.0056802472
0.012527273 -0.0038307693 -0.0055234572
0.012369697 0.0036711539 -0.0055234572
0.012054546 0.0041499999 -0.0085024694
-0.0022848486 0.0035115385 -3.5802645e-05
-0.012054546 -0.0041499999 -0.0042691361
-0.0022848486 0.0036711539 -3.5802645e-05
-0.0022848486 0.0038307693 -3.5802645e-05
-0.0022848486 0.0039903848 -3.5802645e-05
0.010163636 0.0041499999 -0.0036419756
-0.0027575758 -0.0017557692 0.00027777761
-0.0027575758 -0.0019153847 0.00027777761
0.010478788 0.0041499999 -0.0025444448
-0.0021272728 -0.0039903848 -3.5802645e-05
0.007169697 -0.0015961538 0.0026296296
0.012212121 0.0038307693 -0.0085024694
-0.0070121214 0 0.002159259
-0.0029151514 0 0.00027777761
-0.012212121 -0.0038307693 -0.0042691361
-0.012212121 -0.0039903848 -0.0042691361
-0.012212121 -0.0041499999 -0.0042691361
-0.012369697 0.0039903848 -0.0042691361
-0.0070121214 -0.0014365385 0.002159259
0.012527273 -0.0038307693 -0.0085024694
0.012369697 0.0036711539 -0.0085024694
0.012369697 -0.0039903848 -0.0085024694
-0.0022848486 0.0030326925 -3.5802645e-05
0.012212121 0.0039903848 -0.0085024694
-0.0022848486 0.0031923077 -3.5802645e-05
-0.0022848486 0.0033519231 -3.5802645e-05
-0.0030727272 -0.0017557692 0.00027777761
0.01189697 -0.0041499999 -0.0085024694
0.011739394 0.0041499999 -0.0085024694
0.010478788 0.0041499999 -0.0036419756
-0.012527273 -0.0036711539 -0.0042691361
-0.012684848 0.0039903848 -0.0042691361
0.01189697 0.0041499999 -0.0085024694
-0.0029151514 -0.0014365385 0.00027777761
0.010321212 0.0041499999 -0.0036419756
0.01189697 -0.0041499999 -0.0075617288
0.011739394 0.0041499999 -0.0075617288
-0.0029151514 -0.002075 0.00027777761
0.010321212 0.0041499999 -0.0025444448
0.012054546 -0.0041499999 -0.0085024694
-0.0068545453 -0.0014365385 0.002159259
-0.0030727272 0 0.00027777761
-0.012527273 0.0039903848 -0.0042691361
-0.0024424242 0.0030326925 -3.5802645e-05
-0.0024424242 0.0031923077 -3.5802645e-05
-0.0024424242 0.0033519231 -3.5802645e-05
-0.0024424242 0.0035115385 -3.5802645e-05
-0.0024424242 0.0036711539 -3.5802645e-05
-0.0024424242 0.0038307693 -3.5802645e-05
-0.0024424242 0.0039903848 -3.5802645e-05
-0.0022848486 -0.0041499999 -3.5802645e-05
-0.0022848486 -0.0039903848 -3.5802645e-05
0.012684848 0.00063846156 -0.0085024694
0.012684848 -0.00063846156 -0.0085024694
0.012842424 -0.0031923077 -0.0085024694
0.012842424 -0.0012769231 -0.0085024694
0.012842424 -0.0014365385 -0.0085024694
0.012842424 -0.0015961538 -0.0085024694
0.012842424 -0.0017557692 -0.0085024694
0.012842424 -0.0028730771 -0.0085024694
0.012842424 -0.0030326925 -0.0085024694
0.012842424 -0.0033519231 -0.0085024694
0.012842424 -0.0035115385 -0.0085024694
0.012842424 -0.0036711539 -0.0085024694
0.012842424 -0.0038307693 -0.0085024694
0.012684848 0.0041499999 -0.0085024694
0.012684848 0.0036711539 -0.0085024694
-0.010006061 -0.0041499999 -0.0012901237
-0.0027575758 -0.0017557692 0.00043456774
-0.007169697 0 0.002159259
0.012369697 0.0036711539 -0.0050530867
-0.007169697 0.00047884617 0.002159259
-0.0029151514 0 0.00043456774
-0.0029151514 -0.0014365385 0.00043456774
0.010006061 0.0041499999 -0.0036419756
-0.01189697 -0.0041499999 -0.0042691361
0.010636363 0.0041499999 -0.0025444448
0.012684848 -0.00063846156 -0.0050530867
-0.0030727272 0 0.00043456774
-0.0030727272 -0.0017557692 0.00043456774
-0.0030727272 -0.0019153847 0.00043456774
-0.0030727272 -0.002075 0.00043456774
0.012684848 -0.0038307693 -0.0085024694
-0.0098484848 -0.0041499999 -0.0012901237
0.012527273 0.0036711539 -0.0085024694
0.012842424 -0.0031923077 -0.0044259261
0.012842424 -0.0011173077 -0.0044259261
0.012842424 -0.0012769231 -0.0044259261
0.012842424 -0.0014365385 -0.0044259261
0.012842424 -0.0015961538 -0.0044259261
0.012842424 -0.0017557692 -0.0044259261
0.012842424 -0.0028730771 -0.0044259261
0.012842424 -0.0030326925 -0.0044259261
0.012842424 -0.00095769233 -0.0044259261
0.012842424 -0.0033519231 -0.0044259261
0.012842424 -0.0035115385 -0.0044259261
0.012842424 -0.0036711539 -0.0044259261
0.012842424 -0.0038307693 -0.0044259261
0.012684848 0.0041499999 -0.0044259261
0.012684848 0.0036711539 -0.0044259261
0.011109091 0.0041499999 -0.0085024694
0.013 -0.0019153847 -0.0044259261
0.013 -0.002075 -0.0044259261
0.013 -0.0022346154 -0.0044259261
0.013 -0.0023942308 -0.0044259261
0.013 -0.0025538462 -0.0044259261
0.013 -0.0027134616 -0.0044259261
0.012842424 0.0036711539 -0.0044259261
-0.00086666667 -0.0041499999 -3.5802645e-05
0.012842424 0.0015961538 -0.0044259261
0.012842424 0.0014365385 -0.0044259261
0.012842424 0.0012769231 -0.0044259261
0.012842424 0.0011173077 -0.0044259261
0.012842424 0.00095769233 -0.0044259261
0.012842424 0.00079807692 -0.0044259261
0.010951515 0.0041499999 -0.0085024694
0.012842424 -0.00079807692 -0.0044259261
0.012684848 -0.0038307693 -0.0044259261
0.012527273 0.0036711539 -0.0044259261
-0.0010242424 0.0038307693 -3.5802645e-05
-0.0010242424 0.0036711539 -3.5802645e-05
0.010636363 0.0041499999 -0.0085024694
-0.0090606064 -0.0019153847 0.0027864196
0.010636363 0.0041499999 -0.0036419756
-0.0010242424 0.0035115385 -3.5802645e-05
-0.0010242424 0.0039903848 -3.5802645e-05
0.010793939 0.0041499999 -0.0085024694
0.012684848 0.00063846156 -0.0044259261
-0.0010242424 0.0041499999 -3.5802645e-05
0.013 0.0017557692 -0.0044259261
0.012684848 -0.00063846156 -0.0044259261
-0.012684848 -0.0036711539 -0.0042691361
-0.012684848 -0.0041499999 -0.0042691361
-0.012842424 0.0039903848 -0.0042691361
-0.012842424 0.00095769233 -0.0042691361
-0.012842424 0.00079807692 -0.0042691361
0.010163636 0.0041499999 -0.0025444448
0.011739394 -0.0041499999 -0.0085024694
0.011581819 0.0041499999 -0.0085024694
-0.013 0.0014365385 -0.0042691361
-0.013 0.0035115385 -0.0042691361
-0.013 0.0033519231 -0.0042691361
-0.013 0.0031923077 -0.0042691361
-0.013 0.0030326925 -0.0042691361
-0.013 0.0028730771 -0.0042691361
-0.013 0.0027134616 -0.0042691361
-0.013 0.0025538462 -0.0042691361
-0.013 0.0023942308 -0.0042691361
-0.013 0.0022346154 -0.0042691361
-0.013 0.002075 -0.0042691361
-0.013 0.0019153847 -0.0042691361
-0.013 0.0017557692 -0.0042691361
-0.013 0.0015961538 -0.0042691361
-0.013 0.0036711539 -0.0042691361
-0.013 0.0012769231 -0.0042691361
-0.013 0.0011173077 -0.0042691361
0.011424243 -0.0041499999 -0.0085024694
0.011266666 0.0041499999 -0.0085024694
-0.013 -0.0017557692 -0.0042691361
-0.013 -0.0027134616 -0.0042691361
-0.013 -0.0028730771 -0.0042691361
-0.013 -0.0030326925 -0.0042691361
-0.013 -0.0031923077 -0.0042691361
-0.013 -0.0033519231 -0.0042691361
-0.013 -0.0035115385 -0.0042691361
0.013 0.0027134616 -0.0044259261
-0.012842424 -0.0011173077 -0.0042691361
-0.012842424 0.00063846156 -0.0042691361
-0.012842424 0.00047884617 -0.0042691361
-0.012842424 0.00031923078 -0.0042691361
-0.012842424 0.00015961539 -0.0042691361
-0.012842424 0 -0.0042691361
-0.012842424 -0.00015961539 -0.0042691361
0.011581819 -0.0041499999 -0.0085024694
0.011424243 0.0041499999 -0.0085024694
-0.0068545453 0.00015961539 0.002159259
-0.0068545453 0.00031923078 0.002159259
-0.012842424 -0.00079807692 -0.0042691361
-0.012842424 -0.00095769233 -0.0042691361
0.012842424 -0.0011173077 -0.0085024694
-0.012842424 -0.0012769231 -0.0042691361
-0.012842424 -0.0014365385 -0.0042691361
-0.012842424 -0.0015961538 -0.0042691361
-0.012842424 -0.0036711539 -0.0042691361
-0.013 0.0038307693 -0.0042691361
-0.011739394 -0.0041499999 -0.0083456794
-0.010951515 0 0.002159259
-0.010163636 -0.0041499999 -0.0055234572
-0.011739394 -0.0041499999 -0.0012901237
-0.010793939 -0.0019153847 0.002159259
-0.010793939 -0.0015961538 0.002159259
0.011581819 -0.0041499999 -0.0025444448
0.011424243 0.0041499999 -0.0025444448
-0.0032303031 0.0030326925 -3.5802645e-05
-0.011109091 -0.0041499999 -0.0042691361
0.005121212 0.00015961539 0.00043456774
-0.0032303031 0.0031923077 -3.5802645e-05
-0.0032303031 0.0033519231 -3.5802645e-05
-0.010006061 -0.0041499999 -0.0055234572
-0.011581819 -0.0041499999 -0.0012901237
-0.0032303031 0.0035115385 -3.5802645e-05
-0.0032303031 0.0036711539 -3.5802645e-05
0.0068545453 0.00047884617 0.00043456774
-0.010793939 -0.0041499999 -0.0042691361
0.0068545453 0 0.00043456774
-0.0038606061 0.0022346154 -0.0081888894
-0.0038606061 0.0023942308 -0.0081888894
-0.0032303031 -0.0038307693 -3.5802645e-05
-0.0038606061 0.0025538462 -0.0081888894
0.0068545453 -0.0015961538 0.00043456774
0.0068545453 -0.0017557692 0.00043456774
-0.010321212 -0.0041499999 -0.0055234572
-0.01189697 -0.0041499999 -0.0012901237
0.0049636364 -0.0014365385 0.00043456774
0.0070121214 0 0.0026296296
0.011424243 0.0041499999 -0.0075617288
0.011739394 -0.0041499999 -0.0025444448
0.011581819 0.0041499999 -0.0025444448
-0.011581819 -0.0041499999 -0.0083456794
-0.010951515 -0.0041499999 -0.0042691361
-0.00086666667 0.0036711539 -3.5802645e-05
-0.00086666667 0.0035115385 -3.5802645e-05
-0.00086666667 0.0033519231 -3.5802645e-05
-0.00086666667 0.0031923077 -3.5802645e-05
-0.00086666667 0.0030326925 -3.5802645e-05
-0.00086666667 0.0028730771 -3.5802645e-05
-0.00086666667 0.0027134616 -3.5802645e-05
-0.012212121 -0.0039903848 -0.0083456794
-0.012212121 -0.0041499999 -0.0083456794
-0.012369697 0.0039903848 -0.0083456794
-0.011266666 -0.0041499999 -0.0012901237
-0.011109091 -0.0041499999 -0.0012901237
-0.011581819 -0.0041499999 -0.0042691361
0.010951515 0.0041499999 -0.0025444448
-0.012369697 -0.0038307693 -0.0083456794
-0.012527273 0.0039903848 -0.0083456794
-0.0032303031 0.0038307693 -3.5802645e-05
-0.0030727272 -0.0041499999 -3.5802645e-05
-0.01189697 -0.0041499999 -0.0083456794
0.0048060608 0.00031923078 0.00043456774
0.0048060608 0.00015961539 0.00043456774
0.0048060608 0 0.00043456774
-0.011266666 -0.0041499999 -0.0042691361
0.011424243 -0.0041499999 -0.0025444448
0.011266666 0.0041499999 -0.0025444448
-0.011424243 -0.0041499999 -0.0012901237
-0.011424243 -0.0041499999 -0.0083456794
-0.0030727272 -0.0038307693 -3.5802645e-05
-0.0098484848 -0.0041499999 -0.0055234572
-0.00086666667 0.0041499999 -3.5802645e-05
-0.00086666667 0.0039903848 -3.5802645e-05
-0.00086666667 0.0038307693 -3.5802645e-05
-0.012054546 -0.0041499999 -0.0083456794
-0.011424243 -0.0041499999 -0.0042691361
0.011109091 0.0041499999 -0.0025444448
-0.0041757575 0.0038307693 -0.0081888894
-0.010478788 -0.0041499999 -0.0042691361
-0.0041757575 0.0039903848 -0.0081888894
-0.011109091 -0.0041499999 -0.0083456794
-0.0041757575 0.0041499999 -0.0081888894
-0.010636363 -0.0041499999 -0.0055234572
-0.012054546 -0.0041499999 -0.0041123461
-0.012369697 0.0039903848 -0.0012901237
-0.012212121 -0.0041499999 -0.0012901237
-0.012212121 -0.0039903848 -0.0012901237
-0.012212121 -0.0038307693 -0.0012901237
0.012054546 -0.0041499999 -0.0025444448
0.01189697 0.0041499999 -0.0025444448
-0.0033878789 0.0031923077 -3.5802645e-05
-0.0033878789 0.0033519231 -3.5802645e-05
-0.010636363 -0.0041499999 -0.0042691361
0.0089030303 0.00047884617 0.00043456774
0.0089030303 0 0.00043456774
0.012054546 0.0041499999 -0.0025444448
0.0089030303 -0.0015961538 0.00043456774
0.0087454543 0.00031923078 0.00043456774
-0.011266666 -0.0041499999 -0.0083456794
-0.012527273 0.0039903848 -0.0012901237
0.012054546 -0.0041499999 -0.0075617288
0.01189697 0.0041499999 -0.0075617288
-0.0038606061 0.0011173077 -0.0081888894
-0.0038606061 -0.00095769233 -0.0081888894
-0.0038606061 -0.00079807692 -0.0081888894
0.007169697 -0.0015961538 0.00043456774
-0.0038606061 -0.00063846156 -0.0081888894
0.007169697 -0.0019153847 0.00043456774
-0.0038606061 -0.00047884617 -0.0081888894
-0.0033878789 0.0036711539 -3.5802645e-05
-0.0033878789 0.0038307693 -3.5802645e-05
-0.0038606061 0.00047884617 -0.0081888894
-0.0038606061 0.00063846156 -0.0081888894
0.0070121214 0.00047884617 0.00043456774
-0.0038606061 0.00079807692 -0.0081888894
-0.0038606061 0.00095769233 -0.0081888894
-0.0038606061 -0.0011173077 -0.0081888894
0.01189697 -0.0041499999 -0.0025444448
0.011739394 0.0041499999 -0.0025444448
0.0070121214 -0.0014365385 0.00043456774
-0.0032303031 -0.0041499999 -3.5802645e-05
-0.0038606061 0.0012769231 -0.0081888894
0.0070121214 -0.002075 0.00043456774
-0.0038606061 0.0014365385 -0.0081888894
-0.0038606061 0.0015961538 -0.0081888894
-0.0038606061 0.0017557692 -0.0081888894
-0.0038606061 0.0019153847 -0.0081888894
-0.0032303031 -0.0039903848 -3.5802645e-05
-0.0038606061 0.002075 -0.0081888894
-0.010793939 -0.0041499999 -0.0072481483
-0.0040181819 0.0035115385 -0.0081888894
-0.010478788 -0.0041499999 -0.0055234572
-0.0038606061 -0.0038307693 -0.0081888894
-0.0038606061 -0.0036711539 -0.0081888894
-0.0038606061 -0.0035115385 -0.0081888894
-0.0038606061 -0.0033519231 -0.0081888894
-0.0038606061 -0.0031923077 -0.0081888894
-0.0038606061 -0.0030326925 -0.0081888894
-0.0038606061 -0.0028730771 -0.0081888894
-0.0038606061 -0.0027134616 -0.0081888894
-0.0038606061 -0.0025538462 -0.0081888894
-0.0038606061 -0.0023942308 -0.0081888894
-0.0038606061 -0.0022346154 -0.0081888894
-0.0038606061 -0.002075 -0.0081888894
-0.0038606061 -0.0019153847 -0.0081888894
-0.0038606061 -0.0017557692 -0.0081888894
-0.0038606061 -0.0015961538 -0.0081888894
-0.0038606061 -0.0014365385 -0.0081888894
0.007169697 0.00031923078 0.00043456774
0.007169697 0.00015961539 0.00043456774
-0.012054546 -0.0041499999 -0.0012901237
-0.0033878789 0.0035115385 -3.5802645e-05
-0.0038606061 -0.0012769231 -0.0081888894
-0.013 0.0011173077 -0.0083456794
-0.013 0.0027134616 -0.0083456794
-0.013 0.0025538462 -0.0083456794
-0.013 0.0023942308 -0.0083456794
-0.0090606064 -0.0014365385 0.002159259
-0.013 0.0022346154 -0.0083456794
-0.013 0.002075 -0.0083456794
-0.013 0.0019153847 -0.0083456794
-0.013 0.0017557692 -0.0083456794
-0.013 0.0015961538 -0.0083456794
-0.013 0.0014365385 -0.0083456794
-0.013 0.0012769231 -0.0083456794
-0.013 0.0028730771 -0.0083456794
-0.0090606064 0.00015961539 0.002159259
0.0011818182 -0.0014365385 0.00043456774
0.0011818182 -0.0015961538 0.00043456774
-0.013 -0.0017557692 -0.0083456794
-0.013 -0.0027134616 -0.0083456794
-0.013 -0.0028730771 -0.0083456794
-0.013 -0.0030326925 -0.0083456794
0.0010242424 0 0.00043456774
-0.013 -0.0031923077 -0.0083456794
-0.0089030303 -0.002075 0.002159259
-0.013 -0.0033519231 -0.0083456794
-0.013 -0.0035115385 -0.0083456794
-0.0029151514 0.0033519231 -3.5802645e-05
-0.0029151514 0.0035115385 -3.5802645e-05
-0.0029151514 0.0036711539 -3.5802645e-05
-0.0029151514 0.0038307693 -3.5802645e-05
-0.012842424 -0.0011173077 -0.0083456794
-0.012842424 -0.0012769231 -0.0083456794
-0.0027575758 -0.0041499999 -3.5802645e-05
-0.012842424 -0.0014365385 -0.0083456794
-0.012842424 -0.0015961538 -0.0083456794
-0.0027575758 -0.0038307693 -3.5802645e-05
-0.013 -0.0036711539 -0.0083456794
-0.0092181815 0.00015961539 0.002159259
-0.013 0.0038307693 -0.0083456794
-0.013 0.0036711539 -0.0083456794
-0.013 0.0035115385 -0.0083456794
-0.013 0.0033519231 -0.0083456794
-0.013 0.0031923077 -0.0083456794
-0.010478788 -0.0041499999 -0.0012901237
-0.013 0.0030326925 -0.0083456794
-0.0026 0.0036711539 -3.5802645e-05
-0.0026 0.0038307693 -3.5802645e-05
0.013 -0.0025538462 -0.0085024694
0.013 -0.0027134616 -0.0085024694
-0.0024424242 -0.0041499999 -3.5802645e-05
-0.0024424242 -0.0039903848 -3.5802645e-05
0.012842424 0.0036711539 -0.0085024694
-0.010163636 -0.0041499999 -0.0012901237
-0.00086666667 -0.002075 0.00043456774
-0.0026 0.0035115385 -3.5802645e-05
0.012842424 0.0015961538 -0.0085024694
0.012842424 0.0014365385 -0.0085024694
0.012842424 0.0012769231 -0.0085024694
0.012842424 0.0011173077 -0.0085024694
0.012842424 0.00095769233 -0.0085024694
0.012842424 0.00079807692 -0.0085024694
-0.0010242424 0 0.00043456774
-0.010951515 -0.0041499999 -0.0072481483
-0.0011818182 0 0.00043456774
0.012842424 -0.00079807692 -0.0085024694
0.012842424 -0.00095769233 -0.0085024694
-0.0027575758 0.0033519231 -3.5802645e-05
0.0010242424 -0.0019153847 0.00043456774
-0.010321212 -0.0041499999 -0.0012901237
0.013 0.0027134616 -0.0085024694
-0.0089030303 -0.0014365385 0.002159259
0.013 0.0017557692 -0.0085024694
-0.0089030303 0 0.002159259
0.012684848 0.00063846156 -0.0050530867
-0.0027575758 0.0030326925 -3.5802645e-05
-0.0027575758 0.0031923077 -3.5802645e-05
-0.012842424 -0.00095769233 -0.0083456794
-0.0027575758 0.0035115385 -3.5802645e-05
-0.0027575758 0.0036711539 -3.5802645e-05
-0.0027575758 0.0038307693 -3.5802645e-05
-0.0026 -0.0041499999 -3.5802645e-05
-0.0087454543 -0.0017557692 0.002159259
0.013 -0.0019153847 -0.0085024694
0.013 -0.002075 -0.0085024694
0.013 -0.0022346154 -0.0085024694
-0.0026 0.0030326925 -3.5802645e-05
-0.0026 0.0031923077 -3.5802645e-05
0.013 -0.0023942308 -0.0085024694
-0.0026 0.0033519231 -3.5802645e-05
-0.012527273 -0.0038307693 -0.0083456794
0.011581819 -0.0041499999 -0.0075617288
0.0030727272 0 0.00043456774
-0.012684848 0.0039903848 -0.0083456794
0.0030727272 -0.0014365385 0.00043456774
0.0030727272 -0.0015961538 0.00043456774
0.0030727272 -0.002075 0.00043456774
-0.010793939 -0.0041499999 -0.0012901237
-0.0030727272 0.0030326925 -3.5802645e-05
-0.0030727272 0.0031923077 -3.5802645e-05
-0.0030727272 0.0033519231 -3.5802645e-05
-0.0030727272 0.0035115385 -3.5802645e-05
-0.0030727272 0.0036711539 -3.5802645e-05
-0.0030727272 0.0038307693 -3.5802645e-05
-0.0029151514 -0.0041499999 -3.5802645e-05
-0.010951515 -0.0041499999 -0.0012901237
-0.0029151514 -0.0038307693 -3.5802645e-05
0.0098484848 0.0041499999 -0.0036419756
-0.011739394 -0.0041499999 -0.0042691361
-0.010636363 -0.0041499999 -0.0012901237
-0.012842424 0.00095769233 -0.0083456794
-0.012842424 0.00079807692 -0.0083456794
-0.012842424 0.00063846156 -0.0083456794
-0.012842424 0.00047884617 -0.0083456794
-0.012842424 0.00031923078 -0.0083456794
-0.012842424 0.00015961539 -0.0083456794
-0.012842424 0 -0.0083456794
-0.012842424 -0.00015961539 -0.0083456794
-0.0029151514 0.0030326925 -3.5802645e-05
-0.012842424 -0.00079807692 -0.0083456794
-0.0029151514 0.0031923077 -3.5802645e-05
0.010793939 0.0041499999 -0.0025444448
-0.0010242424 0.0033519231 -3.5802645e-05
-0.012684848 -0.0036711539 -0.0083456794
-0.012684848 -0.0041499999 -0.0083456794
-0.012842424 0.0039903848 -0.0083456794
0.012684848 -0.0039903848 -0.0036419756
0.012527273 0.0036711539 -0.0036419756
-0.010793939 -0.0019153847 0.00027777761
0.012212121 0.0039903848 -0.0074049388
0.010321212 0.0041499999 -0.0044259261
0.010478788 0.0041499999 -0.0074049388
0.012369697 -0.0039903848 -0.0074049388
0.012369697 0.0036711539 -0.0036419756
0.012527273 -0.0039903848 -0.0036419756
0.010478788 0.0041499999 -0.0044259261
0.010321212 0.0041499999 -0.0074049388
-0.010793939 -0.0015961538 0.00027777761
0.010163636 0.0041499999 -0.0044259261
0.012212121 0.0036711539 -0.0074049388
0.011266666 0.00031923078 0.00012098748
0.012684848 0.0036711539 -0.0036419756
0.012684848 0.0041499999 -0.0036419756
0.012842424 -0.0039903848 -0.0036419756
0.012842424 -0.0038307693 -0.0036419756
0.012842424 -0.0036711539 -0.0036419756
0.012212121 0.0038307693 -0.0074049388
0.012842424 -0.0035115385 -0.0036419756
0.012842424 -0.0033519231 -0.0036419756
0.012842424 -0.0031923077 -0.0036419756
0.012842424 -0.0030326925 -0.0036419756
0.012842424 -0.0028730771 -0.0036419756
0.010636363 0.0041499999 -0.0074049388
