# .PCD v0.7 - Point Cloud Data file format
VERSION 0.7
FIELDS x y z
SIZE 4 4 4
TYPE F F F
COUNT 1 1 1
WIDTH 1189
HEIGHT 1
VIEWPOINT 0 0 0 1 0 0 0
POINTS 1189
DATA ascii
0.010761905 0.0018337209 -0.0094075762
0.010761905 0.0014476745 -0.0094075762
0.010761905 0.0012546512 -0.0094075762
-0.017238095 0.003377907 -0.0011333335
0.010571429 0.0006755814 -0.0092151519
0.017238095 0.0014476745 -0.0094075762
-0.0040952382 -0.0041499999 -0.0088303033
0.0080952384 -0.0012546512 -0.0092151519
0.0080952384 -0.0006755814 -0.0092151519
0.0080952384 -0.00048255816 -0.0092151519
0.0080952384 -0.00028953489 -0.0092151519
0.0080952384 -9.6511627e-05 -0.0092151519
0.014952381 0.0041499999 -0.00074848504
0.017238095 0.0018337209 -0.0094075762
-0.012666667 -0.0041499999 -0.00036363656
0.017238095 0.0020267442 -0.0094075762
0.017238095 0.0022197675 -0.0094075762
0.0044761905 0.0031848839 -0.0094075762
0.014571428 0.0041499999 -0.00074848504
0.015904762 -0.0035709303 -0.0001712123
-0.017238095 -0.0029918605 -0.0011333335
-0.017238095 -0.0031848839 -0.0011333335
-0.017238095 -0.003377907 -0.0011333335
-0.017238095 -0.0035709303 -0.0011333335
-0.017238095 -0.0037639537 -0.0011333335
-0.017238095 -0.0039569768 -0.0011333335
-0.017428571 0.0039569768 -0.0011333335
0.017428571 -0.0016406977 -0.0094075762
0.010571429 0.00028953489 -0.0092151519
0.010571429 9.6511627e-05 -0.0092151519
0.010571429 -9.6511627e-05 -0.0092151519
0.010571429 -0.00028953489 -0.0092151519
-0.014380952 -0.0039569768 -0.00055606081
0.0082857143 -9.6511627e-05 -0.0092151519
0.0048571429 0.0031848839 -0.0094075762
-0.01647619 -0.0039569768 -0.0090227276
0.0048571429 0.003377907 -0.0094075762
0.0048571429 0.0035709303 -0.0094075762
0.015904762 -0.0037639537 -0.0001712123
0.015904762 -0.0039569768 -0.0001712123
-0.014 -0.0014476745 0.0017530302
0.015904762 -0.0041499999 -0.0001712123
0.0082857143 -0.0014476745 -0.0092151519
0.010571429 0.00048255816 -0.0092151519
0.0048571429 -0.003377907 -0.0094075762
-0.016666668 -0.0039569768 -0.0090227276
0.0082857143 -0.0016406977 -0.0092151519
0.010571429 0.0020267442 -0.0094075762
0.0099999998 -0.0014476745 0.0002136362
0.010571429 0.0018337209 -0.0094075762
-0.017809523 0.0012546512 -0.00094090926
0.010571429 0.0014476745 -0.0094075762
0.010571429 0.0012546512 -0.0094075762
0.010571429 -0.0012546512 -0.0094075762
0.010571429 -0.0014476745 -0.0094075762
0.010571429 -0.0016406977 -0.0094075762
0.0082857143 -0.0012546512 -0.0092151519
0.0082857143 -0.001061628 -0.0092151519
-0.0099999998 -0.0014476745 0.002330303
0.0082857143 -0.00086860469 -0.0092151519
0.0082857143 -0.0006755814 -0.0092151519
0.0082857143 -0.00048255816 -0.0092151519
-0.014 0.00048255816 0.0017530302
0.0082857143 -0.00028953489 -0.0092151519
0.0090476191 -9.6511627e-05 -0.0092151519
-0.017809523 0.0014476745 -0.0011333335
-0.017809523 0.0012546512 -0.0011333335
0.0056190477 0.0037639537 -0.0094075762
-0.017238095 0.0039569768 -0.00094090926
-0.017047619 -0.0039569768 -0.00094090926
-0.017809523 0.001061628 -0.0011333335
0.0090476191 -0.001061628 -0.0092151519
0.0090476191 -0.00086860469 -0.0092151519
0.0090476191 -0.0006755814 -0.0092151519
0.0090476191 -0.00048255816 -0.0092151519
0.0090476191 -0.00028953489 -0.0092151519
-0.014761905 -0.0039569768 -0.00055606081
0.0090476191 9.6511627e-05 -0.0092151519
0.0090476191 0.00028953489 -0.0092151519
0.010190476 0.001061628 -0.0094075762
0.010190476 -0.0014476745 -0.0094075762
0.0018095238 -0.0016406977 0.0011757574
0.010190476 -0.0016406977 -0.0094075762
-0.017809523 0.00086860469 -0.0011333335
-0.017809523 0.0006755814 -0.0011333335
-0.017809523 0.00048255816 -0.0011333335
0.017428571 0.0020267442 -0.0094075762
-0.017809523 -0.0014476745 -0.0011333335
-0.017809523 -0.0016406977 -0.0011333335
-0.017428571 0.0039569768 -0.00094090926
-0.017238095 -0.0039569768 -0.00094090926
-0.017238095 -0.0037639537 -0.00094090926
-0.017238095 -0.0035709303 -0.00094090926
-0.017238095 -0.003377907 -0.00094090926
-0.017809523 0.0039569768 -0.0011333335
-0.017809523 0.0035709303 -0.0011333335
-0.017809523 0.0029918605 -0.0011333335
0.0090476191 -0.0020267442 -0.0092151519
0.013809524 0.0041499999 -0.00074848504
0.0056190477 0.0027988374 -0.0094075762
0.0056190477 0.0029918605 -0.0094075762
0.0056190477 0.0031848839 -0.0094075762
0.0056190477 0.003377907 -0.0094075762
0.0056190477 0.0035709303 -0.0094075762
0.0021904763 -0.0018337209 0.0013681817
-0.017809523 0.0018337209 -0.0011333335
-0.017809523 0.0016406977 -0.0011333335
0.0058095236 0.0027988374 -0.0094075762
0.0056190477 0.0039569768 -0.0094075762
0.0056190477 0.0041499999 -0.0094075762
-0.017999999 0.003377907 -0.0011333335
-0.017999999 0.0029918605 -0.0011333335
0.0058095236 -0.0031848839 -0.0094075762
-0.017999999 0.0027988374 -0.0011333335
-0.017999999 0.002605814 -0.0011333335
-0.017999999 0.0024127907 -0.0011333335
0.0060000001 0.00048255816 0.0027151513
-0.017999999 0.0022197675 -0.0011333335
-0.017999999 0.0020267442 -0.0011333335
0.0058095236 -0.0029918605 -0.0094075762
0.0058095236 0.0029918605 -0.0094075762
0.0058095236 0.0031848839 -0.0094075762
0.0058095236 0.003377907 -0.0094075762
0.0058095236 0.0037639537 -0.0094075762
0.0058095236 0.0039569768 -0.0094075762
0.0058095236 0.0041499999 -0.0094075762
0.0060000001 -0.0039569768 -0.0094075762
0.017428571 0.0039569768 -0.0094075762
0.017428571 0.0041499999 -0.0094075762
-0.01647619 -0.0039569768 -0.00094090926
-0.003904762 -0.00048255816 -0.0088303033
0.0021904763 -0.0018337209 0.0011757574
0.0040952382 0.00028953489 0.0027151513
-0.017809523 -0.0018337209 -0.0011333335
-0.017809523 -0.0020267442 -0.0011333335
-0.017809523 -0.0022197675 -0.0011333335
-0.017047619 0.0041499999 -0.00094090926
-0.016857143 -0.0039569768 -0.00094090926
0.010190476 -0.0024127907 -0.0094075762
0.010190476 -0.002605814 -0.0094075762
-0.013428572 -0.0039569768 -0.0088303033
0.010190476 -0.003377907 -0.0094075762
-0.015714286 -0.0039569768 -0.0090227276
-0.016095238 -0.0039569768 -0.00074848504
0.0021904763 0.00048255816 0.0011757574
-0.017809523 -0.0024127907 -0.0011333335
0.0020000001 -0.0020267442 0.0013681817
-0.017809523 -0.002605814 -0.0011333335
-0.017809523 -0.0027988374 -0.0011333335
-0.017999999 0.0037639537 -0.0011333335
-0.017999999 0.0035709303 -0.0011333335
-0.016666668 -0.0039569768 -0.00094090926
-0.017619047 -0.0029918605 -0.00094090926
-0.017809523 0.0031848839 -0.00094090926
0.010190476 -0.0018337209 0.0025227272
-0.014190476 -0.0018337209 0.0017530302
-0.017809523 0.003377907 -0.00094090926
-0.017809523 0.0039569768 -0.00094090926
-0.017619047 -0.0031848839 -0.00094090926
-0.010190476 -0.0016406977 0.002330303
-0.010190476 -0.0018337209 0.002330303
0.015142857 0.0041499999 -0.0090227276
0.0088571431 -0.00048255816 -0.0092151519
-0.017809523 0.0014476745 -0.00094090926
-0.014190476 0.00028953489 0.0017530302
-0.015714286 -0.0039569768 -0.00074848504
0.0088571431 -0.0024127907 -0.0092151519
0.0088571431 -0.0020267442 -0.0092151519
0.0088571431 -0.0014476745 -0.0092151519
0.0088571431 -0.0012546512 -0.0092151519
0.0088571431 -0.001061628 -0.0092151519
0.0088571431 -0.00086860469 -0.0092151519
0.0088571431 -0.0006755814 -0.0092151519
0.0088571431 -0.00028953489 -0.0092151519
0.0088571431 -9.6511627e-05 -0.0092151519
0.0088571431 9.6511627e-05 -0.0092151519
-0.003904762 -0.0016406977 -0.0088303033
-0.003904762 -0.0014476745 -0.0088303033
-0.003904762 -0.0012546512 -0.0088303033
-0.003904762 -0.001061628 -0.0088303033
-0.003904762 -0.00086860469 -0.0088303033
-0.003904762 -0.0006755814 -0.0088303033
-0.017809523 0.0016406977 -0.00094090926
-0.017809523 0.0018337209 -0.00094090926
0.010190476 0.0014476745 -0.0094075762
-0.017428571 -0.0029918605 -0.00094090926
0.010190476 -0.0018337209 0.0021378787
0.014 0.0041499999 -0.00074848504
0.0054285713 0.0029918605 -0.0094075762
0.0054285713 0.0031848839 -0.0094075762
0.0054285713 0.003377907 -0.0094075762
0.0054285713 0.0035709303 -0.0094075762
0.0054285713 0.0037639537 -0.0094075762
0.0054285713 0.0039569768 -0.0094075762
0.010571429 -0.0041499999 -0.0092151519
0.0054285713 0.0041499999 -0.0094075762
0.0021904763 0.00048255816 0.0013681817
-0.015904762 -0.0039569768 -0.0090227276
-0.017428571 -0.0031848839 -0.00094090926
0.010190476 0.0012546512 -0.0094075762
0.017428571 0.0018337209 -0.0094075762
0.0056190477 -0.0031848839 -0.0094075762
-0.017428571 0.003377907 -0.00094090926
0.017809523 -9.6511627e-05 -0.0094075762
-0.017619047 0.0031848839 -0.00094090926
-0.017619047 0.003377907 -0.00094090926
-0.015904762 -0.0039569768 -0.00074848504
-0.017619047 -0.0027988374 -0.0011333335
-0.017619047 0.0039569768 -0.00094090926
0.017809523 0.0031848839 -0.00074848504
-0.017809523 0.001061628 -0.0092151519
0.0098095238 9.6511627e-05 0.0021378787
-0.012476191 -0.0041499999 -0.00094090926
0.017999999 -0.0020267442 -0.00074848504
0.017999999 -0.0022197675 -0.00074848504
0.017999999 -0.0024127907 -0.00074848504
0.017999999 -0.002605814 -0.00074848504
0.017999999 -0.0027988374 -0.00074848504
0.017999999 -0.0029918605 -0.00074848504
0.017999999 -0.0031848839 -0.00074848504
0.017999999 -0.003377907 -0.00074848504
0.017999999 -0.0035709303 -0.00074848504
-0.017809523 0.0012546512 -0.0092151519
0.017809523 0.003377907 -0.00074848504
-0.017809523 0.00086860469 -0.0092151519
0.0099999998 -0.0014476745 0.0011757574
0.017809523 0.0029918605 -0.00074848504
0.017809523 0.0027988374 -0.00074848504
0.017809523 0.002605814 -0.00074848504
0.017809523 0.0024127907 -0.00074848504
0.017809523 0.0022197675 -0.00074848504
-0.017809523 0.0014476745 -0.0092151519
0.014190476 9.6511627e-05 0.00098333322
0.0069523808 -0.0022197675 -0.0094075762
0.0069523808 -0.0020267442 -0.0094075762
0.0098095238 -0.001061628 -0.0092151519
0.0098095238 -0.00086860469 -0.0092151519
0.0098095238 -0.0006755814 -0.0092151519
0.014190476 0.0041499999 -0.0090227276
-0.017999999 0.002605814 -0.00055606081
-0.017999999 0.0024127907 -0.00055606081
-0.017999999 0.0022197675 -0.00055606081
-0.017999999 0.0020267442 -0.00055606081
-0.017999999 -0.0029918605 -0.00055606081
-0.017999999 -0.0031848839 -0.00055606081
0.0082857143 -0.0035709303 -0.0094075762
0.017999999 -0.001061628 -0.00074848504
0.017999999 -0.0012546512 -0.00074848504
0.017999999 -0.0014476745 -0.00074848504
0.017999999 -0.0016406977 -0.00074848504
0.017999999 -0.0018337209 -0.00074848504
0.0080952384 0.0039569768 -0.0094075762
0.0069523808 -0.0018337209 -0.0094075762
0.0080952384 0.0035709303 -0.0094075762
0.0080952384 0.0029918605 -0.0094075762
-0.012095238 0.00048255816 0.0021378787
0.0080952384 -0.0016406977 -0.0094075762
0.0080952384 -0.0018337209 -0.0094075762
0.0080952384 -0.0022197675 -0.0094075762
0.014571428 -0.0041499999 -0.0013257578
0.014380952 0.0041499999 -0.0013257578
-0.011904762 -0.0020267442 0.0021378787
-0.017809523 0.0024127907 -0.0092151519
-0.017809523 0.002605814 -0.0092151519
-0.017809523 0.0027988374 -0.0092151519
-0.017809523 0.0029918605 -0.0092151519
-0.017809523 0.0031848839 -0.0092151519
0.0079047615 0.0039569768 -0.0094075762
0.0079047615 0.003377907 -0.0094075762
0.017809523 -0.00048255816 -0.00074848504
0.017809523 -0.0006755814 -0.00074848504
0.017809523 -0.00086860469 -0.00074848504
0.0098095238 9.6511627e-05 0.0011757574
-0.017809523 0.003377907 -0.0092151519
-0.017809523 0.0035709303 -0.0092151519
0.014380952 -0.0041499999 -0.0013257578
-0.017809523 0.0037639537 -0.0092151519
-0.017809523 0.0039569768 -0.0092151519
-0.017619047 -0.003377907 -0.0092151519
-0.011904762 0.00028953489 0.0021378787
0.0069523808 0.0024127907 -0.0094075762
0.0069523808 0.002605814 -0.0094075762
0.0098095238 -0.00048255816 -0.0092151519
0.0098095238 -0.00028953489 -0.0092151519
0.0080952384 -0.0024127907 -0.0094075762
0.0080952384 -0.002605814 -0.0094075762
0.0080952384 -0.0027988374 -0.0094075762
0.0098095238 -9.6511627e-05 -0.0092151519
-0.012285714 -0.0041499999 -0.00094090926
0.0098095238 9.6511627e-05 -0.0092151519
0.0098095238 0.00028953489 -0.0092151519
-0.011904762 9.6511627e-05 0.0021378787
0.0098095238 0.00048255816 -0.0092151519
-0.017999999 0.0027988374 -0.00055606081
0.017809523 0.0020267442 -0.00074848504
0.017809523 0.0018337209 -0.00074848504
0.017809523 0.0016406977 -0.00074848504
0.017809523 0.0014476745 -0.00074848504
0.017809523 0.0006755814 -0.00074848504
0.017809523 0.00048255816 -0.00074848504
0.017809523 0.00028953489 -0.00074848504
0.017809523 9.6511627e-05 -0.00074848504
0.017809523 -9.6511627e-05 -0.00074848504
0.017809523 -0.00028953489 -0.00074848504
-0.011904762 0.00048255816 0.0021378787
-0.017809523 0.0016406977 -0.0092151519
-0.012095238 -0.0020267442 0.0021378787
-0.015904762 9.6511627e-05 0.0027151513
-0.015904762 0.00028953489 0.0027151513
-0.017428571 -0.0031848839 -0.00055606081
-0.017619047 0.0039569768 -0.00055606081
0.0069523808 -0.0029918605 -0.0094075762
0.0067619048 0.0039569768 -0.0094075762
0.010190476 -0.0018337209 0.0011757574
-0.012095238 -0.0014476745 0.0021378787
0.0082857143 -0.0024127907 -0.0094075762
0.0082857143 -0.002605814 -0.0094075762
0.0082857143 -0.0027988374 -0.0094075762
0.014190476 -0.0018337209 0.00098333322
0.014190476 -0.0016406977 0.00098333322
-0.013809524 -0.0018337209 0.0025227272
-0.017238095 -0.003377907 -0.00055606081
-0.017238095 -0.0035709303 -0.00055606081
-0.017238095 -0.0037639537 -0.00055606081
-0.017238095 -0.0039569768 -0.00055606081
-0.017428571 0.0039569768 -0.00055606081
-0.012857143 -0.0041499999 -0.0090227276
0.014761905 -0.0041499999 -0.0013257578
0.014571428 0.0041499999 -0.0013257578
0.0067619048 0.0037639537 -0.0094075762
0.0098095238 -0.0018337209 -0.0092151519
-0.017809523 0.00048255816 -0.00055606081
-0.017809523 -0.0014476745 -0.00055606081
-0.017809523 -0.0016406977 -0.00055606081
-0.017809523 -0.0018337209 -0.00055606081
0.016666668 -0.0041499999 -0.00094090926
0.01647619 0.0041499999 -0.00094090926
-0.017809523 -0.0020267442 -0.00055606081
0.0069523808 -0.0027988374 -0.0094075762
0.0069523808 -0.002605814 -0.0094075762
0.0098095238 -0.0020267442 -0.0092151519
-0.017809523 0.0006755814 -0.00055606081
-0.015333333 -0.0039569768 -0.0088303033
-0.012666667 -0.0041499999 -0.00094090926
-0.017809523 -0.0022197675 -0.00055606081
-0.017809523 -0.0024127907 -0.00055606081
-0.017809523 -0.002605814 -0.00055606081
-0.017809523 -0.0027988374 -0.00055606081
-0.017809523 -0.0031848839 -0.00055606081
-0.017999999 0.0037639537 -0.00055606081
-0.017999999 0.0035709303 -0.00055606081
-0.017999999 0.003377907 -0.00055606081
-0.017999999 0.0031848839 -0.00055606081
-0.017999999 0.0029918605 -0.00055606081
-0.017619047 -0.0031848839 -0.00055606081
-0.017809523 0.0039569768 -0.00055606081
0.0079047615 0.0027988374 -0.0094075762
-0.017809523 0.0018337209 -0.00055606081
-0.017809523 0.0016406977 -0.00055606081
-0.017809523 0.0014476745 -0.00055606081
-0.017809523 0.0012546512 -0.00055606081
-0.017809523 0.001061628 -0.00055606081
-0.017809523 0.00086860469 -0.00055606081
0.010190476 -0.0018337209 -0.0092151519
0.013809524 0.0041499999 -0.0090227276
-0.016666668 -0.0039569768 -0.0092151519
-0.016857143 0.0041499999 -0.0092151519
0.014190476 -0.0041499999 -0.0013257578
0.014 0.0041499999 -0.0013257578
-0.0040952382 -0.0014476745 0.0013681817
0.0075238096 0.0027988374 -0.0094075762
0.0075238096 0.0024127907 -0.0094075762
0.0075238096 -0.0018337209 -0.0094075762
0.0075238096 -0.0020267442 -0.0094075762
0.010190476 -0.0020267442 -0.0092151519
-0.0040952382 9.6511627e-05 0.0013681817
0.010190476 -0.0022197675 -0.0092151519
0.0099999998 -0.0006755814 -0.0092151519
0.0099999998 -0.00048255816 -0.0092151519
0.0099999998 -0.00028953489 -0.0092151519
0.0099999998 -9.6511627e-05 -0.0092151519
0.0099999998 9.6511627e-05 -0.0092151519
0.0099999998 0.00028953489 -0.0092151519
0.0099999998 0.00048255816 -0.0092151519
0.0098095238 -0.0016406977 2.1211948e-05
0.0071428572 0.0039569768 -0.0094075762
0.010190476 -0.0006755814 -0.0092151519
0.0075238096 0.0039569768 -0.0094075762
0.017619047 -0.0037639537 -0.00074848504
0.017428571 0.0039569768 -0.00074848504
0.017428571 0.0037639537 -0.00074848504
0.010190476 -9.6511627e-05 -0.0092151519
0.016285714 -0.0041499999 -0.00094090926
0.010190476 -0.00028953489 -0.0092151519
0.010190476 -0.00048255816 -0.0092151519
0.0073333331 -0.0035709303 -0.0094075762
0.0099999998 -0.001061628 -0.0092151519
0.013809524 0.0041499999 -0.0013257578
0.014 -0.0041499999 -0.0013257578
-0.017619047 0.0029918605 -0.0092151519
-0.017619047 0.0031848839 -0.0092151519
-0.017619047 0.003377907 -0.0092151519
-0.017619047 0.0035709303 -0.0092151519
-0.017619047 0.0037639537 -0.0092151519
-0.017619047 0.0039569768 -0.0092151519
-0.017428571 -0.003377907 -0.0092151519
0.013428572 0.0041499999 -0.0090227276
0.017428571 -0.0037639537 -0.00074848504
0.017238095 0.0041499999 -0.00074848504
-0.016857143 -0.0039569768 -0.0092151519
-0.003904762 -0.0020267442 0.0013681817
0.013619048 0.0041499999 -0.0090227276
-0.014 9.6511627e-05 0.0027151513
0.0073333331 0.0039569768 -0.0094075762
-0.013809524 -0.0016406977 0.0027151513
-0.013809524 -0.0018337209 0.0027151513
-0.017047619 -0.0039569768 -0.0092151519
-0.003904762 -0.0014476745 0.0013681817
0.0073333331 -0.0022197675 -0.0094075762
0.0073333331 -0.0020267442 -0.0094075762
0.0073333331 -0.0018337209 -0.0094075762
0.0073333331 0.0024127907 -0.0094075762
0.0073333331 0.0029918605 -0.0094075762
-0.017428571 0.0035709303 -0.0092151519
0.0099999998 0.0006755814 -0.0092151519
0.0073333331 -0.0029918605 -0.0094075762
-0.014 -0.0020267442 0.0027151513
0.0073333331 -0.0027988374 -0.0094075762
-0.014 -0.0016406977 0.0027151513
0.0073333331 -0.002605814 -0.0094075762
0.0075238096 -0.0024127907 -0.0094075762
-0.017428571 0.0031848839 -0.0092151519
0.0077142855 -0.0035709303 -0.0094075762
-0.017428571 0.0037639537 -0.0092151519
-0.017428571 0.0039569768 -0.0092151519
0.013238096 0.0041499999 -0.0090227276
-0.017238095 -0.0039569768 -0.0092151519
0.0075238096 -0.002605814 -0.0094075762
0.0075238096 -0.0027988374 -0.0094075762
0.0075238096 -0.0029918605 -0.0094075762
0.0073333331 -0.0024127907 -0.0094075762
0.0098095238 -0.0018337209 2.1211948e-05
-0.015714286 -0.0039569768 -0.0088303033
-0.017238095 -0.0037639537 -0.0092151519
-0.017238095 -0.0035709303 -0.0092151519
-0.01647619 0.0041499999 -0.0092151519
0.014190476 0.0041499999 -0.0013257578
0.016095238 0.00048255816 0.00098333322
0.014 0.0041499999 -0.0090227276
0.016095238 9.6511627e-05 0.00098333322
0.0098095238 -0.0016406977 0.0021378787
0.016285714 0.0041499999 -0.00094090926
-0.016285714 -0.0039569768 -0.0092151519
-0.01552381 -0.0039569768 -0.0088303033
0.0079047615 -0.0035709303 -0.0094075762
0.0071428572 -0.0029918605 -0.0094075762
0.0077142855 0.0039569768 -0.0094075762
0.0071428572 -0.0027988374 -0.0094075762
0.016095238 -0.0014476745 0.00098333322
0.0071428572 -0.002605814 -0.0094075762
0.0071428572 -0.0024127907 -0.0094075762
0.016095238 -0.0018337209 0.00098333322
0.0071428572 -0.0022197675 -0.0094075762
0.0079047615 -0.0016406977 -0.0094075762
0.0079047615 -0.0020267442 -0.0094075762
0.0098095238 -0.0018337209 0.0011757574
0.01647619 -0.0041499999 -0.00094090926
0.0071428572 -0.0020267442 -0.0094075762
0.017809523 -0.0037639537 -0.00074848504
0.017619047 0.003377907 -0.00074848504
0.0069523808 0.0039569768 -0.0094075762
-0.015904762 -0.0039569768 -0.0088303033
0.0071428572 -0.0037639537 -0.0094075762
0.0079047615 -0.0022197675 -0.0094075762
0.0079047615 -0.0024127907 -0.0094075762
0.0079047615 -0.002605814 -0.0094075762
0.0079047615 -0.0027988374 -0.0094075762
0.0077142855 -0.002605814 -0.0094075762
0.010190476 0.0006755814 -0.0092151519
0.010190476 0.00048255816 -0.0092151519
0.010190476 0.00028953489 -0.0092151519
0.010190476 9.6511627e-05 -0.0092151519
0.0071428572 0.0024127907 -0.0094075762
0.0071428572 0.0027988374 -0.0094075762
0.0077142855 -0.0022197675 -0.0094075762
0.0077142855 -0.0024127907 -0.0094075762
0.0077142855 -0.0027988374 -0.0094075762
0.0077142855 -0.0029918605 -0.0094075762
0.0099999998 -0.0020267442 -0.0092151519
0.0099999998 -0.0018337209 -0.0092151519
-0.017619047 0.0027988374 -0.0092151519
-0.0040952382 -0.0020267442 0.0013681817
-0.0040952382 -0.0018337209 0.0013681817
-0.0040952382 -0.0016406977 0.0013681817
0.0077142855 0.002605814 -0.0094075762
0.0077142855 0.0031848839 -0.0094075762
0.0098095238 0.00048255816 2.1211948e-05
0.0077142855 0.0029918605 -0.0094075762
0.017047619 0.0041499999 -0.00074848504
0.017238095 -0.0039569768 -0.00074848504
0.017238095 -0.0037639537 -0.00074848504
0.0071428572 -0.0018337209 -0.0094075762
0.0082857143 -0.0022197675 -0.0094075762
0.0077142855 -0.0016406977 -0.0094075762
0.0077142855 -0.0018337209 -0.0094075762
0.0077142855 -0.0020267442 -0.0094075762
0.016095238 0.0041499999 -0.00094090926
-0.01647619 -0.0039569768 -0.0092151519
-0.016666668 0.0041499999 -0.0092151519
-0.016095238 9.6511627e-05 0.00040606046
0.0098095238 0.00028953489 2.1211948e-05
0.015904762 -0.0016406977 0.00098333322
0.015904762 -0.0018337209 0.00098333322
0.009428571 -0.002605814 -0.0094075762
0.016666668 -0.0041499999 -0.0013257578
0.01647619 0.0041499999 -0.0013257578
0.010380953 -0.00028953489 -0.0092151519
0.0065714284 -0.0029918605 -0.0094075762
-0.014 -0.0039569768 -0.00094090926
0.017809523 0.002605814 -0.0094075762
0.017809523 0.003377907 -0.0094075762
-0.014 -0.0014476745 0.0011757574
0.017809523 0.0035709303 -0.0094075762
0.017809523 0.0037639537 -0.0094075762
0.009428571 -0.0024127907 -0.0094075762
0.0065714284 -0.0031848839 -0.0094075762
0.009238095 0.0035709303 -0.0094075762
0.009238095 0.003377907 -0.0094075762
0.009238095 0.0031848839 -0.0094075762
0.009238095 0.002605814 -0.0094075762
0.009238095 0.0024127907 -0.0094075762
0.009238095 0.0022197675 -0.0094075762
-0.014 -0.0020267442 0.0011757574
0.017238095 -0.0037639537 -0.00094090926
0.017047619 0.0041499999 -0.00094090926
0.011904762 -0.0018337209 0.0027151513
0.0065714284 -0.0027988374 -0.0094075762
-0.0040952382 -0.003377907 -0.0090227276
0.009428571 -0.0016406977 -0.0094075762
0.010380953 -9.6511627e-05 -0.0092151519
-0.015904762 -0.0039569768 -0.0092151519
0.009428571 -0.0020267442 -0.0094075762
0.017809523 0.0018337209 -0.0094075762
0.017809523 0.0020267442 -0.0094075762
0.017809523 0.0022197675 -0.0094075762
-0.016095238 0.0041499999 -0.0092151519
0.017809523 0.0024127907 -0.0094075762
-0.010190476 -0.0018337209 0.0025227272
0.0063809524 0.0037639537 -0.0094075762
-0.0040952382 -0.0031848839 -0.0090227276
-0.0042857141 -0.0029918605 -0.0090227276
-0.0040952382 -0.0041499999 -0.0090227276
0.009428571 -0.0022197675 -0.0094075762
-0.0042857141 0.0041499999 -0.0090227276
-0.014190476 -0.0039569768 -0.0090227276
0.0063809524 0.0039569768 -0.0094075762
-0.015714286 -0.0039569768 -0.00055606081
0.0063809524 0.0041499999 -0.0094075762
0.0065714284 -0.0035709303 -0.0094075762
0.0090476191 0.003377907 -0.0094075762
0.0090476191 -0.0018337209 -0.0094075762
-0.014952381 -0.0039569768 -0.0088303033
0.016285714 0.0041499999 -0.0013257578
0.013619048 0.0041499999 -0.0013257578
-0.014190476 -0.0016406977 0.0011757574
0.010380953 -0.0006755814 -0.0092151519
0.0090476191 0.0035709303 -0.0094075762
-0.017999999 -0.0031848839 -0.0092151519
-0.017999999 -0.0029918605 -0.0092151519
-0.015904762 -0.0039569768 -0.00055606081
0.011904762 -0.0018337209 0.0011757574
-0.017999999 -0.0027988374 -0.0092151519
-0.017999999 -0.002605814 -0.0092151519
-0.014190476 -0.0018337209 0.0011757574
-0.0044761905 -0.0029918605 -0.0090227276
-0.0044761905 -0.0031848839 -0.0090227276
-0.0044761905 -0.003377907 -0.0090227276
-0.0046666665 0.0041499999 -0.0090227276
0.0090476191 -0.0022197675 -0.0094075762
0.0090476191 -0.0024127907 -0.0094075762
0.0065714284 -0.002605814 -0.0094075762
-0.0042857141 -0.0031848839 -0.0090227276
-0.0042857141 -0.003377907 -0.0090227276
-0.0042857141 -0.0041499999 -0.0090227276
-0.0044761905 0.0041499999 -0.0090227276
-0.014190476 0.00028953489 0.0015606059
-0.014190476 0.00028953489 0.0011757574
0.014571428 0.0041499999 -0.0090227276
0.010380953 -0.00048255816 -0.0092151519
0.017999999 -0.001061628 -0.0094075762
0.017999999 0.0020267442 -0.0094075762
0.017999999 0.0022197675 -0.0094075762
0.009428571 0.0020267442 -0.0094075762
0.009238095 -0.0016406977 -0.0094075762
0.009238095 -0.0018337209 -0.0094075762
0.009238095 -0.0022197675 -0.0094075762
0.009238095 -0.0024127907 -0.0094075762
0.009238095 -0.002605814 -0.0094075762
0.009238095 -0.0029918605 -0.0094075762
0.0090476191 0.0037639537 -0.0094075762
0.01647619 -0.0041499999 -0.0013257578
0.0065714284 -0.0022197675 -0.0094075762
0.0065714284 0.0024127907 -0.0094075762
-0.013809524 -0.0039569768 -0.00094090926
0.009428571 0.0031848839 -0.0094075762
-0.003904762 0.001061628 -0.0090227276
-0.003904762 0.00086860469 -0.0090227276
0.0096190479 -0.0024127907 -0.0094075762
0.0096190479 -0.002605814 -0.0094075762
-0.003904762 0.0006755814 -0.0090227276
-0.003904762 0.00048255816 -0.0090227276
-0.003904762 0.00028953489 -0.0090227276
-0.014190476 -0.0018337209 0.0015606059
0.009428571 0.0039569768 -0.0094075762
0.009428571 0.0035709303 -0.0094075762
-0.003904762 9.6511627e-05 -0.0090227276
-0.014380952 -0.0039569768 -0.00094090926
-0.003904762 -9.6511627e-05 -0.0090227276
0.009428571 0.003377907 -0.0094075762
0.013809524 0.00028953489 0.00098333322
0.017809523 9.6511627e-05 -0.0094075762
0.010380953 9.6511627e-05 -0.0092151519
0.017809523 0.00028953489 -0.0094075762
-0.003904762 -0.00028953489 -0.0090227276
-0.003904762 -0.00048255816 -0.0090227276
-0.003904762 -0.0006755814 -0.0090227276
-0.003904762 -0.00086860469 -0.0090227276
-0.003904762 -0.001061628 -0.0090227276
-0.003904762 -0.0012546512 -0.0090227276
0.014761905 0.0041499999 -0.0090227276
-0.014571428 -0.0039569768 -0.0088303033
0.0096190479 -0.0022197675 -0.0094075762
-0.014761905 -0.0039569768 -0.00094090926
0.017238095 -0.003377907 -0.0013257578
0.017238095 -0.0035709303 -0.0013257578
0.017047619 0.0041499999 -0.0013257578
-0.014571428 -0.0039569768 -0.0090227276
-0.014571428 -0.0039569768 -0.00094090926
-0.003904762 0.0027988374 -0.0090227276
-0.003904762 0.002605814 -0.0090227276
-0.003904762 0.0024127907 -0.0090227276
-0.003904762 0.0022197675 -0.0090227276
-0.003904762 0.0020267442 -0.0090227276
-0.003904762 0.0018337209 -0.0090227276
-0.003904762 0.0016406977 -0.0090227276
-0.003904762 0.0014476745 -0.0090227276
-0.003904762 0.0012546512 -0.0090227276
0.011904762 -0.0018337209 0.0021378787
0.0063809524 0.0031848839 -0.0094075762
-0.013809524 -0.0018337209 0.0011757574
0.009428571 9.6511627e-05 -0.0092151519
0.009428571 0.00028953489 -0.0092151519
0.017238095 0.0041499999 -0.00094090926
0.0063809524 -0.0027988374 -0.0094075762
0.0063809524 0.0024127907 -0.0094075762
0.0063809524 0.002605814 -0.0094075762
0.0063809524 0.0027988374 -0.0094075762
-0.014380952 -0.0039569768 -0.0090227276
0.0063809524 0.0029918605 -0.0094075762
0.009428571 -9.6511627e-05 -0.0092151519
-0.014190476 -0.0039569768 -0.00094090926
-0.014761905 -0.0039569768 -0.0088303033
0.009428571 0.0027988374 -0.0094075762
0.009428571 0.002605814 -0.0094075762
0.009428571 0.0024127907 -0.0094075762
0.016857143 -0.0041499999 -0.0013257578
0.016666668 0.0041499999 -0.0013257578
0.009428571 0.0022197675 -0.0094075762
0.009428571 -0.0006755814 -0.0092151519
0.017428571 -0.003377907 -0.00094090926
0.017428571 -0.0035709303 -0.00094090926
0.017428571 -0.0037639537 -0.00094090926
-0.003904762 -0.0014476745 -0.0090227276
-0.003904762 -0.0016406977 -0.0090227276
-0.003904762 -0.0018337209 -0.0090227276
-0.003904762 -0.0020267442 -0.0090227276
-0.003904762 -0.0022197675 -0.0090227276
-0.003904762 -0.0024127907 -0.0090227276
0.009428571 -0.00086860469 -0.0092151519
-0.003904762 -0.002605814 -0.0090227276
-0.003904762 -0.0027988374 -0.0090227276
-0.003904762 -0.0029918605 -0.0090227276
0.0090476191 -0.002605814 -0.0094075762
-0.0040952382 0.0039569768 -0.0090227276
0.009428571 -0.00048255816 -0.0092151519
0.017047619 -0.0037639537 -0.0013257578
0.017047619 -0.0039569768 -0.0013257578
0.017047619 -0.0041499999 -0.0013257578
0.016857143 0.0041499999 -0.0013257578
0.009428571 -0.00028953489 -0.0092151519
-0.01552381 -0.0039569768 -0.00055606081
0.016857143 -0.0039569768 -0.00094090926
-0.016285714 -0.0039569768 -0.00055606081
-0.014 -0.0014476745 0.0021378787
0.011904762 -0.0020267442 2.1211948e-05
0.010380953 -0.0018337209 -0.0092151519
0.010380953 -0.0020267442 -0.0092151519
-0.017999999 0.003377907 -0.0092151519
-0.017999999 0.0035709303 -0.0092151519
-0.017999999 0.0037639537 -0.0092151519
-0.017809523 -0.003377907 -0.0092151519
0.015333333 0.0041499999 -0.0013257578
0.012285714 9.6511627e-05 0.0002136362
0.016666668 0.0041499999 -0.00094090926
-0.013809524 -0.0018337209 0.0021378787
0.015333333 -0.0041499999 -0.0013257578
0.015142857 0.0041499999 -0.0013257578
0.011904762 -0.0014476745 2.1211948e-05
0.015714286 -0.0041499999 -0.0013257578
0.0086666662 -0.0035709303 -0.0094075762
0.014190476 0.00028953489 0.0027151513
0.01552381 0.0041499999 -0.0013257578
-0.014190476 0.00028953489 0.0021378787
0.0084761903 0.0039569768 -0.0094075762
0.014190476 -0.0018337209 0.0025227272
0.014190476 -0.0016406977 0.0025227272
-0.015904762 0.00028953489 0.0011757574
0.0084761903 0.003377907 -0.0094075762
0.014190476 0.00048255816 0.0025227272
0.0096190479 -9.6511627e-05 -0.0092151519
0.0096190479 9.6511627e-05 -0.0092151519
0.0096190479 0.00028953489 -0.0092151519
0.0096190479 0.00048255816 -0.0092151519
-0.014 -0.0020267442 0.0021378787
0.01552381 -0.0041499999 -0.0013257578
0.014952381 -0.0041499999 -0.0013257578
0.011904762 -0.0018337209 0.0002136362
0.016095238 0.00048255816 0.0025227272
0.013809524 0.00028953489 0.0027151513
-0.016857143 -0.0039569768 -0.00055606081
-0.017047619 0.0041499999 -0.00055606081
0.016095238 9.6511627e-05 0.0025227272
0.014761905 0.0041499999 -0.0013257578
0.014 0.00028953489 0.0029075756
-0.017047619 -0.0039569768 -0.00055606081
-0.017238095 0.0039569768 -0.00055606081
0.0082857143 0.0037639537 -0.0094075762
0.0082857143 0.0031848839 -0.0094075762
0.0082857143 -0.0018337209 -0.0094075762
0.0082857143 -0.0020267442 -0.0094075762
-0.01647619 -0.0039569768 -0.00055606081
0.0067619048 -0.0020267442 -0.0094075762
0.0084761903 -0.0024127907 -0.0094075762
0.0084761903 -0.002605814 -0.0094075762
0.0084761903 -0.0027988374 -0.0094075762
0.0084761903 -0.003377907 -0.0094075762
0.0084761903 -0.0035709303 -0.0094075762
0.0082857143 0.0039569768 -0.0094075762
0.015714286 0.00028953489 0.0025227272
0.015904762 -0.0016406977 0.0025227272
-0.016666668 -0.0039569768 -0.00055606081
0.015142857 -0.0041499999 -0.0013257578
-0.0080952384 -0.0020267442 0.002330303
0.014952381 0.0041499999 -0.0013257578
0.010380953 -0.0022197675 -0.0092151519
-0.016095238 -0.0039569768 -0.0092151519
-0.016285714 0.0041499999 -0.0092151519
0.016095238 -0.0014476745 0.0025227272
0.0088571431 -0.0035709303 -0.0094075762
-0.017999999 -0.0014476745 -0.0092151519
-0.017999999 -0.0012546512 -0.0092151519
-0.017999999 -0.001061628 -0.0092151519
0.0065714284 0.0041499999 -0.0094075762
0.013809524 -0.0041499999 -0.0013257578
0.0088571431 -0.002605814 -0.0094075762
0.0088571431 -0.0027988374 -0.0094075762
0.0088571431 -0.0029918605 -0.0094075762
0.0088571431 -0.0031848839 -0.0094075762
0.0088571431 -0.003377907 -0.0094075762
0.0065714284 0.0039569768 -0.0094075762
0.0086666662 -0.0018337209 -0.0094075762
0.0086666662 -0.0020267442 -0.0094075762
-0.0046666665 -0.0029918605 -0.0090227276
-0.0046666665 -0.0031848839 -0.0090227276
0.016095238 -0.0041499999 -0.0013257578
0.015904762 0.0041499999 -0.0013257578
-0.0048571429 0.0041499999 -0.0090227276
0.016857143 0.0041499999 -0.00094090926
0.0090476191 -0.0027988374 -0.0094075762
0.0090476191 -0.0029918605 -0.0094075762
0.0088571431 0.0039569768 -0.0094075762
0.0088571431 0.0037639537 -0.0094075762
0.0088571431 0.0035709303 -0.0094075762
0.0088571431 -0.0018337209 -0.0094075762
0.0088571431 -0.0022197675 -0.0094075762
0.016285714 -0.0041499999 -0.0013257578
0.016095238 0.0041499999 -0.0013257578
0.017047619 -0.0039569768 -0.00094090926
-0.013619048 -0.0039569768 -0.00094090926
0.010380953 -0.00086860469 -0.0092151519
0.0065714284 0.0037639537 -0.0094075762
-0.017999999 -0.0024127907 -0.0092151519
-0.017999999 -0.0022197675 -0.0092151519
-0.017999999 -0.0020267442 -0.0092151519
-0.017999999 -0.0018337209 -0.0092151519
-0.017999999 -0.0016406977 -0.0092151519
-0.017999999 0.0018337209 -0.0092151519
0.015904762 -0.0041499999 -0.0013257578
0.015714286 0.0041499999 -0.0013257578
0.0067619048 -0.0029918605 -0.0094075762
0.0067619048 -0.0027988374 -0.0094075762
0.014380952 0.0041499999 -0.0090227276
0.0067619048 -0.002605814 -0.0094075762
0.0067619048 -0.0022197675 -0.0094075762
0.014 0.00048255816 0.0025227272
-0.014190476 -0.0018337209 0.0021378787
0.0086666662 -0.0024127907 -0.0094075762
-0.017999999 0.0020267442 -0.0092151519
-0.017999999 0.0022197675 -0.0092151519
-0.017999999 0.0024127907 -0.0092151519
-0.017999999 0.002605814 -0.0092151519
-0.017999999 0.0027988374 -0.0092151519
-0.017999999 0.0029918605 -0.0092151519
-0.017999999 0.0031848839 -0.0092151519
-0.015142857 -0.0039569768 -0.0088303033
0.0086666662 -0.002605814 -0.0094075762
0.0086666662 -0.0027988374 -0.0094075762
0.0086666662 -0.0031848839 -0.0094075762
0.0086666662 -0.003377907 -0.0094075762
0.0096190479 -0.0006755814 -0.0092151519
0.0086666662 -0.0022197675 -0.0094075762
-0.017999999 9.6511627e-05 -0.0092151519
-0.017999999 0.00028953489 -0.0092151519
-0.017999999 0.00048255816 -0.0092151519
-0.017999999 0.0006755814 -0.0092151519
0.015714286 -0.0037639537 -0.0001712123
-0.017999999 0.00086860469 -0.0092151519
-0.017999999 0.001061628 -0.0092151519
-0.017999999 0.0012546512 -0.0092151519
-0.017999999 0.0014476745 -0.0092151519
-0.017999999 0.0016406977 -0.0092151519
0.0096190479 -0.00086860469 -0.0092151519
0.0099999998 -0.0014476745 2.1211948e-05
0.0096190479 -0.00048255816 -0.0092151519
0.0096190479 -0.00028953489 -0.0092151519
0.013809524 9.6511627e-05 0.0025227272
0.013809524 0.00048255816 0.0025227272
0.0067619048 -0.0035709303 -0.0094075762
-0.013428572 -0.0039569768 -0.00094090926
-0.016095238 -0.0039569768 -0.00055606081
0.016857143 0.0041499999 -0.00074848504
0.013238096 0.0024127907 -0.0094075762
0.017809523 9.6511627e-05 -0.0001712123
-0.010380953 0.003377907 -0.0094075762
0.017809523 -9.6511627e-05 -0.0001712123
0.017809523 -0.00028953489 -0.0001712123
0.017809523 -0.00048255816 -0.0001712123
0.017809523 -0.0006755814 -0.0001712123
0.017809523 -0.00086860469 -0.0001712123
0.017809523 -0.001061628 -0.0001712123
0.01647619 0.0012546512 -0.0094075762
-0.017809523 -0.0022197675 -0.00094090926
0.01647619 0.0014476745 -0.0094075762
0.013238096 0.0029918605 -0.0094075762
0.013238096 0.0027988374 -0.0094075762
0.013238096 0.002605814 -0.0094075762
0.017809523 0.00028953489 -0.0001712123
0.013238096 0.0022197675 -0.0094075762
0.013238096 0.0020267442 -0.0094075762
-0.010380953 0.0014476745 -0.0094075762
-0.010380953 0.0012546512 -0.0094075762
-0.010380953 0.001061628 -0.0094075762
0.017809523 -0.0012546512 -0.0001712123
0.017809523 -0.0014476745 -0.0001712123
0.017809523 -0.0016406977 -0.0001712123
0.017809523 -0.0018337209 -0.0001712123
0.017619047 0.0037639537 -0.0001712123
-0.0098095238 -0.0041499999 -0.0011333335
0.017619047 0.0035709303 -0.0001712123
0.003904762 -0.0020267442 0.0025227272
-0.010190476 0.0014476745 -0.0094075762
-0.010190476 0.0012546512 -0.0094075762
-0.010190476 0.001061628 -0.0094075762
-0.010190476 -0.0016406977 -0.0094075762
-0.010190476 -0.0018337209 -0.0094075762
-0.010190476 -0.0020267442 -0.0094075762
-0.010190476 -0.0022197675 -0.0094075762
-0.010190476 -0.0024127907 -0.0094075762
0.01647619 -0.0012546512 -0.0094075762
0.003904762 -0.0018337209 0.0025227272
0.017809523 0.002605814 -0.0001712123
0.017809523 0.0024127907 -0.0001712123
0.017809523 0.0022197675 -0.0001712123
0.017809523 0.0020267442 -0.0001712123
0.017619047 0.003377907 -0.0001712123
0.01647619 -0.001061628 -0.0094075762
0.01647619 -0.00086860469 -0.0094075762
-0.017809523 -0.0024127907 -0.00094090926
0.013428572 -0.0031848839 -0.0094075762
0.013428572 -0.003377907 -0.0094075762
0.017809523 0.0018337209 -0.0001712123
0.017809523 0.0016406977 -0.0001712123
0.017809523 0.0014476745 -0.0001712123
0.017809523 0.0012546512 -0.0001712123
0.017809523 0.001061628 -0.0001712123
0.017809523 0.00086860469 -0.0001712123
-0.010190476 -0.002605814 -0.0094075762
-0.010190476 -0.0041499999 -0.0094075762
-0.010571429 -0.0014476745 -0.0094075762
0.013238096 0.0006755814 -0.0094075762
-0.0040952382 9.6511627e-05 0.0017530302
0.013238096 0.00048255816 -0.0094075762
0.013238096 0.00028953489 -0.0094075762
-0.010380953 -0.0041499999 -0.0094075762
0.016285714 -0.0041499999 -0.00074848504
0.016095238 0.0041499999 -0.00074848504
-0.010571429 0.0018337209 -0.0094075762
-0.010571429 0.0016406977 -0.0094075762
-0.010571429 0.0014476745 -0.0094075762
-0.010571429 0.0012546512 -0.0094075762
-0.010571429 0.001061628 -0.0094075762
-0.010571429 -0.0012546512 -0.0094075762
0.013238096 0.00086860469 -0.0094075762
-0.010571429 -0.0016406977 -0.0094075762
-0.017809523 -0.0018337209 -0.00094090926
-0.0040952382 -0.0014476745 0.0017530302
-0.0040952382 -0.0016406977 0.0017530302
-0.0040952382 -0.0018337209 0.0017530302
-0.0040952382 -0.0020267442 0.0017530302
0.0075238096 -0.0024127907 -0.0092151519
0.0075238096 -0.0020267442 -0.0092151519
0.0075238096 -0.0016406977 -0.0092151519
0.0075238096 -0.0014476745 -0.0092151519
-0.017809523 -0.0020267442 -0.00094090926
-0.003904762 -0.0014476745 0.0017530302
-0.010380953 -0.0012546512 -0.0094075762
-0.010380953 -0.0014476745 -0.0094075762
-0.010380953 -0.0016406977 -0.0094075762
-0.010380953 -0.0018337209 -0.0094075762
-0.010380953 -0.0020267442 -0.0094075762
-0.010380953 -0.0022197675 -0.0094075762
-0.010380953 -0.0024127907 -0.0094075762
0.01647619 0.0016406977 -0.0094075762
0.01647619 0.0018337209 -0.0094075762
0.01647619 0.0020267442 -0.0094075762
0.01647619 0.0022197675 -0.0094075762
0.01647619 0.0024127907 -0.0094075762
0.017809523 0.0027988374 -0.0001712123
0.01647619 0.002605814 -0.0094075762
0.01647619 0.0027988374 -0.0094075762
0.0048571429 -0.0041499999 -0.0001712123
-0.010380953 -0.0039569768 -0.0094075762
0.013238096 0.0018337209 -0.0094075762
0.013238096 0.0016406977 -0.0094075762
0.017619047 0.0031848839 -0.0001712123
0.017619047 0.0029918605 -0.0001712123
0.013238096 0.0014476745 -0.0094075762
0.017619047 0.0027988374 -0.0001712123
0.017619047 0.002605814 -0.0001712123
0.017619047 0.0024127907 -0.0001712123
0.013238096 0.001061628 -0.0094075762
-0.0099999998 0.001061628 -0.0094075762
0.013428572 -0.00048255816 -0.0094075762
0.0020000001 -0.0016406977 0.0027151513
0.0020000001 -0.0018337209 0.0027151513
0.003904762 -0.0020267442 0.0015606059
0.003904762 -0.0018337209 0.0015606059
0.013428572 -0.0006755814 -0.0094075762
0.013428572 -0.00086860469 -0.0094075762
0.016285714 0.0027988374 -0.0094075762
0.013428572 -0.001061628 -0.0094075762
0.013428572 -0.0012546512 -0.0094075762
0.013428572 -0.0014476745 -0.0094075762
-0.0099999998 0.0018337209 -0.0094075762
-0.0099999998 0.0016406977 -0.0094075762
-0.0099999998 0.0012546512 -0.0094075762
0.016285714 0.002605814 -0.0094075762
-0.0099999998 0.00086860469 -0.0094075762
-0.0099999998 -0.0014476745 -0.0094075762
-0.0099999998 -0.0018337209 -0.0094075762
-0.0099999998 -0.0020267442 -0.0094075762
-0.0099999998 -0.0022197675 -0.0094075762
0.0073333331 -0.0016406977 -0.0092151519
0.0073333331 0.00028953489 -0.0092151519
0.0073333331 0.00048255816 -0.0092151519
0.0073333331 0.0006755814 -0.0092151519
0.0073333331 0.001061628 -0.0092151519
-0.017809523 -0.0027988374 -0.00094090926
-0.0098095238 -0.0039569768 -0.0094075762
0.012095238 -0.0037639537 -0.0001712123
0.012095238 -0.0035709303 -0.0001712123
0.0021904763 -0.0018337209 0.0027151513
0.016285714 0.0014476745 -0.0094075762
0.0020000001 0.00048255816 0.0027151513
0.012095238 -0.003377907 -0.0001712123
0.016285714 0.0016406977 -0.0094075762
0.016285714 0.0018337209 -0.0094075762
0.016285714 0.0020267442 -0.0094075762
0.016285714 0.0022197675 -0.0094075762
0.016285714 0.0024127907 -0.0094075762
-0.0098095238 -0.0037639537 -0.0094075762
0.006190476 0.00048255816 0.0021378787
-0.0099999998 0.0035709303 -0.0094075762
-0.0099999998 0.003377907 -0.0094075762
-0.014761905 -0.0039569768 -0.00074848504
-0.017809523 -0.0031848839 -0.00094090926
0.0080952384 0.00048255816 0.0025227272
-0.017809523 -0.0029918605 -0.00094090926
0.0040952382 0.00048255816 0.0025227272
-0.014 -0.0016406977 0.0029075756
0.0040952382 0.00028953489 0.0025227272
-0.014 0.00028953489 0.0029075756
0.0040952382 -0.0014476745 0.0025227272
-0.0020000001 -0.0014476745 0.0017530302
0.017999999 -0.0016406977 -0.0001712123
0.013428572 -0.0024127907 -0.0094075762
0.013428572 -0.0029918605 -0.0094075762
-0.017809523 -0.002605814 -0.00094090926
0.017999999 -0.0018337209 -0.0001712123
0.017999999 -0.0031848839 -0.0001712123
0.017999999 -0.003377907 -0.0001712123
0.017999999 -0.0035709303 -0.0001712123
0.003904762 0.00048255816 0.0025227272
0.0073333331 0.0012546512 -0.0092151519
0.0073333331 0.0014476745 -0.0092151519
0.0073333331 0.0016406977 -0.0092151519
0.017999999 -0.0014476745 -0.0001712123
0.0069523808 -0.0041499999 -0.0001712123
0.0069523808 -0.0039569768 -0.0001712123
0.0069523808 -0.0037639537 -0.0001712123
-0.010190476 0.0018337209 -0.0094075762
0.0073333331 0.002605814 -0.0094075762
-0.013428572 0.0041499999 -0.0092151519
0.013809524 9.6511627e-05 0.0019454544
-0.013238096 -0.0041499999 -0.0092151519
0.017809523 0.0037639537 -0.0001712123
0.017809523 0.0035709303 -0.0001712123
0.017809523 0.003377907 -0.0001712123
0.017809523 0.0031848839 -0.0001712123
0.017809523 0.0029918605 -0.0001712123
-0.010190476 0.0035709303 -0.0094075762
0.006190476 -0.0018337209 0.0021378787
-0.016095238 -0.0016406977 0.0002136362
-0.014952381 -0.0039569768 -0.0011333335
0.017999999 0.002605814 -0.0001712123
0.017999999 0.0024127907 -0.0001712123
-0.0099999998 -0.0024127907 -0.0094075762
-0.0099999998 -0.002605814 -0.0094075762
0.016285714 0.0041499999 -0.0094075762
0.012095238 -0.0031848839 -0.0001712123
0.012095238 -0.0029918605 -0.0001712123
0.013238096 9.6511627e-05 -0.0094075762
-0.010190476 0.003377907 -0.0094075762
0.013428572 -0.0016406977 -0.0094075762
0.013428572 -0.0018337209 -0.0094075762
0.013428572 -0.0022197675 -0.0094075762
0.01647619 -0.002605814 -0.0094075762
0.01647619 -0.0022197675 -0.0094075762
0.01647619 -0.0020267442 -0.0094075762
0.01647619 -0.0018337209 -0.0094075762
0.01647619 -0.0016406977 -0.0094075762
0.017999999 0.0022197675 -0.0001712123
0.017999999 0.0020267442 -0.0001712123
0.017999999 -0.001061628 -0.0001712123
0.017999999 -0.0012546512 -0.0001712123
-0.011904762 0.0018337209 -0.0094075762
-0.011714286 0.0014476745 -0.0094075762
-0.011714286 0.0006755814 -0.0094075762
-0.011714286 0.00048255816 -0.0094075762
-0.011714286 0.00028953489 -0.0094075762
-0.011714286 -0.00086860469 -0.0094075762
-0.011714286 -0.001061628 -0.0094075762
-0.011714286 -0.0012546512 -0.0094075762
-0.011714286 -0.0041499999 -0.0094075762
-0.011904762 0.003377907 -0.0094075762
-0.011904762 0.0029918605 -0.0094075762
-0.011904762 0.002605814 -0.0094075762
-0.011904762 0.0024127907 -0.0094075762
-0.011904762 0.0022197675 -0.0094075762
-0.011904762 0.0020267442 -0.0094075762
-0.011714286 0.0016406977 -0.0094075762
-0.011904762 0.0016406977 -0.0094075762
-0.011904762 0.001061628 -0.0094075762
-0.011904762 0.0006755814 -0.0094075762
0.017428571 -0.0027988374 -0.0001712123
0.017238095 0.0041499999 -0.0001712123
-0.011904762 0.00048255816 -0.0094075762
-0.011904762 0.00028953489 -0.0094075762
-0.011904762 -0.00086860469 -0.0094075762
-0.011904762 -0.001061628 -0.0094075762
-0.011904762 -0.0012546512 -0.0094075762
-0.011904762 -0.0014476745 -0.0094075762
0.0071428572 -0.0037639537 -0.0001712123
-0.011523809 0.0020267442 -0.0094075762
-0.011523809 0.0018337209 -0.0094075762
-0.011523809 0.0016406977 -0.0094075762
0.012857143 -0.0041499999 -0.0088303033
-0.011523809 0.0014476745 -0.0094075762
-0.011523809 0.00086860469 -0.0094075762
-0.011523809 0.00048255816 -0.0094075762
-0.011523809 -0.00086860469 -0.0094075762
-0.011523809 -0.001061628 -0.0094075762
0.013047619 0.0027988374 -0.0094075762
-0.011523809 -0.0022197675 -0.0094075762
0.013047619 0.002605814 -0.0094075762
0.013047619 0.0024127907 -0.0094075762
-0.015142857 -0.0039569768 -0.0011333335
0.012666667 -0.0041499999 -0.0088303033
-0.011523809 -0.0041499999 -0.0094075762
-0.011714286 0.0031848839 -0.0094075762
0.010190476 -0.0018337209 0.0013681817
0.0082857143 0.00028953489 0.0025227272
-0.011714286 0.0027988374 -0.0094075762
0.013809524 0.00028953489 0.0002136362
0.017428571 -0.0022197675 -0.0001712123
0.017428571 -0.0024127907 -0.0001712123
0.017428571 -0.002605814 -0.0001712123
-0.011714286 0.0024127907 -0.0094075762
-0.011714286 0.0022197675 -0.0094075762
-0.011714286 0.0020267442 -0.0094075762
-0.011714286 0.0018337209 -0.0094075762
-0.012285714 -0.0006755814 -0.0094075762
-0.012285714 0.0020267442 -0.0094075762
-0.012285714 0.0018337209 -0.0094075762
-0.012285714 0.0016406977 -0.0094075762
-0.012285714 0.0012546512 -0.0094075762
-0.012285714 0.00086860469 -0.0094075762
-0.012285714 0.0006755814 -0.0094075762
-0.012285714 0.00048255816 -0.0094075762
-0.012285714 0.00028953489 -0.0094075762
0.013047619 0.00086860469 -0.0094075762
0.013047619 0.0006755814 -0.0094075762
0.013047619 0.00048255816 -0.0094075762
0.013047619 0.00028953489 -0.0094075762
0.014952381 0.0041499999 -0.00055606081
-0.012285714 9.6511627e-05 -0.0094075762
-0.012285714 0.0022197675 -0.0094075762
-0.012285714 -0.00086860469 -0.0094075762
-0.012285714 -0.001061628 -0.0094075762
-0.012285714 -0.0012546512 -0.0094075762
-0.012285714 -0.0016406977 -0.0094075762
0.0099999998 -0.0014476745 0.0013681817
-0.012285714 -0.0024127907 -0.0094075762
0.016666668 0.0012546512 -0.0094075762
-0.012285714 -0.0039569768 -0.0094075762
0.016666668 0.0016406977 -0.0094075762
-0.0058095236 0.00028953489 0.0017530302
-0.012476191 0.003377907 -0.0094075762
0.016666668 0.0018337209 -0.0094075762
0.016666668 0.0020267442 -0.0094075762
-0.012095238 -0.00086860469 -0.0094075762
-0.011904762 -0.0041499999 -0.0094075762
-0.012095238 0.0031848839 -0.0094075762
-0.012095238 0.002605814 -0.0094075762
-0.012095238 0.0024127907 -0.0094075762
-0.012095238 0.0022197675 -0.0094075762
-0.012095238 0.0020267442 -0.0094075762
-0.012095238 0.0018337209 -0.0094075762
-0.012095238 0.0016406977 -0.0094075762
-0.012095238 0.00086860469 -0.0094075762
-0.012095238 0.0006755814 -0.0094075762
-0.012095238 0.00048255816 -0.0094075762
-0.012095238 0.00028953489 -0.0094075762
-0.012095238 -0.0006755814 -0.0094075762
-0.011523809 0.0022197675 -0.0094075762
-0.012095238 -0.001061628 -0.0094075762
-0.012095238 -0.0012546512 -0.0094075762
-0.012095238 -0.0014476745 -0.0094075762
-0.012095238 -0.0016406977 -0.0094075762
-0.012095238 -0.0024127907 -0.0094075762
0.013047619 0.0022197675 -0.0094075762
-0.012095238 -0.0041499999 -0.0094075762
0.013047619 0.0020267442 -0.0094075762
0.013047619 0.0014476745 -0.0094075762
0.013047619 0.001061628 -0.0094075762
-0.012285714 0.0027988374 -0.0094075762
-0.012285714 0.002605814 -0.0094075762
-0.012285714 0.0024127907 -0.0094075762
0.013238096 -0.0020267442 -0.0094075762
-0.010761905 -0.0012546512 -0.0094075762
-0.010761905 -0.0014476745 -0.0094075762
-0.010761905 -0.0018337209 -0.0094075762
-0.010761905 -0.0020267442 -0.0094075762
-0.010761905 -0.0022197675 -0.0094075762
-0.010761905 -0.0024127907 -0.0094075762
0.0075238096 0.00028953489 -0.0092151519
0.0075238096 0.00048255816 -0.0092151519
0.0075238096 0.0006755814 -0.0092151519
0.013238096 -0.0018337209 -0.0094075762
0.017619047 -0.0016406977 -0.0001712123
0.017619047 -0.0018337209 -0.0001712123
0.017619047 -0.0020267442 -0.0001712123
0.017428571 0.0039569768 -0.0001712123
0.017619047 -0.0014476745 -0.0001712123
0.013238096 -0.002605814 -0.0094075762
0.013238096 -0.0027988374 -0.0094075762
-0.010952381 0.003377907 -0.0094075762
-0.010952381 0.0031848839 -0.0094075762
0.013238096 -0.0031848839 -0.0094075762
