# .PCD v0.7 - Point Cloud Data file format
VERSION 0.7
FIELDS x y z
SIZE 4 4 4
TYPE F F F
COUNT 1 1 1
WIDTH 1167
HEIGHT 1
VIEWPOINT 0 0 0 1 0 0 0
POINTS 1167
DATA ascii
-0.0072592958 0.0012687502 -0.00025727297
-0.0075749126 0.00077031297 -0.00025727274
-0.00653787 0.00054374995 0.0017745453
-0.00653787 0.00054374995 0.0023163636
-0.0057477448 0.0026655248 -0.011127327
0.0072592986 0.002673436 -0.0022439389
0.0075298231 0.0026281253 -0.0022439389
0.0075298236 0.0026281253 -0.0027406062
0.0075298236 0.0026734378 -0.00075393938
0.0060869823 0.0026281248 -0.011048485
-0.00027392642 0.0027138772 -0.011144619
0.0011723078 0.00199375 -0.011048485
0.00076650892 0.00199375 -0.011048485
0.00021724583 0.0019937498 -0.011105951
0.0012624847 0.0022785722 -0.011132344
0.0017584618 0.0022785722 -0.011132344
-0.00029307691 0.0019937498 -0.011127499
-0.0047220225 0.0026940326 -0.010235758
0.00076650881 0.0027187495 -0.011138794
0.0012624857 0.0027187481 -0.010732425
0.0012619894 0.0027187495 -0.011140779
0.00027053262 0.0027187481 -0.010732419
-0.00027053259 0.0027187481 -0.010732424
-0.00027053236 0.0027187485 -0.010235758
-0.0012624859 0.0027187481 -0.010732421
-0.0027504149 0.0027187485 -0.01023576
-0.0027504163 0.0027187485 -0.0097390907
-0.0062054959 0.0022863401 -0.0077520018
-0.0062481826 0.0022664277 -0.0072525535
-0.0072578676 0.0022641877 -0.00030027423
-0.0062571731 0.0022681798 -0.00026236032
-0.0027504135 -0.0027187485 -0.00025727297
-0.0037423675 0.0022656263 -0.00025727297
-0.004238341 0.0022656273 -0.00025727274
-0.0042383391 0.0017671881 -0.00025727251
-0.0065829586 -9.0625021e-05 5.8787875e-05
-0.0062673315 -0.00077031227 -0.00025727274
-0.0057713673 -0.0012687503 -0.00025727297
-0.0057647983 -0.0007725117 -0.00026165647
0.0027504149 0.00077031215 -0.00025727274
0.0013075741 -9.0625021e-05 0.0019100001
0.0034718344 0.00045312496 0.0023163636
0.0034718344 0.00045312496 0.0016390909
0.0015781069 0.0003625 0.0022712117
0.0013075741 -9.0625021e-05 0.0022260607
-0.00027053259 0.0007703118 -0.00025727274
0.0009468639 0.00054374989 0.00073606055
0.00027053244 0.00077031204 -0.00025727274
0.00027053233 0.0012687503 -0.00025727274
-0.0015781071 0.00022656252 0.0017293938
-0.0012624852 -9.0625021e-05 0.0019100001
-0.0012624859 -0.0022656275 -0.00025727274
0.004012899 0.00058906252 0.00073606055
0.0052302894 0.0002265627 -0.00025727274
0.0047343266 0.00022656267 -0.00025727274
0.003246391 -0.0027187485 -0.00075393962
-0.0052302885 -0.0027187481 -0.0012506065
-0.0007665084 -0.002265627 -0.00025727274
0.00076650886 -0.0012687504 -0.00025727297
0.00076650892 -0.00077031238 -0.00025727297
0.00027053262 -0.0012687503 -0.00025727274
-0.00027053268 -0.0017671882 -0.00025727251
0.00027053256 -0.0022656275 -0.00025727274
0.0027504144 -0.002718749 -0.00075393938
0.0027504121 -0.002718749 -0.0012506067
0.0017584626 -0.0027187495 -0.0017472727
0.0012624855 -0.0027187481 -0.0022439379
0.00076650863 -0.002718749 -0.0022439379
0.0017584624 -0.002718749 -0.0022439384
0.0027504128 -0.002718749 -0.0022439389
0.0022544365 -0.0027187485 -0.0022439384
0.0022544365 -0.0027187481 -0.001250607
-0.0059968047 9.0624962e-05 0.0022712122
-0.0040489701 0.00022656249 0.0022712117
-0.0040489701 0.00022656252 0.0017293938
-0.0057713636 -0.001767188 -0.00025727274
-0.0052302885 -0.0012687503 -0.00025727274
-0.0040489705 0.00022656249 0.0012327274
-0.0052302903 -0.00077031204 -0.00025727274
-0.0052302885 0.0022656275 -0.00025727274
0.0037423677 0.002718749 -0.001747272
0.0037460476 0.00058813812 0.0012327274
0.0037552498 0.00058582623 0.0017261687
0.0057713632 -0.00077031192 -0.00025727274
0.0057691657 -0.0022556805 -0.00027929782
0.005771365 -0.0027029878 -0.00031420286
0.0052302908 0.00077031192 -0.00025727274
0.0032291752 -0.00027187529 -0.00026958692
0.002750414 -0.00027187524 -0.00025727297
0.0034718344 0.00045312496 0.0012327274
0.0022576125 -0.00076839735 -0.00026045227
0.0017493898 -0.00077165291 -0.00027196691
0.0038840738 -9.0625021e-05 0.00018779235
0.0040128995 -9.0625021e-05 5.8787875e-05
0.0047343276 -0.00077031227 -0.00025727274
0.0075654206 -0.0022560861 -0.00034519937
0.007569903 -0.0022656256 -0.00073387194
0.0075658942 -0.0026100003 -0.00039272732
0.0075749145 -0.0017598792 -0.00029368536
0.0075699049 -0.0017671877 -0.00073387218
0.007569904 -0.0022656252 -0.0017573065
0.0072452417 -0.00175483 -0.00028835097
0.007574915 -0.0012687502 -0.00025727274
0.0075699044 -0.0012687499 -0.00073387194
0.0072556175 0.0022637772 -0.00026188022
0.0072592949 0.0017671883 -0.00025727274
0.0065716892 0.00030585934 0.00073606055
0.0065716864 0.00030585934 0.0012327274
0.0067633153 -0.00077031204 -0.00025727274
0.0072592921 -0.00077031227 -0.00025727274
0.0059968047 0.00042291667 0.00081131328
0.0052302931 -0.00077031204 -0.00025727274
0.0057713659 -0.00027187529 -0.00025727274
0.0062873778 0.0005840282 0.0017293943
0.0065679285 0.00057395827 0.0017293943
0.0062673339 0.002265627 -0.00025727297
0.0062628593 0.0027071787 -0.0002633573
0.0057713646 0.0027187476 -0.0012506065
0.0057713646 0.0027187481 -0.0017472729
0.0059968042 0.00040369318 0.0022753165
0.0037408769 -0.00076844019 -0.003148837
0.0042338339 -0.00076448661 -0.0031431019
0.0040128995 -9.0625021e-05 -0.0035984847
0.0027504137 -0.0022656261 -0.0031018187
0.0022527426 -0.0017518568 -0.0031357692
0.0027487134 -0.0017483792 -0.0031290813
0.0022544365 -0.0022656261 -0.0031018164
0.0032396277 -0.0017513285 -0.0031198799
0.005873662 0.00017637774 -0.0072625512
0.0058164499 -9.0625021e-05 -0.0062624244
0.0040128995 -9.0625021e-05 -0.0069848485
0.0032463905 -9.0625021e-05 -0.0063527268
0.0032290483 -9.0625021e-05 -0.0058039632
0.0032566963 -0.002677321 -0.0030889167
0.0027614564 -0.002663265 -0.00307786
0.0027504144 -9.0625021e-05 -0.007285859
0.003742367 -9.0625021e-05 -0.0063527273
0.0042165653 0.0002712587 -0.0062642647
0.003742367 -9.0625021e-05 -0.0069848485
0.0027504142 -9.0625021e-05 -0.0084296968
0.0022544379 -9.0625021e-05 -0.0084296977
0.0042383438 -0.0022656256 -0.0031018183
0.0047343196 -0.0017671877 -0.0031018173
0.0022544367 0.0027187485 -0.0082490938
0.0027504137 0.002718749 -0.0082490975
0.002750414 0.0027187485 -0.007752432
0.00076650892 0.00054374995 -0.010551818
0.0062673362 -0.00077031227 -0.00025727274
0.0062673343 -0.0012687504 -0.00025727297
0.0072592944 0.0012687504 -0.00025727297
0.0075749145 0.00077031285 -0.00075393962
0.0075699049 -0.00077031273 -0.00073387194
0.0075699044 -0.000271875 -0.00073387194
0.0075636418 -0.00027753907 -0.0012637752
0.007574915 0.0012687503 -0.0012506063
0.0075749126 0.0017671877 -0.001250606
0.0075749145 0.0017671877 -0.0017472724
0.0042296681 -0.00077379751 -0.00026074587
0.0052302885 -0.00027187529 -0.00025727274
0.0042383415 -0.0027187485 -0.0012506065
0.0042383415 -0.0027187485 -0.0017472724
0.0037423673 -0.002718749 -0.0017472724
0.0037423654 -0.0027187485 -0.0012506063
0.0052302899 -0.002718749 -0.0017472731
0.0057713664 -0.0027187481 -0.0017472729
0.0057713655 -0.0027187485 -0.0022439375
0.005230289 -0.0027187485 -0.0012506067
0.0057713646 -0.0027187481 -0.001250607
-0.0017584618 -0.0027187495 -0.0027406053
-0.0065829586 0.00058906246 -0.0087457588
-0.0061320714 0.0019937498 -0.008249091
-0.0037423668 0.0027187481 -0.0092424238
-0.0047343238 -0.0027187485 -0.00025727297
-0.0062673357 -0.0027187485 -0.0022439384
-0.0057713627 -0.0027187481 -0.0022439375
-0.007574914 -0.0022656256 -0.0027406057
-0.007574914 -0.0022656252 -0.0031018178
-0.0075298226 -0.0026281253 -0.0031018183
-0.007574914 -0.0017671875 -0.0027406067
-0.007574915 -0.0022656256 -0.0022439398
-0.0075749126 -0.0017671877 -0.0022439389
-0.0075298236 -0.0026394534 -0.0027349624
-0.0072528473 -0.0026734374 -0.003095367
-0.0075298236 -0.0026734378 -0.001250606
-0.0075749126 -0.0017671877 -0.0012506058
-0.0075749145 -0.0012687501 -0.0022439398
-0.007258073 -0.0022631767 -0.0031005959
-0.0065794918 0.00025096154 -0.0077489484
-0.0065829586 0.0005890624 -0.0057657571
-0.0065829577 0.00058906246 -0.0052690911
-0.0061320714 0.0019937498 -0.0052690906
-0.0065829586 0.00058906252 -0.0042306059
-0.0037423666 -0.0027058036 -0.0030953665
-0.0042383438 -0.0027058027 -0.003095367
-0.0061320714 0.0019937498 -0.0087457579
-0.0062029236 0.0026604906 -0.0052690883
-0.0061320714 0.0019937498 -0.0042306064
-0.006749555 0.001767188 -0.0031171255
-0.006743507 0.0012662093 -0.0031330441
-0.0062072198 0.0022807298 -0.0097390823
-0.0047220234 0.0026940326 -0.0092424182
-0.0052302964 0.00199375 -0.010732424
-0.0046695047 0.00059189461 -0.01019625
0.0022544379 0.00199375 -0.010732424
0.0027504147 0.0019937495 -0.010732424
0.0022737614 0.00054374989 -0.010519567
0.0027053254 0.00054375001 -0.010506666
0.0032463905 0.00199375 -0.010732424
0.0022544356 0.0027187481 -0.010732425
0.0022549322 0.0027207411 -0.011140779
0.0017584619 0.0027187481 -0.010732426
-0.0037365486 0.00032157253 -0.010532879
-0.0017584618 -0.0026960936 -0.0030792402
-0.0022573655 -0.0026975647 -0.0030865702
-0.00076650904 -0.0027187499 -0.0030566659
-0.00027053265 -0.0017671882 -0.0031469716
-0.0007665084 -0.0017671882 -0.0031469716
-0.00076650846 -0.0012687503 -0.0031469711
0.00076650875 -0.002718749 -0.0027406053
0.00027053262 -0.0027187499 -0.003056665
0.00076650886 -0.0027187499 -0.0030566659
0.00076650851 -0.002718749 -0.0017472727
-0.0032463919 0.0027187481 -0.0097390879
-0.0027340183 0.0019937498 -0.011105951
0.0046554152 0.00039648425 -0.0072557591
0.0046554138 0.00039648436 -0.0067590917
0.0032463905 -9.0625021e-05 -0.0046369699
0.0046554143 0.00059283845 -0.010171793
0.0045990534 0.0019937498 -0.010687273
0.0052302959 0.00199375 -0.010055152
0.0052302871 0.0022656275 -0.010732424
0.0045840237 0.00042291667 -0.010145456
0.0041871262 0.00031850743 -0.010212089
0.0063124252 0.00025374998 -0.010506666
0.0059124446 0.00017247983 -0.010125064
0.0065571936 0.00030747769 -0.010190606
0.0065716878 0.00030585934 -0.0097390926
0.0065829586 0.00058906246 -0.0097390907
0.0065649236 0.00057999993 -0.010145455
0.0062765214 0.00027858812 -0.010214855
0.0065829577 0.0005890624 -0.0092424247
0.0065716868 0.00030585934 -0.009242421
0.0065829582 0.0005890624 -0.0077524241
0.0065829582 0.0005890624 -0.008249091
0.0061320714 0.0019937498 -0.008249091
0.0061320714 0.0019937498 -0.0077524241
-0.0042383405 -0.0027187485 -0.0012506067
-0.003742367 -0.002718749 -0.001250607
-0.0047343229 -0.0027187485 -0.0017472713
-0.005230289 -0.002718749 -0.0027406048
-0.0075298236 -0.0026734378 -0.00075393938
-0.007574914 -0.0022656256 -0.00075393962
-0.0072292378 -0.0027058022 -0.00027017342
-0.0075298226 -0.0026734378 -0.00048303022
-0.0062673367 -0.002718749 -0.00075393938
-0.0057704574 -0.0027175327 -0.00075515173
-0.0067633144 -0.002718749 -0.00075393915
-0.0062673357 -0.002718749 -0.0012506065
0.0062557766 -0.0022625281 -0.00030473992
0.0061320714 0.001933333 -0.0063326601
0.0065829586 0.0005890624 -0.0057657566
0.0062072151 0.0022807301 -0.0057657626
0.0062184869 0.002275066 -0.0062718284
0.0061974032 0.0026910068 -0.0057694479
0.0027504142 0.0022785724 -0.011132344
0.0046554147 0.00039648436 -0.0047724242
0.0072592981 -0.00027187529 -0.00025727297
-0.006763312 0.002673435 -0.001250606
-0.0057713641 0.002673435 -0.0097390879
-0.0057713659 0.0026734346 -0.0087457579
-0.0062029241 0.0026604906 -0.0072557586
-0.0052302899 0.0027187481 -0.0027406062
-0.0057713641 0.002673436 -0.0062624221
-0.0057713646 0.002673435 -0.0067590829
-0.0042383415 0.0027187481 -0.0067590871
-0.0052302903 0.0027187485 -0.00075393962
-0.0047238888 0.0026977775 -0.00028078165
-0.0057713655 0.0026734355 -0.0072557488
-0.0072270865 0.0026281239 -0.0022439389
0.0075611901 -0.0026123645 -0.00073823449
0.0075575714 -0.0026141829 -0.0012644988
0.0057713659 0.0027187481 -0.0022439379
0.0075749126 0.0017671878 -0.0022439389
0.0062072189 0.0022807298 -0.0047724252
0.0061905896 0.0026917546 -0.0047733849
0.0067503755 0.0017691581 -0.003112813
0.007574915 0.00077031285 -0.0027406057
0.0061869626 0.0026931381 -0.0042315875
0.0061820992 0.002691438 -0.0037401242
0.0057713659 0.0027187481 -0.0047724238
0.0065829582 0.0005890624 -0.0052690906
0.0065716892 0.00030585937 -0.005765758
0.0075708153 -0.00077031297 -0.0022644624
0.0075708153 -0.00027187506 -0.0022644633
0.007574915 -0.00077031285 -0.0027406062
0.0072592944 0.0012687502 -0.0031018164
0.0075749136 -0.000271875 -0.0031018178
0.007574914 -0.0007703125 -0.0031018183
0.0065716882 0.00030585931 -0.0077524218
0.0052161766 -0.0012614271 -0.0031182365
0.0057660295 -0.0012638778 -0.0031076432
0.0057672639 -0.0017493373 -0.0030936091
0.0046554143 0.00039648425 -0.006262423
0.0058740922 0.00017751293 -0.0052653626
0.0042383419 0.0027187485 -0.0022439384
0.0037423659 0.0027187481 -0.0022439384
0.0052302885 0.0027187476 -0.0032372759
0.0057713646 0.0027187485 -0.0032372759
-0.0042383419 0.0027187481 -0.0057657626
0.0022676995 -9.0625021e-05 -0.0072823185
0.0032463905 -0.002718749 -0.0017472722
0.0027504149 -0.0027187495 -0.0017472724
0.0037423654 -0.002718749 -0.0022439389
0.00094686402 0.00031718751 0.0022712122
-0.0034718339 0.0001359375 0.0022712117
-0.0012624853 -9.0625021e-05 0.0022712117
-0.0037874556 -9.0625021e-05 0.0022712117
-0.0037874556 -9.0625021e-05 0.0019551516
-0.004012899 0.00058906246 0.0022712122
0.0017584625 0.002718749 -0.0027406062
0.0022544374 0.0027187481 -0.0022439375
0.0022544365 0.0027187481 -0.0027406048
0.0012624859 0.0027187485 -0.0032372749
0.0017584619 0.0027187485 -0.0032372745
0.002254436 0.0027187485 -0.0032372749
-0.0012929505 0.00057559134 0.0027288278
0.0057713632 0.0017671889 -0.00025727274
0.0062673357 0.0017671878 -0.00025727274
0.004012899 0.00058906246 0.0017293943
-0.0075749145 -0.00027187506 -0.0017472729
-0.0075749145 -0.00027187506 -0.0022439393
-0.0059968047 9.0624962e-05 0.0012628282
-0.0047343252 -0.00077031227 -0.00025727297
-0.0072592967 -0.0017671884 -0.00025727274
-0.0012624856 0.0027187485 -0.0027406053
-0.0017584612 0.0027187485 -0.0022439384
-0.0027504142 0.002718749 -0.0027406062
-0.0032463903 -0.0022656256 -0.0031018178
-0.0037423666 -0.0022656256 -0.0031018169
-0.003246391 -0.0017671877 -0.0031018197
-0.003742368 -0.0017671882 -0.0031018173
-0.00027053276 -0.0027187485 -0.0012506067
-0.00076650846 0.0022656261 -0.00025727297
-0.00076650881 0.0027175322 -0.000258788
-0.001262486 0.0022656273 -0.00025727274
-0.0037423698 0.0027187481 -0.0032372745
-0.0022590389 0.0027187481 -0.00075762533
-0.0047343238 0.002718749 -0.0017472717
-0.0037423649 0.0027187481 -0.0022439384
-0.0032463928 0.0027187481 -0.0022439384
-0.0042383415 0.0027187481 -0.0022439379
-0.0047343248 0.0027187481 -0.0022439389
0.0062072179 0.0022807301 -0.0077524325
0.006207217 0.0022807301 -0.0082490956
-0.0047299564 0.0026807459 -0.01113588
-0.0017607162 0.0027096872 -0.011150082
0.0052111344 0.0022633602 -0.011127506
0.005216029 0.0027095717 -0.011126219
0.0047343182 0.0022656261 -0.011138794
0.0047343192 0.0027187499 -0.011138794
0.0072592949 0.0026734355 -0.0027406057
0.006268803 0.0027158018 -0.00075467373
0.0067643267 0.0027167117 -0.00025980943
0.0061744251 0.0026638247 -0.01069959
0.0057713641 0.002673435 -0.010732423
0.0057713646 0.0027187485 -0.010235758
0.0062036817 0.0026931609 -0.010234698
0.0057713641 0.0027187481 -0.0087457607
0.0061957543 0.0026907208 -0.0087452941
-0.00076650875 0.002718749 -0.010235764
-0.00076650886 0.00054374989 -0.010551818
-0.00027053253 0.00054374989 -0.010551818
-0.00075995026 0.00024551133 -0.010547712
-0.0002640913 0.00023303574 -0.010551824
-0.0012431616 -9.0625021e-05 -0.0098358449
-0.00078153843 -9.0625021e-05 -0.0098143453
0.00076650869 0.0027187481 -0.009739086
0.0012624848 0.0027187481 -0.0097390907
0.0012624856 0.0027187485 -0.010235759
0.00076650863 0.0022656259 -0.011138794
0.00026381738 0.00226659 -0.011146478
0.0017494445 0.0027210154 -0.011150082
-0.0022544377 0.0027187485 -0.010235762
-0.005749695 0.0022821031 -0.011125892
-0.0027504156 -0.002718749 -0.00075393938
-0.0027504158 -0.0027187481 -0.0012506063
-0.0032438585 -0.0027167117 -0.00025575096
-0.0047318549 0.0022619017 -0.0002597468
-0.0037624061 0.00058402808 0.0012327274
-0.004238341 0.0026986087 -0.00027232338
-0.0063124257 -9.0625021e-05 5.8787875e-05
0.0012518765 0.001767188 -0.00027055247
0.00076650886 0.0017671882 -0.00025727297
0.0012530355 0.0022672547 -0.0002748468
0.00076650851 0.0022656268 -0.00025727274
0.0012618125 0.00024347036 0.0007358361
0.0007665084 0.0012687504 -0.00025727274
0.0015781069 0.00036249994 0.0017293938
0.00027053244 -0.00077031192 -0.00025727274
-0.0012875346 0.0005840282 0.00073606055
-0.00094686396 0.00013593747 0.0006909091
-0.002750414 -0.0012687503 -0.00025727274
-0.002254437 -0.00077031215 -0.00025727274
-0.0022544372 -0.0012687504 -0.00025727274
0.0042469292 0.001270908 -0.00026372285
0.0042521795 0.0017685342 -0.00026353123
0.0032463919 -0.0027187481 -0.0012506065
0.001262486 -0.0012687503 -0.00025727274
0.0012624855 -0.00077031192 -0.00025727274
-0.00027053253 -0.0012687503 -0.00025727274
-0.00027053265 -0.00077031192 -0.00025727274
-0.00076650898 -0.0012687503 -0.00025727297
0.0002705325 -0.0017671882 -0.00025727274
0.00027053259 -0.002718749 -0.0027406053
0.00027053276 -0.0027187481 -0.0022439384
0.0012624852 -0.0027187485 -0.0017472731
0.0017584616 -0.0027187485 -0.0012506067
0.0012624852 -0.0027187481 -0.0012506065
0.0012624849 -0.002718749 -0.00075393892
-0.0040128995 -9.0625021e-05 0.0022712122
-0.0052302917 -0.001767188 -0.00025727274
-0.0063228314 0.00056814891 0.0017259209
-0.0047343276 0.0017671883 -0.00025727274
-0.0047343243 0.0012687502 -0.00025727297
-0.0062960298 0.00057258515 0.0012368322
0.0037446416 0.0027096099 -0.00075849239
0.003252567 0.0027137822 -0.00075517688
0.0057713655 0.0012687505 -0.00025727274
0.0075749131 -0.0017497594 -0.0030670865
0.0075636418 -0.0022656252 -0.0027518934
0.0075658965 -0.0022656256 -0.0022529699
0.0075658965 -0.0022656256 -0.0012686667
0.0075575705 -0.0026141829 -0.0022508856
0.0072417394 -0.0022688336 -0.00031680893
0.0067624687 -0.0017654783 -0.00026153238
0.0067555383 0.0027124984 -0.0027406048
0.0067555383 0.002712498 -0.0022439375
0.0072592958 0.0026734364 -0.0017472722
0.0067555378 0.0027124984 -0.0017472717
0.0062673385 0.0027187485 -0.0012506067
0.0062673385 0.0027187485 -0.0017472717
0.0075749145 0.0022656254 -0.0017472722
0.007247536 0.0027029873 -0.0012506063
0.0075749154 0.0017671876 -0.00075393962
0.0062873773 0.0005840282 0.00073606055
0.0062722745 0.00027684099 0.00073853508
0.0052302876 0.0027187481 -0.001250607
0.0042422651 -0.0012677651 -0.0031057447
0.0032463914 -0.0012687503 -0.0031469711
0.0027504158 -0.0012687503 -0.0031469702
0.0058782888 0.00016571433 -0.0067595169
0.0032463905 -9.0625021e-05 -0.0069848485
0.0032463926 -0.0027187481 -0.0022439384
0.0047187717 -0.0022562505 -0.0030753482
0.0047152443 -0.0026978361 -0.0030705589
0.0052302973 -0.0022656256 -0.003056665
0.0042383433 -0.0026908652 -0.0030948697
0.0042383415 -0.0027187481 -0.0027406062
0.0012624855 0.0027187485 -0.0092424192
0.0052302903 0.0027187485 -0.0072557479
0.0052302964 -0.002698611 -0.0030516484
-0.0017639602 0.0022777829 -0.011154211
-0.0022535168 0.0022739486 -0.011153534
-0.0022505163 0.0027148095 -0.01114272
-0.0012624852 0.00054374989 -0.010506666
-0.0012202145 0.00029169919 -0.010520772
-0.0012624853 0.0019937498 -0.011138787
-0.0017584615 0.0019937498 -0.011138787
0.0062638684 -0.0017427887 -0.0030879243
0.0065829586 0.00058906246 -0.0042306059
0.0067464607 0.001270581 -0.0031182375
0.0075708153 0.00024303977 -0.0012519746
0.0075749117 0.00022656249 -0.00025727274
0.0075749117 0.00077031285 -0.0012506063
0.007574914 0.0012687499 -0.0017472727
0.0042383396 -0.0012687506 -0.00025727297
0.0047418396 -0.0012725262 -0.00026103551
0.0052281669 -0.002257098 -0.00027055247
0.004734322 -0.002718749 -0.0017472724
0.0057713646 -0.0027187485 -0.00075393938
-0.0037423659 0.0027187481 -0.0097390953
-0.0062673367 -0.0027187485 -0.00025727297
-0.0022544381 -0.0027187485 -0.0027406062
-0.0057713655 -0.002718749 -0.0027406053
-0.0057713618 -0.0027058031 -0.0030953665
-0.007574915 -0.0017671875 -0.0017472731
-0.0075749126 -0.00077031297 -0.0022439393
-0.007574914 -0.0012687499 -0.0027406057
-0.0067578149 -0.0027010669 -0.0030963104
-0.0062673376 -0.0027058031 -0.0030953665
-0.0065812264 0.00026141829 -0.0082473522
-0.0062634144 0.00024626375 -0.0082464786
-0.0062673367 0.00023303588 -0.0077485628
-0.0065756203 0.00028030516 -0.010200056
-0.0075749154 0.00022656249 -0.0027406062
-0.0075749122 0.00022656246 -0.0030566668
-0.0075749136 -0.0012687499 -0.0031018178
-0.0075749122 -0.000271875 -0.0030566663
-0.0065788585 0.00024715907 -0.0072557596
-0.007574915 -0.00077031285 -0.0027406062
-0.007565896 -0.0007703125 -0.0030837581
-0.0065829582 0.0005890624 -0.0062624239
-0.0061320714 0.0019937498 -0.005765758
-0.0065788613 0.00024715907 -0.0057657608
-0.0065788617 0.00024715907 -0.0052690911
-0.0065829586 0.0005890624 -0.0047724252
-0.0062036798 0.0022922801 -0.0047724252
-0.0046277461 0.00039270823 -0.0092369495
-0.0047343196 0.0019937498 -0.011093636
-0.0052302908 0.002673435 -0.010732424
0.0027497164 0.00020935092 -0.010210561
-0.0040128995 -9.0625021e-05 -0.0097541409
-0.0032734436 0.00020973213 -0.010522143
-0.00027053256 -0.0027187499 -0.003056665
-0.00076650881 -0.002718749 -0.0022439384
-0.0032463907 -0.0027187485 -0.0027406062
-0.0042383405 0.0027187485 -0.0072557488
-0.0037423682 0.0027187485 -0.0067590843
-0.0047220266 0.0026940322 -0.0077524339
-0.0047220243 0.0026940326 -0.0072557502
-0.0022544381 0.0019937498 -0.011138787
-0.0022544372 0.0027187481 -0.010732422
0.0037423666 0.002718749 -0.0082490984
0.0037423675 0.0027187485 -0.007752433
0.0042383405 0.0027187481 -0.0077524325
0.0032463926 0.0027187481 -0.0077524316
0.0046554138 0.00039648436 -0.0077524218
0.0058686649 0.00018601981 -0.0077524325
0.004152264 0.00038721587 -0.010506666
0.0062673399 0.00026310503 -0.0097376322
0.0062673339 0.00027187521 -0.009242421
0.0063199406 0.00057395821 -0.010152981
0.0065829586 0.00058906246 -0.0087457588
-0.0052302876 -0.0027187485 -0.0022439384
-0.0072484137 -0.002704686 -0.00075549656
-0.0067633158 -0.0027187485 -0.0012506067
0.0065829582 0.00058906252 -0.0062624244
0.0065829586 0.00058906252 -0.0067590917
0.0065716878 0.00030585934 -0.0067590917
0.0061908811 0.0019031251 -0.0072047194
0.006267339 0.00025173629 -0.0072590918
0.0062673334 0.00027187524 -0.007752432
0.0065716864 0.00030585934 -0.0072557582
0.0065829582 0.00058906246 -0.0072557582
0.0037423666 0.0022656259 -0.011138794
0.0037327048 0.0019937495 -0.010716298
0.0022544386 0.0022785722 -0.011132344
0.0027492275 0.0027211346 -0.01114117
0.004217471 0.00027342883 -0.004771648
0.0017584618 0.0027187485 -0.0037339362
0.0022544367 0.0027187481 -0.0037339353
0.00076650881 0.0027187481 -0.0042306036
0.0012624854 0.0027187481 -0.0042305999
0.00027053271 0.0027187481 -0.0042305999
0.0027504151 0.0027187485 -0.0027406062
0.0032463905 0.0027187481 -0.0022439384
-0.0062550441 0.0026940322 -0.0012506063
-0.0062029241 0.0026604901 -0.0087457588
-0.0057713641 0.0027187481 -0.0022439384
-0.0057713655 0.0027187485 -0.001747272
-0.0057713646 0.0027187476 -0.0027406053
-0.0057713655 0.0027187481 -0.0012506065
-0.006202925 0.0026604901 -0.0067590871
-0.0062029236 0.0026604906 -0.0062624225
-0.0047220248 0.0026940322 -0.0042306068
-0.0062029241 0.0026604901 -0.0042306059
-0.0052302913 0.002673435 -0.004772428
-0.0047402834 0.0027127573 -0.00075393915
-0.0052302941 0.002673436 -0.0072557484
-0.0072296262 0.0026412411 -0.0027501117
-0.007574914 -0.00027187506 -0.00075393915
0.0022222318 0.00044017856 -0.010506666
0.0022490488 0.00022684765 -0.010214743
0.0052302913 0.0027187485 -0.0092424229
0.005771365 0.0027187481 -0.0092424238
0.0052302862 0.0027187476 -0.0087457541
0.0057713659 0.0027187481 -0.0097390926
0.0022544367 0.0027187485 -0.010235763
0.005230288 0.0027187481 -0.010732424
0.0075611905 -0.0026123645 -0.0017551251
0.0072537167 -0.0026692324 -0.0027433988
0.005771365 0.0027187481 -0.0027406067
0.0052302903 0.0027187485 -0.0052690948
0.0057713646 0.0027187481 -0.0057657617
0.0052302866 0.0027187481 -0.0057657626
0.005771365 0.0027187481 -0.0037339353
0.005771365 0.0027187485 -0.0062624221
0.0057713655 0.0027187485 -0.0052690958
0.0075749136 0.00077031238 -0.0031018183
0.0067530652 0.0027105105 -0.0031038704
0.0057713655 0.0027187485 -0.0042306012
0.0065716864 0.00030585937 -0.005269092
0.0062635266 0.00023932676 -0.0052640066
0.0067633134 -0.0012687501 -0.0031018183
0.0072592916 -0.0012687501 -0.0031018178
0.0067586489 -0.0017406252 -0.0030800193
0.0067633144 -0.00077031285 -0.0031018197
0.0072592935 -0.00077031285 -0.0031018187
0.0075709932 -0.0012569296 -0.0027445327
0.0075636418 -0.0017671875 -0.0027518934
0.0042168223 0.00027187527 -0.0057662758
0.0046554143 0.00039648436 -0.0057657585
0.0022544374 0.0027187481 -0.0042306008
0.0027504144 0.0027187485 -0.0072557474
-0.0042383415 0.0027187476 -0.0052690953
-0.0042383415 0.0027187485 -0.0062624221
-0.0037423677 0.0027187481 -0.0042306036
-0.0037423659 0.0027187476 -0.0047724247
-0.0027504147 0.0027187485 -0.0037339355
0.0027504142 -9.0625021e-05 -0.0057808082
0.0028856806 -9.0625021e-05 -0.0069848485
0.0022544365 -0.0027187481 -0.0017472722
0.0047374363 -0.0017687507 -0.00026038662
0.0052302894 -0.0017671884 -0.00025727274
-0.0012689268 0.00022008948 0.0022712089
-0.00027053247 0.0022656268 -0.00025727274
0.00027053233 0.0022656273 -0.00025727274
-0.0002705325 0.0017671882 -0.00025727274
0.00094686402 0.00031718743 0.00073606055
0.00076650857 0.0027187485 -0.00025727297
0.0009468639 0.00054374989 0.0017293938
0.00076650869 0.002718749 -0.0027406048
0.00027053253 0.0027187481 -0.0027406053
-0.00027053262 0.0027187485 -0.00025727274
-0.00076650834 0.002718749 -0.00075393938
-0.00027053262 0.0027187485 -0.00075393985
0.0042383415 0.0027187481 -0.00025727297
-0.0059968047 9.0624962e-05 0.00096181827
-0.00076650869 0.0027187485 -0.0022439384
-0.0022544363 0.0027187485 -0.0027406043
-0.0032463914 0.0027187481 -0.0027406053
-0.00076650851 0.002718749 -0.0037339374
-0.0017584623 0.002718749 -0.0037339367
-0.00027053262 -0.0027187481 -0.0022439384
0.00027053256 -0.0027187481 -0.0012506067
-0.0032463924 0.0017671878 -0.00025727274
-0.0037624063 0.0005840282 0.00073606055
-0.003742367 0.0017671884 -0.00025727274
-0.0012624859 0.0027187481 -0.0012506072
-0.0017584619 0.002718749 -0.0017472717
-0.0017584618 0.0027187481 -0.0012506065
-0.0022544353 0.0027187481 -0.0012506067
-0.0022544356 0.0027187481 -0.0017472722
-0.0032463919 0.0027187485 -0.00075393938
-0.0032463912 0.0027187481 -0.0012506063
-0.0037423675 0.0027187485 -0.0017472717
-0.0072592939 0.00077031215 -0.00025727274
0.002750414 0.002718749 -0.010235758
0.0032463912 0.0027187481 -0.010732425
0.0032463914 0.0027187485 -0.010235753
0.006763312 0.0022656268 -0.00025727274
0.0067637325 0.0017688819 -0.00025938265
0.0061784647 0.0023142218 -0.010682041
0.0057713655 0.0022656273 -0.010732424
0.00027053247 0.0027187481 -0.0097390926
0.00027053256 0.00054374989 -0.010551818
-0.0012624849 0.0027187485 -0.01023576
-0.0017584615 0.0027187485 -0.010235761
0.00027053247 0.0027187495 -0.011138794
-0.00076650857 0.0027187485 -0.010732425
-0.0017584624 0.0027187485 -0.0097390823
-0.001262485 0.0027187481 -0.009739087
-0.0017584614 0.0027187485 -0.010732423
-0.0027504149 0.0027187485 -0.010732426
-0.0032463907 0.0027187485 -0.0092424266
-0.0032463905 0.0027187476 -0.0087457523
-0.0067633181 0.0017671882 -0.00025727274
-0.0067633139 0.0012687503 -0.00025727274
-0.0062673329 0.0017671876 -0.00025727274
-0.0022544367 -0.002718749 -0.00075393938
-0.0022544374 -0.0027187481 -0.00025727274
-0.0017584619 -0.0027187481 -0.0012506067
-0.0037411475 -0.0027162991 -0.00025849324
-0.0047343238 -0.0012687503 -0.00025727297
-0.0042383415 -0.0007703118 -0.00025727274
-0.0040128995 -9.0625021e-05 0.0019551516
-0.0042383391 -0.0012687503 -0.00025727274
-0.0042383401 0.0012687503 -0.00025727274
-0.0034718339 0.0001359375 0.00073606055
-0.0027504149 0.0012687502 -0.00025727297
-0.0038000811 -0.00011600001 0.00020327279
-0.0017560241 0.0022662398 -0.00025666272
-0.0012624866 0.0017671883 -0.00025727274
0.0013145107 -9.0625021e-05 0.0002116086
0.00027053256 -0.00027187529 -0.00025727297
0.0009468639 0.00031718749 0.001232727
-0.00076650869 0.001767188 -0.00025727274
-0.00076650857 0.0012687504 -0.00025727297
-0.00027053271 0.0012687503 -0.00025727274
-0.0037423666 -0.0012687502 -0.00025727274
-0.0037423684 -0.0017671884 -0.00025727297
-0.0017584622 -0.0022656275 -0.00025727297
-0.0017584607 -0.0017671882 -0.00025727274
-0.0017584619 -0.0012687502 -0.00025727274
0.003736404 -0.0027127569 -0.00075543229
-0.00076650846 -0.001767188 -0.00025727274
0.00027053253 -0.002718749 -0.0017472734
0.0017605114 -0.0026775566 -0.0030566668
0.0012624849 -0.0022575706 -0.0031038248
0.0017584618 -0.0022656261 -0.0031018155
0.001256266 -0.0027124998 -0.0030551082
0.0017584624 -0.0027187485 -0.0027406057
0.0012624859 -0.0027187485 -0.0027406053
0.00076650886 -0.002718749 -0.001250606
-0.0040128995 -9.0625021e-05 0.0026324242
-0.0063034091 0.00057093747 0.0022802427
-0.004012899 0.00058906246 0.00073606055
-0.0062673371 0.00057731482 0.00075111119
-0.004012899 0.00058906252 0.0012327274
-0.0067664334 0.0022530875 -0.0002819784
0.0037423666 0.0027187481 -0.0012506067
0.0067646019 0.0012687503 -0.00026372285
0.0075689587 -0.0012636203 -0.0022601262
0.0075749136 -0.0012687502 -0.0031018183
0.0075555877 -0.0026022326 -0.0030373163
0.0072456845 -0.0026554824 -0.0022507552
0.0072592981 -0.0012687503 -0.00025727297
0.0062631643 -0.0017611639 -0.0002648416
0.0062673376 0.0027187485 -0.0022439384
0.005771365 0.0027187485 -0.00075393938
0.0075298236 0.0026281253 -0.0017472729
0.0067633134 0.0027187481 -0.0012506067
0.007247535 0.0027029882 -0.00075393915
0.0062873759 0.00058402802 0.0012327274
0.0047366619 -0.0012640423 -0.0031065089
0.0027504135 -0.002718749 -0.0027406081
0.0022544377 -0.0012687501 -0.003146972
0.0022544381 -9.0625021e-05 -0.004140303
0.0017584621 -0.0012687502 -0.0031469711
0.0022530532 -0.00075557898 -0.0031732884
0.0017584618 -0.0017573374 -0.0031410824
0.0012624856 -0.0017671882 -0.0031469725
0.0017584615 -9.0625021e-05 -0.0046369699
0.0012624852 -0.0012687503 -0.003146972
0.0037339779 -0.001256105 -0.0031249193
0.0042383401 -0.0027187481 -0.0022439384
0.0037423673 -0.002718749 -0.0027406062
0.0032463928 -0.002718749 -0.0027406067
0.00076650881 0.002718749 -0.0092424219
0.00027053268 0.0027187481 -0.0092424219
0.00027053262 0.0027187481 -0.0087457541
0.002750414 0.0027187485 -0.0047724252
0.0027504147 0.0027187481 -0.004230604
0.0057713641 0.0027187481 -0.0067590894
0.0022544372 0.0027187481 -0.0077524311
0.0032463905 -9.0625021e-05 -0.0087457588
0.0017584616 0.0019937495 -0.010732425
0.0012344571 0.00033555744 -0.01053839
0.0012546211 0.0002371005 -0.010234185
0.0017584618 -9.0625021e-05 -0.0098293936
0.0017597881 0.00024588712 -0.010221147
-0.00076650886 0.0019937498 -0.011138787
-0.00076650828 0.0027187485 -0.009739087
0.0075658965 -0.00077031273 -0.0012686665
0.0075658965 -0.0017671875 -0.0012686667
0.0057713655 -0.0012687503 -0.00025727274
0.0052268901 -0.001762913 -0.0031001163
0.0057713618 -0.0022656256 -0.003056665
0.0052280515 -0.00076613482 -0.0031440915
0.0060869823 -9.0625021e-05 -0.0042757574
0.0062606949 -0.00076220429 -0.0031113229
0.0075749126 0.00077031297 -0.00025727297
0.0047343262 -0.00027187529 -0.00025727297
0.0052302908 -0.0027029873 -0.00031420286
0.0062673381 -0.002718749 -0.001747272
-0.0062673395 -0.002718749 -0.001747272
-0.007574914 -0.001767187 -0.0031018183
-0.0072592939 -0.001767188 -0.0031018173
-0.0062673348 -0.002718749 -0.0027406053
-0.0075749145 -0.0022656256 -0.0017472729
-0.007574914 0.00077031285 -0.0027406057
-0.0075749145 -0.000271875 -0.0027406057
-0.0061443686 0.0019937498 -0.0062788432
-0.0065788603 0.00024715904 -0.0062624225
-0.0060869823 -9.0625021e-05 -0.006172121
-0.0072592902 -0.00027187512 -0.0031018159
-0.007250905 0.00022234741 -0.0030976171
-0.0072592925 -0.00077031285 -0.0031018173
-0.0061320714 0.0019937498 -0.0047724247
-0.0065788627 0.00024715907 -0.0047724242
-0.005906628 -9.0625021e-05 -0.006172121
-0.0058164499 -9.0625021e-05 -0.0065333331
-0.0047220252 0.0026940322 -0.010732423
-0.0051980899 0.00199375 -0.011061385
-0.0032507887 -0.0027010669 -0.0030952091
-0.0027504147 -0.0022656256 -0.0031018169
-0.0040128995 -9.0625021e-05 -0.0087909084
-0.003742367 -9.0625021e-05 -0.0097541409
-0.0040128995 -9.0625021e-05 -0.010055152
-0.002742026 0.00058590143 -0.010208457
-0.00027053253 -9.0625021e-05 -0.0098293945
-0.0061951941 0.0018995 -0.0072106086
-0.0052302927 0.0026734355 -0.0062624221
-0.005230289 0.002673435 -0.0067590829
-0.004722022 0.0026940326 -0.0082490984
-0.00076650846 -0.002718749 -0.0027406053
-0.00027098806 -0.0022399942 -0.0031227977
-0.00076304021 -0.0022586542 -0.0031087627
0.003742367 0.002718749 -0.0072557474
0.0037423677 0.0027187485 -0.0067590834
0.004238341 0.0027187476 -0.0067590903
0.0032463907 0.0027187476 -0.0082490928
0.0047343252 0.0027187485 -0.010732424
0.0042383415 0.0027187499 -0.011138794
0.0037264535 0.0003411764 -0.010506664
0.0042383433 0.0019937495 -0.010687275
0.0057713608 0.00199375 -0.010055152
0.0061960844 0.0026907786 -0.0092401886
0.0061320709 0.00199375 -0.010055152
0.0061320714 0.0019937498 -0.0097390907
0.0058868094 0.00018324179 -0.0097078262
0.0058802366 0.00019340703 -0.0092347106
0.0062115886 0.002282927 -0.0097399037
0.0062673329 0.00025488299 -0.0087401103
0.0058746058 0.00017955614 -0.0087411171
-0.0047343257 -0.0027187485 -0.0022439384
-0.004734322 -0.0027187485 -0.0027406048
0.0065708626 0.00029839939 -0.0062624225
0.0061888695 0.0018654632 -0.0067690564
0.0062651224 0.00025019189 -0.0067593651
0.0032510546 0.0022718757 -0.01113568
0.0032463898 0.0027187495 -0.011138794
0.0027504142 -9.0625021e-05 -0.0041403035
0.0012624856 0.0027187485 -0.0037339362
0.00076650834 0.0027187485 -0.0047724284
0.0027504151 0.0027187485 -0.0037339355
0.0037423677 0.002718749 -0.0027406062
0.0032463919 0.0027187485 -0.0027406062
0.0027504144 0.0027187485 -0.0022439379
-0.0062550381 0.0026940326 -0.0017472724
-0.0062029236 0.0026604906 -0.0082490956
-0.0062029236 0.0026604906 -0.0092424192
-0.0052302876 0.0027187481 -0.0022439379
-0.0052302885 0.0027187476 -0.0012506067
-0.0062468406 0.002673436 -0.003215929
-0.0052302903 0.002673435 -0.0042306036
-0.0047220234 0.0026940326 -0.0037339374
-0.0062029222 0.0026604901 -0.0047724247
-0.005771365 0.002673435 -0.004230604
-0.006763312 0.0026734355 -0.0027406053
-0.0067403996 0.0026608086 -0.003087013
0.0025700592 0.00045312496 -0.010506666
0.0017584612 0.0027187485 -0.0097390888
0.001262486 0.0027187481 -0.008745756
0.0017584618 0.0027187481 -0.0087457513
0.0012624852 0.0027187485 -0.0082490891
0.0047343201 0.0027187485 -0.010235761
0.0042383433 0.0027187481 -0.010235758
0.0032463914 0.0027187481 -0.0097390907
0.0037423666 0.0027187485 -0.0097390926
0.0032463912 0.0027187485 -0.0092424247
0.0037423663 0.0027187495 -0.011138794
0.0046554143 0.00039648425 -0.008249091
0.0046554143 0.00039648436 -0.0087457588
0.0042165644 0.0002712587 -0.0082509359
0.004644142 0.00040065777 -0.0096915644
0.0050048521 0.00063437503 -0.0096487878
0.0046554143 0.00039648419 -0.0092424229
0.0042181313 0.00027500023 -0.0092424247
0.0072433809 -0.0026494474 -0.0017472722
0.0075749145 0.0022656254 -0.001250606
0.0047343243 0.0027187485 -0.0047724214
0.0052302885 0.0027187481 -0.0042306008
0.0047343262 0.0027187481 -0.0042306036
0.0052302899 0.002718749 -0.0037339362
0.004734321 0.0027187485 -0.0037339362
0.0062072203 0.0022807301 -0.0052690869
0.0062476057 0.0027067121 -0.0032076444
0.0062673367 -0.0012687502 -0.0031018173
0.0072554238 -0.0017451787 -0.003076016
0.0022544377 0.0027187485 -0.0067590871
0.0027504154 0.0027187485 -0.0067590834
-0.0037423661 0.002718749 -0.0062624221
-0.0037423663 0.0027187481 -0.005765764
0.0027504142 -9.0625021e-05 -0.0063527273
0.0022544379 -9.0625021e-05 -0.0046369699
0.0022544381 -9.0625021e-05 -0.0057808082
0.0012624852 -9.0625021e-05 -0.0046369699
0.0017376515 -9.0625021e-05 -0.0041924012
0.0042383396 -0.0017671882 -0.00025727274
0.0047278311 -0.0022533014 -0.00028508622
0.0009468639 0.00054375001 0.0012327274
-0.001268927 0.00022008948 0.0017293962
0.0012598014 0.0027192878 -0.00027339836
0.00076650881 0.0027187485 -0.00075393915
0.0012624845 0.0027187481 -0.0027406057
-0.0012946915 0.00058582629 0.0017358442
-0.0052302885 -0.00027187529 -0.00025727274
-0.0012624849 0.0027187481 -0.0022439384
-0.00027053256 0.0027187481 -0.0022439379
-0.00076650898 0.0027187485 -0.0017472731
-0.0022544353 0.0027187476 -0.0042305989
-0.0012624849 0.0027187481 -0.0037339358
-0.0012624853 0.0027187481 -0.0042306008
-0.002750414 0.0027187485 -0.0042306045
-0.0017584616 0.0027187485 -0.0042306022
-0.0002705325 0.0027187481 -0.0042306003
-0.0022544381 -0.0027187481 -0.0012506067
-0.0012624854 -0.0027187481 -0.0012506067
-0.00076650875 -0.0027187485 -0.0012506067
-0.0032463921 0.0012687503 -0.00025727297
-0.0032463919 0.002265627 -0.00025727274
-0.0027504158 0.0022656266 -0.00025727274
-0.001262485 0.0027187485 -0.0017472713
-0.00076650846 0.0027187485 -0.0012506065
-0.0012624855 0.0027187481 -0.00075393962
-0.0027504161 0.0027187485 -0.00075394008
-0.0022544379 0.0027187481 -0.0022439379
-0.0037423677 0.0027187481 -0.001250606
-0.0032463903 0.0027187485 -0.001747272
-0.0027504147 0.0027187485 -0.0017472717
-0.0057409154 0.0022609192 -0.00028131437
0.0037423656 0.002718749 -0.010235761
-0.0037423666 0.0027187485 -0.0072557479
-0.00324639 0.0027187485 -0.0082490919
-0.0032463914 -0.0017671884 -0.00025727274
-0.0027504149 -0.0022656275 -0.00025727297
-0.0027504144 -0.001767188 -0.00025727297
-0.0032463926 -0.002265628 -0.00025727274
-0.0037423675 -0.002265627 -0.00025727274
-0.0042383405 -0.0017671882 -0.00025727274
-0.0047343252 -0.0017671884 -0.00025727274
-0.0027504142 0.00077031215 -0.00025727274
-0.0040489705 0.00022656249 0.00073606055
-0.0052302903 0.00022656273 -0.00025727274
-0.0027504144 0.001767188 -0.00025727274
-0.0022556079 0.0027075671 -0.00027427799
-0.00027053268 -0.00027187529 -0.00025727274
0.00094686402 0.00031718746 0.0017293938
-0.0032463924 -0.00077031204 -0.00025727274
-0.0037423649 -0.00077031227 -0.00025727251
-0.002254436 -0.0022656275 -0.00025727274
-0.0012624856 -0.0012687501 -0.00025727297
-0.00127 -9.8177115e-05 0.00020929286
-0.0017594742 -0.00077234884 -0.00025980943
-0.00027053256 -0.0027187485 -0.0017472717
0.0022552884 -0.0026623229 -0.0030660369
0.001781006 -9.0625021e-05 -0.0058184355
0.0017584616 -9.0625021e-05 -0.006217273
0.0012624852 -9.0625021e-05 -0.0058560614
-0.0052302871 0.00077031204 -0.00025727274
0.0027504142 0.0027187485 -0.00075393962
0.007569904 -0.0017671875 -0.001757306
0.0075555881 -0.0026151789 -0.0027492065
0.0075598815 -0.0022656252 -0.0030416157
0.0072592897 -0.0022656256 -0.0030566659
0.0072519789 -0.0026624156 -0.0030530058
0.0060869823 -9.0625021e-05 -0.0062624244
0.0062673362 0.0027187485 -0.0027406057
0.0067633111 0.0027187476 -0.00075393915
0.006567928 0.00057395827 0.0012327274
0.002254436 -0.002718749 -0.0027406053
-0.0028856806 -9.0625021e-05 -0.0065333331
-0.0032463905 -9.0625021e-05 -0.0065333326
-0.0032463905 -9.0625021e-05 -0.0071654543
0.0052302894 0.0027187481 -0.0067590866
0.0047343248 0.0027187481 -0.0067590848
0.0047343215 0.002718749 -0.0062624221
0.0042174705 0.0002734288 -0.0087455045
0.002750414 0.0027187485 -0.0097390916
0.001230279 0.00054374989 -0.010519567
0.0042383438 0.0022656259 -0.011138794
-0.00027053259 0.0027187481 -0.009739087
0.0067560999 -0.0026825005 -0.0030548596
0.006763319 -0.0012687503 -0.00025727297
0.0057713608 -0.0017671882 -0.00025727274
0.0047343224 -0.002718749 -0.0027406076
0.0057641771 -0.00076308881 -0.0031410833
0.005230289 -0.0012687503 -0.00025727274
0.0067494386 -0.0026908638 -0.0017472727
0.0062673395 -0.0027187485 -0.0022439384
0.0062673381 -0.002718749 -0.0012506072
-0.0027504147 -0.001767188 -0.0031018187
-0.0022544377 -0.0027187481 -0.0022439384
-0.0017584618 -0.0027187481 -0.0022439389
-0.0067633134 -0.0022656256 -0.0031018187
-0.0052211103 -0.0012570026 -0.0031319214
-0.005906627 -9.0625021e-05 -0.0043058586
-0.0057697883 -0.00076872821 -0.0031460254
-0.005230289 -0.0007703125 -0.0031469725
-0.0057643903 -0.0012594075 -0.0031148521
-0.0060869823 -9.0625021e-05 -0.0043058586
-0.0062673371 -0.0012687502 -0.0031018169
-0.0072592902 -0.0012687502 -0.0031018178
-0.0062573156 -0.00075887027 -0.0031182384
-0.0042383429 -0.0022656261 -0.0031018183
-0.0047343201 -0.0027058031 -0.0030953665
-0.0047343201 -0.0022656256 -0.0031018173
-0.0032463905 -9.0625021e-05 -0.005810909
-0.0032463905 -9.0625021e-05 -0.0047272728
-0.0027504142 -9.0625021e-05 -0.0057657575
-0.003742367 -9.0625021e-05 -0.0047272728
-0.0027530284 -0.0027043023 -0.0030939654
-0.0054557398 0 -0.0067861816
-0.003742367 -9.0625021e-05 -0.0065333331
-0.0037761836 -9.0625021e-05 -0.0071993181
-0.0040128995 -9.0625021e-05 -0.0065333331
-0.0040128995 -9.0625021e-05 -0.0072106058
-0.0040128995 -9.0625021e-05 -0.0075266669
-0.0032734438 -9.0625021e-05 -0.0097842412
-0.002750414 -9.0625021e-05 -0.0098293936
-0.003219337 -9.0625021e-05 -0.0088089686
-0.0034718344 -9.0625021e-05 -0.010055152
-0.003742367 -9.0625021e-05 -0.0087909084
-0.0032463905 -9.0625021e-05 -0.0075266664
-0.0059366846 0.00016614585 -0.0082490938
-0.005934183 0.00017747399 -0.0077599487
-0.003742367 -9.0625021e-05 -0.010055152
-0.0022544379 0.00027187497 -0.010506666
-0.0017556881 0.00025723575 -0.010218394
-0.0017376513 0.00037644227 -0.010506665
-0.0022544379 0.00054374989 -0.010506666
-0.0012624848 -0.0027022725 -0.0030689789
-0.0052302908 0.002673435 -0.005765764
-0.00027053259 -0.0027187485 -0.0027406076
0.00076650863 -0.0017671877 -0.0031469711
0.005230288 0.0027187485 -0.0077524344
0.004238341 0.0027187481 -0.0082490947
0.0042383405 0.0027187481 -0.0087457597
0.0047343248 0.0027187485 -0.008745756
0.0037423668 0.0027187485 -0.009242421
0.0042383424 0.0027187485 -0.0092424238
0.0042383415 0.0027187481 -0.0072557479
0.0047343229 0.0027187485 -0.007752432
0.0032463907 0.0027187481 -0.0072557479
0.0032463914 0.0027187476 -0.008745756
0.0027504151 0.0027187485 -0.0087457569
0.0061320714 0.0019937498 -0.0092424247
0.0062099514 0.0022924012 -0.010237816
0.0062673367 0.00026141846 -0.0082525695
0.004218128 0.00027500023 -0.0077524288
0.0017584612 0.0027187485 -0.0042306031
0.0032463921 0.0027187485 -0.0032372754
0.0042383415 0.0027187485 -0.0027406048
0.0042383419 0.0027187485 -0.0037339358
0.0047343243 0.0027187485 -0.0032372749
0.0032463914 0.0027187481 -0.0042306003
-0.0052302908 0.0027187485 -0.0017472724
-0.0047243037 0.0026986096 -0.0032322584
-0.0052302894 0.0026824977 -0.0032282444
-0.0052302936 0.0026734355 -0.003733936
-0.0057713641 0.002673435 -0.0047724228
-0.0057713636 0.0026734355 -0.0037339369
-0.0047220234 0.0026940322 -0.0062624225
-0.0067633111 0.002673435 -0.0022439384
0.0017584618 0.002718749 -0.010235755
0.0042383405 0.0027187476 -0.0097390888
0.005230288 0.0027187481 -0.009739086
0.0042383415 0.0027187476 -0.010732423
0.0058701742 0.0001831782 -0.0082539003
0.0042082821 0.00027619072 -0.0097304909
0.0052302876 0.0027187485 -0.0047724256
0.0060869823 -9.0625021e-05 -0.0058410098
0.0062673367 -0.0022656256 -0.0030566659
0.0062673385 -0.0026986105 -0.0030516498
0.0057713618 -0.002698611 -0.0030516488
0.0017584619 0.0027187485 -0.0062624225
0.0022544374 0.0027187481 -0.0062624221
0.0012624854 0.0027187481 -0.0077524283
0.0012624857 0.0027187485 -0.0072557488
0.0017584617 0.0027187485 -0.0072557484
0.0017584621 0.0027187485 -0.0082490975
0.0027504142 -9.0625021e-05 -0.0046369699
-0.00027053239 0.0027187485 -0.0027406081
-0.00076650886 -9.0625021e-05 -0.0041854549
-0.00027053253 -9.0625021e-05 -0.0041854549
-0.00073269225 -9.0625021e-05 -0.0046934094
-0.0012624848 -0.0012687504 -0.0031469711
-0.0012875344 0.00058402808 0.001232727
0.00027053247 0.0017671878 -0.00025727274
0.0022544379 0.0027187485 -0.0017472731
0.0027504149 0.0027187481 -0.0017472722
0.0017584622 0.0027187485 -0.00075393962
0.0017584618 0.002718749 -0.00025727274
0.00027053239 0.0027187481 -0.00025727274
0.00027053271 0.0027187485 -0.00075393938
-0.0032463914 0.0027187481 -0.0042305989
-0.00076650892 0.0027187481 -0.0042306031
-0.00027053253 0.0027187476 -0.0047724266
-0.0042440975 -0.0012697142 -0.0031095026
-0.0047366945 -0.0012663654 -0.0031041936
-0.0047343206 -0.0017671877 -0.0031018169
-0.0037423666 -0.0012687503 -0.0031018164
-0.0037631777 -9.0625021e-05 -0.0041646156
-0.0032416889 -0.00075669098 -0.003173288
-0.0032405867 -0.0012543937 -0.0031214878
-0.0017584623 -0.002718749 -0.001747272
-0.001262485 -0.0027187481 -0.0022439379
-0.0012624855 -0.0027187485 -0.001747272
-0.00027053271 0.0027187481 -0.0012506063
-0.0027504151 0.0027187485 -0.0012506065
-0.0057696784 0.0017650707 -0.00025938265
0.0037423666 0.002718749 -0.010732422
0.0027504154 0.0027187481 -0.010732428
-0.0037423659 0.0027187485 -0.0077524311
-0.0032463917 0.0027187485 -0.0062624225
-0.0032463905 -0.0012687503 -0.00025727274
-0.0047343248 -0.002265627 -0.00025727274
-0.0027504151 0.0002265627 -0.00025727274
-0.0047343229 -0.00027187529 -0.00025727274
-0.0022544365 0.0012687505 -0.00025727274
-0.0017578484 0.0012706 -0.00025819428
-0.0022544367 0.0007703118 -0.00025727274
-0.0022544365 0.0017671883 -0.00025727274
-0.0017584618 0.0027129641 -0.00027168286
-0.0012656605 0.0002233717 0.00073542539
-0.00076650886 -0.0007703125 -0.00025727274
-0.0027504147 -0.00077031238 -0.00025727274
-0.0022544367 -0.0017671882 -0.00025727274
-0.0012624854 -0.0017671884 -0.00025727274
-0.00076650869 -0.0027187485 -0.0017472713
0.0022093491 -9.0625021e-05 -0.0062849997
0.0027504158 0.0027187485 -0.0012506067
0.0075658965 -0.0017671875 -0.0022529694
0.0075658965 -0.0012687499 -0.0012686667
0.0065716868 0.00030585934 -0.0082490938
0.0065679285 0.00057395833 0.00073606055
0.0012624854 -9.0625021e-05 -0.0042155557
0.00076650898 -9.0625021e-05 -0.0042155553
0.0017584615 -9.0625021e-05 -0.0072557582
-0.0012624853 -9.0625021e-05 -0.0087006055
-0.00076650886 -9.0625021e-05 -0.0087006055
-0.00076650886 -9.0625021e-05 -0.0075266669
0.00076650886 -9.0625021e-05 -0.0057206061
0.00076650886 -9.0625021e-05 -0.0062925261
0.00027053253 -9.0625021e-05 -0.0098293945
0.00027053256 -9.0625021e-05 -0.0087307068
0.0052302913 0.0027187481 -0.0062624221
0.0022544388 0.0027187481 -0.0072557498
0.0037037195 -9.0625021e-05 -0.0087264068
0.0022544356 0.0027187481 -0.0097390926
0.0027504154 0.0027187485 -0.0092424219
0.0012624852 -9.0625021e-05 -0.0098293936
0.0017376515 0.0003764423 -0.010506665
0.0067633139 -0.0022656256 -0.003056665
0.0047343224 -0.0027187485 -0.0022439389
0.005230288 -0.0027187485 -0.0022439379
0.0058389939 -9.0625021e-05 -0.0042757574
0.0072592935 -0.00027187512 -0.0031018173
0.0057713646 -0.0027187485 -0.0027406057
0.0067494381 -0.0026908629 -0.0022439379
-0.0032463905 -9.0625021e-05 -0.0041854545
-0.0027504142 -9.0625021e-05 -0.0047272728
-0.006267339 -0.0017671875 -0.0031018178
-0.0046227835 0.00039350317 -0.0042282287
-0.0057713646 -0.0017671877 -0.0031018197
-0.0060869823 -9.0625021e-05 -0.005810909
-0.0057713627 -0.0022656256 -0.0031018187
-0.0067633134 -0.0012687502 -0.0031018178
-0.006578858 0.0002471591 -0.0042306054
-0.0040128995 -9.0625021e-05 -0.0047272728
-0.005906627 -9.0625021e-05 -0.0047724242
-0.0052302941 -0.0027058027 -0.0030953665
-0.0032463905 -9.0625021e-05 -0.0062323236
-0.0027504142 -9.0625021e-05 -0.0071654543
-0.0022544379 -9.0625021e-05 -0.0071654543
-0.00324639 0.0027187481 -0.0072557474
-0.003742367 -9.0625021e-05 -0.005810909
-0.003742367 -9.0625021e-05 -0.0075266669
-0.0046441411 0.00039545444 -0.0087375501
-0.0059366878 0.00016614585 -0.0087457597
-0.0028005128 0.00015104166 -0.0105167
-0.0022544379 -9.0625021e-05 -0.0098293936
-0.0017584616 0.00054375001 -0.010506666
-0.0012624853 -9.0625021e-05 -0.0047272728
-0.0047220266 0.0026940322 -0.0067590848
-0.0022544372 -0.0022656256 -0.0031018178
