# .PCD v0.7 - Point Cloud Data file format
VERSION 0.7
FIELDS x y z
SIZE 4 4 4
TYPE F F F
COUNT 1 1 1
WIDTH 1233
HEIGHT 1
VIEWPOINT 0 0 0 1 0 0 0
POINTS 1233
DATA ascii
-0.020182172 0.00084666669 -0.0035942858
-0.023007674 -0.00084666669 0.00093928573
-0.032695118 -0.00127 -0.0068914285
0.033098761 0.0016933334 -0.0077157142
-0.033098761 0.0016933334 -0.0068914285
-0.033098761 0.00084666669 -0.0068914285
0.052070003 0 -0.0023578571
0.014934806 0.00127 -0.0064792857
0.0052473643 -0.00127 0.0025878572
-0.0052473643 0.0016933334 -0.0044185715
0.051262714 0.0021166666 -0.0023578571
-0.0052473643 0.00084666669 -0.0044185715
-0.022604031 -0.0016933334 0.0021757144
-0.0052473643 -0.00084666669 -0.0044185715
-0.010091086 0.00084666669 0.00052714284
0.051666357 0.0021166666 -0.0023578571
-0.010091086 -0.00084666669 0.00052714284
0.020585814 0.0016933334 -0.0035942858
0.030676899 0.00084666669 -0.0044185715
-0.012512947 -0.00084666669 0.00093928573
0.042382561 -0.00084666669 -0.00029714286
0.052070003 0.00042333335 -0.0023578571
0.040364344 -0.00127 0.00093928573
0.052070003 0.00084666669 -0.0023578571
0.052070003 0.00127 -0.0023578571
0.052070003 0.0016933334 -0.0023578571
-0.0076692249 0.00084666669 0.000115
0.035520621 -0.0016933334 -0.0035942858
0.020585814 0.0016933334 0.0021757144
0.020182172 0.00084666669 -0.0035942858
0.042382561 0.00084666669 -0.00029714286
-0.022604031 0.00127 0.0017635714
0.020182172 -0.00084666669 -0.0035942858
0.01776031 0.00084666669 -0.0052428572
-0.035520621 -0.0016933334 -0.0068914285
0.0072655817 0.00127 0.00052714284
-0.012512947 -0.0016933334 0.00093928573
0.050455429 0.00254 -0.0023578571
-0.020585814 0.0016933334 -0.0035942858
-0.01533845 -0.00084666669 -0.0040064286
-0.012512947 -0.0016933334 -0.0077157142
0.038749769 -0.00084666669 -0.00029714286
-0.01533845 -0.0016933334 -0.0040064286
-0.035520621 0.0016933334 -0.0068914285
0.035520621 -0.0016933334 -0.0077157142
0.046015348 -0.00127 0.000115
0.012512947 0.00084666669 -0.0040064286
-0.035520621 -0.00084666669 -0.0068914285
-0.025429536 -0.00084666669 -0.0060671428
-0.020585814 -0.0016933334 -0.0060671428
-0.012916589 -0.0016933334 -0.0077157142
0.012512947 0.0016933334 -0.0040064286
-0.020585814 -0.0016933334 -0.0035942858
-0.020585814 0.0016933334 -0.0060671428
0.01776031 0.00084666669 0.00093928573
0.01533845 -0.00084666669 -0.0064792857
0.0048437212 0.00127 0.0025878572
-0.020182172 -0.00084666669 -0.0060671428
0.030676899 -0.00084666669 -0.0044185715
-0.020182172 0.00084666669 -0.0060671428
-0.022604031 0.00127 0.0021757144
-0.020182172 0.0016933334 -0.0060671428
-0.030676899 -0.00084666669 -0.0060671428
0.027851395 -0.00084666669 -0.0044185715
-0.030676899 0.0016933334 -0.0060671428
0.049244497 -0.00084666669 -0.00029714286
-0.030273257 -0.0016933334 -0.0060671428
0.033098761 -0.00084666669 0.00052714284
0.033098761 -0.00084666669 -0.0035942858
0.020182172 0.00084666669 0.00093928573
0.033098761 0.00084666669 -0.0035942858
-0.0072655817 -0.00127 -0.0035942858
0.020182172 -0.00084666669 0.00093928573
0.033098761 -0.0016933334 0.00052714284
0.033098761 0.00084666669 0.0013514286
0.033098761 0.0016933334 -0.0035942858
-0.032695118 -0.00127 -0.0052428572
-0.02825504 0.00127 -0.0068914285
0.049244497 0.00084666669 -0.00029714286
0 -0.0016933334 0.0025878572
0.027851395 -0.00084666669 -0.0052428572
0.012512947 0.0016933334 0.0021757144
-0.0072655817 -0.00127 -0.0077157142
0.023007674 -0.00084666669 -0.0064792857
-0.033098761 0.00084666669 -0.0052428572
-0.0076692249 0.00084666669 -0.0035942858
0.033098761 0.0016933334 0.00052714284
0.032695118 -0.00127 -0.0035942858
0.020585814 0.0016933334 0.00093928573
-0.0072655817 -0.00127 0.00052714284
-0.033098761 0.0016933334 -0.0052428572
0.040364344 0.00127 0.000115
-0.012512947 -0.00084666669 -0.0040064286
0.012512947 0.00084666669 0.0021757144
0.020585814 0.0016933334 -0.0064792857
-0.0076692249 0.00084666669 0.00052714284
0.02825504 -0.00127 -0.0077157142
-0.0048437212 -0.00127 -0.008127857
0.012916589 0.00084666669 0.0021757144
-0.0076692249 -0.0016933334 0.00052714284
0.02825504 0.00127 -0.0077157142
0.033098761 0.00084666669 0.00052714284
0.020585814 -0.00127 0.00093928573
0.048033569 0.00254 -0.0023578571
0.02825504 -0.00127 -0.0044185715
0.018163955 0.00127 -0.0068914285
-0.030273257 -0.0016933334 -0.0068914285
0.046822637 0.00084666669 -0.00029714286
-0.030676899 0.0016933334 -0.0068914285
-0.035520621 -0.00254 -0.0015335714
-0.030676899 -0.00084666669 -0.0068914285
0.010091086 -0.00084666669 -0.0040064286
-0.030676899 -0.0016933334 -0.0068914285
0.02825504 0.00127 -0.0044185715
0.010091086 0.00084666669 -0.0040064286
-0.0024218606 0.00127 -0.008127857
0.048437212 -0.00254 -0.0023578571
-0.012916589 -0.00084666669 -0.0040064286
0.02825504 0.00127 -0.0052428572
-0.022604031 -0.0016933334 0.00093928573
-0.035116978 -0.00254 -0.0015335714
-0.020585814 0.0016933334 0.0021757144
0.03794248 0.00084666669 0.00093928573
0.039153412 -0.00084666669 -0.00029714286
0.043189846 0.0016933334 0.0013514286
0.048437212 0.00254 -0.0023578571
0.038346127 -0.00127 0.00093928573
0.030676899 -0.0016933334 -0.0077157142
0.04722628 -0.00084666669 -0.00029714286
0.050859071 0.00084666669 -0.005655
0 -0.0016933334 -0.0044185715
-0.035520621 -0.00084666669 0.000115
0.027851395 0.00084666669 -0.0052428572
0.020182172 0.00084666669 -0.0064792857
0.014934806 0.00127 0.0021757144
0.030273257 0.0016933334 -0.0077157142
0.020182172 -0.00084666669 -0.0064792857
-0.02825504 0.00127 -0.0060671428
0.039153412 0.00084666669 -0.00029714286
-0.022604031 -0.0016933334 0.0017635714
-0.035520621 -0.0016933334 0.000115
-0.027851395 -0.00084666669 -0.0060671428
-0.027851395 0.00084666669 -0.0060671428
0.01533845 0.00084666669 0.0021757144
-0.020182172 0.0016933334 0.0021757144
-0.0024218606 -0.0016933334 -0.008127857
-0.035924263 -0.00254 -0.0015335714
-0.012512947 -0.0016933334 -0.0040064286
0.02825504 -0.00127 -0.0052428572
-0.040364344 -0.00127 -0.0052428572
-0.0076692249 -0.0016933334 -0.0060671428
-0.0076692249 0.00084666669 -0.0060671428
0.046418995 -0.00084666669 -0.00029714286
-0.033098761 -0.00254 -0.0011214286
-0.0072655817 -0.00127 -0.0060671428
0.01533845 0.00084666669 0.0017635714
0.045611706 -0.0016933334 -0.0077157142
0.02825504 -0.00127 -0.0068914285
0.033098761 0.0016933334 0.000115
0.02825504 0.00127 -0.0068914285
0.018163955 0.00127 -0.0040064286
-0.03794248 0.0016933334 0.000115
0.01533845 0.00084666669 0.00093928573
-0.032695118 -0.00254 -0.0011214286
0.046015348 -0.00127 -0.0077157142
0.01533845 -0.00084666669 0.00093928573
-0.033502404 -0.00254 -0.0011214286
-0.012512947 -0.0016933334 -0.0044185715
0.033098761 0.00084666669 0.000115
0.046015348 0.00127 -0.0077157142
0.038346127 -0.00127 -0.0035942858
0.038346127 0.00127 -0.0035942858
-0.012916589 -0.00084666669 0.00052714284
0.014934806 0.00127 0.00093928573
-0.012916589 -0.00084666669 -0.0044185715
-0.033906046 -0.00254 -0.0011214286
-0.012512947 -0.00084666669 -0.0044185715
0.048033569 -0.0016933334 0.000115
0.0076692249 -0.00127 -0.008127857
-0.020182172 0.0016933334 -0.0040064286
0.033098761 0.0016933334 -0.0044185715
-0.031887829 -0.00254 -0.0011214286
0.043189846 0.0016933334 0.00093928573
-0.01533845 -0.00084666669 0.000115
0.0076692249 0.0016933334 -0.0064792857
0.0076692249 0.00084666669 -0.0064792857
0.046418995 0.00084666669 -0.00029714286
-0.045611706 0.0016933334 -0.0068914285
-0.023007674 0.00084666669 -0.0035942858
-0.012512947 -0.00084666669 0.00052714284
0.02825504 -0.00127 0.0021757144
-0.012512947 -0.0016933334 0.00052714284
-0.045611706 -0.00084666669 -0.0068914285
-0.032291472 -0.00254 -0.0011214286
-0.023007674 -0.00084666669 -0.0035942858
0.018163955 0.00127 -0.0035942858
-0.046015348 0.00127 -0.0068914285
0.0072655817 0.00127 -0.0064792857
-0.020182172 0.00084666669 -0.0040064286
0.03794248 -0.00084666669 -0.0035942858
-0.046015348 -0.00127 -0.0068914285
-0.050859071 -0.00084666669 -0.0052428572
0.030273257 0.0016933334 -0.0068914285
0.045611706 -0.0016933334 0.00093928573
-0.030676899 0.0016933334 -0.0052428572
0.045611706 -0.00084666669 0.00093928573
0.020182172 0.00084666669 -0.0040064286
-0.035520621 -0.00254 -0.0011214286
0.033098761 0.0016933334 0.0013514286
0.048437212 0.00127 -0.0077157142
0.045611706 0.00084666669 0.00093928573
-0.0028255039 0.00084666669 -0.0035942858
0.032695118 -0.00127 -0.0052428572
-0.027851395 0.00084666669 0.00093928573
0.035520621 0.00084666669 -0.0044185715
0.050051786 0.00084666669 -0.00029714286
-0.0028255039 0.00084666669 -0.0060671428
-0.0028255039 0.00127 -0.0060671428
0.03794248 -0.00084666669 -0.00029714286
0.035520621 0.0016933334 -0.0044185715
-0.035924263 -0.00254 -0.0011214286
-0.027851395 -0.00084666669 0.00093928573
-0.0024218606 0.00084666669 -0.0060671428
-0.030273257 -0.0016933334 -0.0052428572
-0.02825504 0.00127 0.0021757144
0.030273257 -0.0016933334 0.0021757144
-0.0048437212 -0.00084666669 -0.0060671428
-0.020182172 0.0016933334 -0.0077157142
-0.030676899 -0.0016933334 -0.0052428572
-0.020182172 -0.00084666669 -0.0040064286
0.02825504 0.00127 0.0021757144
0.035520621 -0.0016933334 -0.0044185715
-0.030676899 -0.00084666669 -0.0052428572
0.050051786 -0.00084666669 -0.00029714286
-0.034309693 -0.00254 -0.0011214286
-0.020585814 0.0016933334 -0.0077157142
-0.0052473643 0.00084666669 -0.0060671428
-0.020585814 0.0016933334 -0.0040064286
0.033098761 -0.00084666669 0.000115
0.03794248 0.00084666669 -0.00029714286
0.01776031 0.00084666669 -0.0040064286
0.0052473643 0.0016933334 -0.0064792857
-0.0048437212 0.00127 -0.0060671428
-0.034713335 -0.00254 -0.0011214286
0.035520621 -0.00084666669 -0.0044185715
0.0052473643 -0.00084666669 -0.0064792857
0.0052473643 -0.0016933334 -0.0064792857
0.012916589 -0.00127 0.0025878572
-0.035116978 -0.00254 -0.0011214286
0.0048437212 0.00084666669 -0.0064792857
0.043189846 -0.00084666669 -0.005655
-0.0072655817 -0.00127 -0.0044185715
0.033098761 0.0016933334 0.0017635714
0.033098761 0.00084666669 0.0017635714
0.042786203 -0.00084666669 -0.00029714286
0.04964814 0.00084666669 -0.00029714286
-0.01533845 -0.0016933334 -0.0060671428
-0.01533845 -0.00084666669 -0.0060671428
-0.014934806 0.00127 0.000115
-0.01533845 0.00084666669 -0.0060671428
0.033098761 -0.00084666669 0.0017635714
0.01533845 -0.00084666669 -0.0040064286
-0.050455429 -0.00254 -0.0019457142
-0.0076692249 0.00084666669 -0.0044185715
0.012512947 0.00084666669 -0.0064792857
0.030273257 0.0016933334 -0.0052428572
-0.040364344 -0.00127 -0.0068914285
-0.050051786 -0.00254 -0.0019457142
0.045611706 -0.00084666669 0.000115
-0.040767986 0.00084666669 -0.0068914285
-0.040767986 -0.00084666669 -0.0068914285
-0.040767986 -0.0016933334 -0.0068914285
0.0024218606 -0.00084666669 0.0013514286
-0.01776031 -0.00084666669 -0.0040064286
0.040364344 0.00127 -0.0077157142
0.040767986 -0.0016933334 -0.0077157142
0.0048437212 0.00127 -0.008127857
-0.0048437212 0.00127 -0.0035942858
0.045611706 0.00084666669 0.000115
0.040364344 0.00127 0.00093928573
0.0024218606 0.0016933334 -0.008127857
-0.018163955 0.00127 -0.0060671428
-0.03794248 0.0016933334 -0.0068914285
-0.0052473643 0.00084666669 -0.0035942858
0.035520621 0.0016933334 -0.0035942858
0.04964814 -0.00084666669 -0.00029714286
-0.01776031 -0.00084666669 -0.0060671428
-0.03794248 -0.0016933334 -0.0068914285
0.03794248 -0.0016933334 -0.0077157142
0.040767986 -0.0016933334 0.00093928573
0.03794248 -0.00127 -0.0077157142
-0.038346127 0.00127 -0.0068914285
0.0052473643 -0.00127 -0.008127857
-0.038346127 -0.00127 -0.0068914285
0.012916589 0.00127 -0.0040064286
0.012916589 0.00127 -0.0064792857
0.038346127 -0.00127 -0.0077157142
0.040767986 0.00084666669 0.000115
0.014934806 0.00127 -0.0040064286
0.038346127 0.00127 -0.0077157142
0.038346127 0.00084666669 -0.00029714286
0.043189846 0.0016933334 -0.005655
-0.0072655817 -0.00127 0.0017635714
-0.023007674 -0.00084666669 0.0017635714
-0.0048437212 -0.00084666669 -0.0035942858
0.012512947 0.0016933334 -0.0064792857
0.030676899 -0.0016933334 0.00052714284
0.030676899 0.00084666669 -0.0052428572
0.032695118 -0.00127 -0.0044185715
-0.022604031 -0.0016933334 -0.0035942858
-0.030676899 -0.00254 -0.0011214286
0.030676899 0.00084666669 0.00052714284
-0.010091086 -0.00084666669 -0.0052428572
-0.030676899 -0.00084666669 0.000115
0.030676899 -0.00084666669 0.00052714284
0.043189846 -0.0016933334 0.00093928573
0.046015348 -0.00127 0.00052714284
0.043189846 -0.00084666669 0.00093928573
0.043189846 -0.0016933334 -0.0077157142
0.010091086 -0.00127 0.0025878572
0.030676899 -0.00084666669 -0.0052428572
0.033098761 -0.00084666669 -0.0044185715
-0.010494729 0.00127 -0.0060671428
-0.010091086 0.00084666669 -0.0044185715
-0.010091086 -0.00084666669 -0.0044185715
0.046015348 0.00127 0.00052714284
0.010091086 0.00127 0.0025878572
-0.010091086 -0.00084666669 -0.0060671428
0.043189846 0.0016933334 -0.0077157142
-0.010091086 0.00084666669 -0.0060671428
0.033098761 0.00084666669 -0.0044185715
0.030273257 0.0016933334 0.00052714284
0.01533845 -0.00084666669 0.0017635714
-0.030676899 0.0016933334 0.000115
0.045611706 -0.00084666669 0.00052714284
0.046822637 -0.00084666669 -0.00029714286
-0.02946597 -0.00254 -0.0011214286
-0.0076692249 -0.0016933334 -0.0044185715
0.042786203 0.00084666669 -0.00029714286
0.0052473643 0.00127 -0.008127857
0.014934806 0.00127 0.0017635714
-0.012916589 -0.00084666669 -0.0060671428
-0.025429536 0.00084666669 0.00093928573
0.043189846 -0.0016933334 -0.005655
0.038346127 -0.00084666669 -0.00029714286
0.010091086 0.00084666669 -0.0064792857
-0.029869612 -0.00254 -0.0011214286
-0.012512947 -0.0016933334 -0.0060671428
-0.0076692249 0.00084666669 -0.0052428572
-0.012512947 -0.00084666669 -0.0060671428
-0.025429536 -0.00084666669 0.00093928573
-0.0072655817 -0.00127 0.0013514286
0.010091086 -0.00084666669 -0.0064792857
0.045611706 0.00084666669 0.00052714284
0.045611706 -0.0016933334 0.000115
0.050051786 -0.00254 -0.00029714286
-0.018163955 0.00127 -0.0040064286
-0.01533845 0.00084666669 0.000115
0.032695118 -0.00127 0.0017635714
-0.030273257 -0.00254 -0.0011214286
-0.010091086 0.00084666669 -0.0052428572
-0.043189846 0.00084666669 -0.0068914285
0.052070003 0.00084666669 -0.0019457142
-0.0028255039 0.0016933334 0.0017635714
-0.0028255039 0.00127 0.0017635714
0.014934806 0.00127 -0.0077157142
-0.012512947 -0.00084666669 -0.0035942858
0.030273257 -0.0016933334 0.00093928573
0.03794248 -0.0016933334 0.00052714284
0.035520621 0.00084666669 0.0017635714
-0.0052473643 0.0016933334 -0.0052428572
-0.012512947 -0.0016933334 -0.0035942858
-0.012916589 -0.00084666669 -0.0035942858
0.052070003 -0.00084666669 -0.0019457142
0.052070003 -0.00042333335 -0.0019457142
0.052070003 0 -0.0019457142
0.052070003 0.00042333335 -0.0019457142
0.0052473643 0.0016933334 -0.0068914285
0.052070003 0.00127 -0.0019457142
0.052070003 0.0016933334 -0.0019457142
-0.010091086 -0.00084666669 0.000115
-0.0028255039 0.00127 -0.0052428572
-0.010091086 0.00084666669 -0.0068914285
-0.010091086 -0.00084666669 -0.0068914285
0.048033569 0.00084666669 -0.00029714286
-0.050859071 -0.00084666669 -0.0060671428
-0.035520621 -0.0016933334 -0.0052428572
-0.020182172 0.0016933334 0.0017635714
-0.010494729 0.00127 -0.0068914285
-0.0024218606 0.0016933334 0.00052714284
-0.035520621 -0.00084666669 -0.0052428572
0.050859071 0.00084666669 -0.0064792857
0.0028255039 -0.00127 0.00052714284
-0.0076692249 0.00084666669 -0.0040064286
0.035520621 0.0016933334 -0.0064792857
0.035520621 0.0016933334 0.0017635714
-0.0076692249 0.00084666669 -0.0068914285
0.035520621 0.00084666669 0.000115
0.040364344 0.00084666669 -0.00029714286
-0.048437212 0.00084666669 0.0017635714
0.035520621 0.00084666669 -0.0064792857
-0.0076692249 -0.0016933334 -0.0068914285
0.050051786 0.00254 -0.0019457142
0.050455429 -0.00254 -0.0019457142
0.035520621 -0.00084666669 -0.0064792857
-0.0024218606 0.00084666669 0.00052714284
0.035520621 -0.0016933334 -0.0064792857
0.048033569 -0.00084666669 -0.00029714286
-0.012512947 0.0016933334 -0.0035942858
-0.018163955 0.00127 0.00093928573
0.0028255039 -0.00084666669 0.00052714284
0.0048437212 0.00084666669 -0.0068914285
-0.020585814 -0.0016933334 0.0017635714
-0.0028255039 0.00084666669 -0.0052428572
0.050455429 0.00254 -0.0019457142
0.0052473643 -0.0016933334 -0.0068914285
0.0052473643 -0.00084666669 -0.0068914285
-0.0024218606 0.0016933334 0.0017635714
0.040364344 -0.00084666669 -0.00029714286
0.038346127 0.00127 0.00052714284
0.038346127 -0.00127 0.00052714284
-0.01533845 0.00084666669 -0.0035942858
0.035520621 0.0016933334 0.000115
0.030273257 0.0016933334 -0.0035942858
-0.012512947 -0.00084666669 0.000115
-0.050455429 -0.00254 -0.0015335714
0.035520621 -0.00084666669 0.0017635714
0.032695118 -0.00127 -0.0064792857
-0.012512947 -0.0016933334 0.0021757144
-0.01533845 -0.00084666669 -0.0035942858
0.030676899 -0.00084666669 -0.0035942858
-0.0048437212 -0.00084666669 0.0017635714
-0.012512947 -0.00084666669 -0.0068914285
-0.0052473643 -0.00084666669 -0.0052428572
-0.012512947 -0.0016933334 -0.0068914285
0.0072655817 0.00127 -0.0068914285
0.030676899 0.00084666669 -0.0035942858
-0.012512947 -0.0016933334 0.000115
0.048437212 0.00084666669 -0.00029714286
-0.010091086 0.00084666669 0.000115
-0.050051786 -0.00254 -0.0015335714
-0.012916589 -0.00084666669 -0.0068914285
0.020585814 0.0016933334 -0.0052428572
-0.0052473643 0.0016933334 0.0017635714
0.0024218606 -0.00084666669 0.0021757144
-0.012512947 0.0016933334 0.000115
-0.0028255039 0.0016933334 -0.0052428572
0.012512947 0.0016933334 0.0017635714
0.020585814 0.0016933334 -0.0044185715
0.010091086 0.00084666669 -0.0044185715
-0.035520621 0.0016933334 -0.0052428572
0.048437212 -0.00084666669 -0.00029714286
-0.0052473643 0.00084666669 -0.0052428572
-0.01533845 0.00127 -0.008127857
0.030273257 0.0016933334 0.00093928573
-0.051666357 0 -0.0015335714
-0.051666357 0.00042333335 -0.0015335714
-0.051666357 0.00084666669 -0.0015335714
0.03794248 0.00084666669 0.00052714284
-0.0024218606 0.0016933334 0.0021757144
0.030676899 -0.00084666669 0.00093928573
0.033098761 0.0016933334 -0.0064792857
0.033098761 0.00084666669 -0.0064792857
-0.0028255039 0.00127 0.00052714284
0.030676899 0.00084666669 0.00093928573
-0.0048437212 0.00127 0.0017635714
-0.0028255039 0.00084666669 0.00052714284
0.010091086 -0.00084666669 -0.0044185715
-0.0048437212 0.00084666669 0.0017635714
-0.0076692249 -0.0016933334 -0.0040064286
0.033098761 -0.00084666669 -0.0064792857
-0.0052473643 -0.00084666669 0.0021757144
-0.0052473643 0.0016933334 -0.0040064286
0.047629923 -0.00084666669 -0.00029714286
-0.025429536 0.00127 -0.008127857
-0.0028255039 0.0016933334 -0.0068914285
-0.0028255039 0.00127 -0.0068914285
-0.0028255039 0.00084666669 -0.0068914285
0.014934806 0.00127 -0.0044185715
0.0052473643 0.0016933334 -0.0077157142
0.027851395 -0.00084666669 -0.0035942858
-0.0052473643 0.00084666669 -0.0040064286
-0.0052473643 -0.00084666669 -0.0040064286
0.02825504 -0.00127 0.00093928573
0.012916589 0.00127 -0.0044185715
0.035924263 -0.00127 0.0017635714
-0.0028255039 0.0016933334 -0.0040064286
0.045611706 -0.00084666669 -0.0064792857
0.012512947 0.0016933334 -0.0044185715
0.045611706 0.00084666669 -0.0064792857
-0.0052473643 0.00084666669 0.0021757144
0.027851395 0.00084666669 -0.0035942858
-0.0052473643 0.0016933334 0.0021757144
-0.033098761 -0.0016933334 0.000115
0.0048437212 -0.00127 -0.0077157142
0.012512947 0.00084666669 -0.0044185715
0.010091086 0.0016933334 -0.0077157142
-0.020182172 0.00127 -0.008127857
-0.0048437212 0.00127 0.0021757144
-0.0076692249 -0.0016933334 0.0021757144
0.023007674 -0.00084666669 -0.0052428572
-0.0072655817 -0.00127 0.0021757144
0.047629923 0.00084666669 -0.00029714286
-0.0048437212 -0.00084666669 -0.0040064286
0.0072655817 0.00127 -0.0077157142
0 -0.0016933334 -0.0068914285
0.023007674 -0.0016933334 -0.0052428572
-0.0048437212 0.00127 -0.0040064286
0.043189846 -0.00084666669 0.0013514286
0.040767986 -0.00084666669 -0.00029714286
-0.0076692249 0.00084666669 0.0021757144
-0.0076692249 -0.00084666669 0.0021757144
-0.0028255039 0.00084666669 -0.0040064286
0.010494729 -0.00127 -0.0077157142
0.043189846 -0.0016933334 -0.0064792857
0.040767986 0.00084666669 -0.00029714286
0.043189846 -0.00084666669 -0.0064792857
-0.0028255039 0.00127 -0.0040064286
0.048437212 0.00127 -0.005655
0.043189846 0.0016933334 -0.0064792857
0.040767986 -0.0016933334 -0.0064792857
0.01533845 -0.00084666669 -0.0044185715
0.040364344 0.00127 -0.0064792857
-0.0024218606 0.0016933334 -0.0068914285
0 0.00084666669 0.0017635714
0.027851395 -0.00084666669 0.00093928573
-0.0024218606 0.00084666669 -0.0068914285
-0.0028255039 0.00084666669 0.0021757144
0.018163955 0.00127 -0.0044185715
-0.048437212 -0.00127 0.0017635714
0.043189846 -0.0016933334 0.0013514286
0.048437212 0.00127 -0.0064792857
0.020182172 -0.00084666669 -0.0044185715
-0.0048437212 0.00127 -0.0052428572
0.035520621 -0.00084666669 0.00052714284
0.035520621 -0.00084666669 0.000115
0.020182172 0.00084666669 -0.0044185715
0.0024218606 -0.00084666669 0.00052714284
0.012512947 0.0016933334 -0.0077157142
-0.027851395 -0.00084666669 0.0017635714
-0.0048437212 -0.00084666669 -0.0052428572
-0.020182172 -0.00084666669 0.0017635714
-0.0028255039 0.00127 0.0021757144
-0.0028255039 0.0016933334 0.0021757144
-0.033098761 0.00084666669 0.000115
0.020585814 -0.00127 -0.0044185715
0.025429536 -0.00084666669 -0.0035942858
-0.01776031 0.00127 -0.008127857
-0.0072655817 -0.00127 -0.0040064286
0.025429536 -0.00084666669 0.00093928573
0.0028255039 -0.00127 -0.0077157142
0.050051786 -0.00254 -0.0019457142
-0.0024218606 0.00084666669 0.0021757144
-0.0072655817 -0.00127 -0.0068914285
-0.030676899 -0.00127 -0.008127857
-0.010494729 -0.00127 0.000115
0.0024218606 -0.00084666669 -0.0068914285
-0.0024218606 0.00084666669 -0.0040064286
0.010494729 0.00127 -0.0077157142
0.02825504 0.00127 0.00093928573
0.038346127 0.00127 -0.0064792857
0.038346127 -0.00127 -0.0064792857
-0.010091086 -0.00084666669 -0.0035942858
0.0028255039 -0.00127 -0.0068914285
-0.027851395 0.00127 -0.008127857
-0.010091086 0.00084666669 -0.0035942858
0.01776031 0.00084666669 -0.0044185715
-0.0048437212 0.00127 -0.0068914285
-0.020585814 0.0016933334 0.0017635714
-0.012916589 -0.0016933334 0.0021757144
0.048033569 -0.0016933334 -0.005655
-0.0048437212 -0.00084666669 -0.0068914285
0.041171629 -0.00084666669 -0.00029714286
-0.0052473643 0.0016933334 -0.0068914285
-0.0052473643 0.00084666669 -0.0068914285
-0.010091086 0.00084666669 0.0021757144
0.035520621 0.0016933334 0.00052714284
-0.010091086 -0.0016933334 0.0021757144
-0.033098761 -0.00084666669 0.000115
0.02825504 -0.00127 -0.0035942858
-0.01776031 -0.00084666669 0.00093928573
0.035520621 0.00084666669 0.00052714284
0.02825504 0.00127 -0.0035942858
0.0072655817 0.00127 -0.0040064286
-0.03794248 -0.0016933334 -0.0052428572
-0.03794248 -0.0016933334 -0.0060671428
-0.010091086 -0.00084666669 -0.0040064286
-0.03794248 -0.00084666669 -0.0060671428
-0.045611706 0.00127 -0.008127857
-0.03794248 0.0016933334 -0.0060671428
0.012512947 0.00084666669 -0.0068914285
0.012512947 0.0016933334 -0.0068914285
-0.020585814 0.0016933334 0.00093928573
0.040364344 0.00127 0.00052714284
0.041575272 0.00084666669 -0.00029714286
-0.01776031 -0.00084666669 -0.0035942858
-0.0076692249 -0.0016933334 -0.0035942858
0.012916589 0.00127 -0.0068914285
0.025429536 0.00084666669 -0.0064792857
-0.020585814 -0.0016933334 0.00093928573
0.025429536 -0.00084666669 -0.0064792857
-0.0076692249 -0.00127 -0.008127857
-0.018163955 0.00127 -0.0035942858
0.0076692249 0.00084666669 -0.0040064286
-0.0076692249 0.00127 -0.008127857
-0.020182172 0.00084666669 0.00093928573
0.0052473643 0.00084666669 -0.0040064286
0.0052473643 0.0016933334 -0.0040064286
0.0052473643 0.00084666669 -0.0044185715
-0.020182172 0.0016933334 -0.0068914285
0.0052473643 -0.00084666669 -0.0044185715
0.0072655817 0.00127 0.0021757144
-0.020182172 -0.00084666669 -0.0068914285
0.0076692249 -0.00084666669 0.0021757144
-0.022604031 -0.0016933334 -0.0068914285
-0.020585814 0.0016933334 -0.0068914285
-0.0048437212 0.00127 -0.0077157142
0.0052473643 -0.00084666669 0.00052714284
-0.010091086 0.00084666669 -0.0040064286
-0.020182172 -0.00084666669 0.00093928573
-0.020585814 -0.0016933334 -0.0068914285
-0.038346127 -0.00127 -0.0060671428
0.045611706 0.00084666669 -0.005655
0.040364344 -0.00127 0.00052714284
0.0052473643 -0.0016933334 -0.0044185715
-0.038346127 0.00127 -0.0060671428
-0.038346127 -0.00127 -0.0052428572
0.023007674 -0.00084666669 -0.0035942858
-0.012916589 -0.0016933334 0.000115
0.035520621 -0.0016933334 0.00093928573
0.035924263 -0.00127 0.000115
0.035520621 -0.00084666669 0.00093928573
0.035520621 0.00084666669 0.00093928573
0.035520621 0.0016933334 0.00093928573
0.010494729 0.00127 0.0021757144
-0.018163955 0.00127 0.0021757144
-0.033098761 -0.0016933334 -0.0060671428
-0.033098761 -0.00084666669 -0.0060671428
0.035924263 -0.00127 0.00093928573
-0.033098761 -0.00084666669 -0.0052428572
-0.033098761 0.00084666669 -0.0060671428
0.014934806 0.00127 -0.0068914285
-0.033098761 0.0016933334 -0.0060671428
0.025429536 -0.00084666669 -0.0044185715
0.025429536 0.00084666669 -0.0044185715
-0.032695118 -0.00127 -0.0060671428
0.023007674 0.00084666669 -0.0064792857
-0.035520621 0.0016933334 -0.0060671428
0.0048437212 0.00084666669 -0.0044185715
0.0076692249 0.0016933334 -0.0040064286
0.0048437212 -0.00127 -0.0044185715
0.045611706 -0.0016933334 -0.005655
-0.0072655817 -0.00127 -0.0052428572
0.0028255039 -0.00084666669 -0.0044185715
-0.035520621 -0.0016933334 -0.0060671428
-0.035520621 -0.00084666669 -0.0060671428
-0.035520621 0.0016933334 0.000115
0.0028255039 -0.00127 -0.0044185715
0.039557055 -0.00084666669 -0.00029714286
0.0052473643 0.0016933334 0.00052714284
-0.048033569 0.00127 -0.008127857
0.010091086 0.00084666669 0.0021757144
-0.033098761 -0.0016933334 -0.0052428572
-0.012916589 -0.00084666669 0.000115
-0.048437212 -0.00127 -0.008127857
0.0024218606 -0.00084666669 -0.0044185715
-0.033098761 0.0016933334 0.000115
0.030676899 0.00084666669 -0.0064792857
-0.01533845 0.00084666669 0.00093928573
-0.012512947 -0.00127 -0.008127857
0.041171629 0.00084666669 -0.00029714286
0.012512947 0.00084666669 0.0017635714
0.0028255039 -0.00084666669 -0.0040064286
0.030273257 0.0016933334 -0.0064792857
-0.01533845 -0.00084666669 -0.0068914285
0.020585814 -0.00127 -0.0052428572
0.032695118 -0.00127 0.00093928573
0.023007674 0.00084666669 0.00093928573
-0.01533845 -0.00084666669 0.00093928573
0.023007674 -0.00084666669 0.00093928573
0.023007674 -0.0016933334 0.00093928573
0.0048437212 -0.00127 -0.0040064286
-0.0024218606 0.00084666669 -0.0052428572
0.0048437212 -0.00127 0.0021757144
0.0048437212 -0.00084666669 0.0021757144
0.039960697 -0.00084666669 -0.00029714286
0.0048437212 0.00084666669 -0.0040064286
0.0076692249 0.00084666669 -0.0044185715
0.0028255039 -0.00127 -0.0040064286
-0.050859071 -0.00084666669 0.00052714284
0.0024218606 -0.00084666669 -0.0040064286
0.0076692249 0.00084666669 -0.0068914285
0.0028255039 -0.00127 0.0021757144
0.025429536 -0.00084666669 -0.0052428572
-0.03794248 0.0016933334 -0.0052428572
0.018163955 0.00127 -0.0077157142
0.0048437212 0.00084666669 0.0021757144
-0.03794248 -0.00127 -0.008127857
0.035520621 -0.0016933334 0.0017635714
-0.046015348 -0.00127 -0.0060671428
0.039960697 0.00084666669 -0.00029714286
-0.045611706 -0.00084666669 -0.0060671428
-0.012916589 -0.00127 -0.008127857
-0.045611706 0.0016933334 -0.0060671428
-0.040767986 -0.00084666669 -0.0060671428
0.033098761 -0.00084666669 0.00093928573
-0.018163955 0.00127 -0.0068914285
-0.01533845 0.00084666669 0.0021757144
0.02825504 0.00127 -0.0064792857
-0.0052473643 0.00084666669 0.00052714284
0.033098761 0.00084666669 0.00093928573
0.033098761 0.0016933334 0.00093928573
0.048840854 0.00084666669 -0.00029714286
0.02825504 -0.00127 -0.0064792857
0.041575272 -0.00084666669 -0.00029714286
-0.040767986 -0.0016933334 -0.0060671428
0.0048437212 0.0016933334 0.00052714284
-0.010091086 0.00127 -0.008127857
0.027851395 -0.00084666669 -0.0064792857
-0.040767986 0.00084666669 -0.0060671428
0.0072655817 0.00127 -0.0044185715
0.0052473643 0.0016933334 -0.0044185715
-0.040364344 -0.00127 -0.0060671428
0.039557055 0.00084666669 -0.00029714286
-0.020182172 0.0016933334 0.00093928573
0.0052473643 -0.0016933334 -0.0040064286
0.023007674 -0.00084666669 -0.0044185715
0.0052473643 -0.00084666669 -0.0040064286
0.010091086 -0.00084666669 -0.0068914285
-0.043189846 0.00084666669 -0.0060671428
-0.040767986 -0.00127 -0.008127857
-0.0028255039 0.0016933334 -0.0077157142
-0.0028255039 0.00127 -0.0077157142
0.010091086 0.00084666669 -0.0068914285
0.020182172 0.00084666669 -0.0052428572
0.0052473643 -0.0016933334 0.0021757144
0.043189846 0.0016933334 -0.0044185715
0.04722628 0.00084666669 -0.00029714286
0.0052473643 0.0016933334 0.0021757144
0.0048437212 0.00084666669 0.00052714284
-0.0048437212 0.00127 0.00052714284
-0.03794248 -0.00084666669 -0.0052428572
0.033098761 -0.00084666669 0.0013514286
0.023007674 -0.0016933334 -0.0044185715
0.048840854 -0.00084666669 -0.00029714286
-0.01776031 -0.00084666669 -0.0068914285
0.020182172 -0.00084666669 -0.0052428572
-0.0048437212 -0.00084666669 0.00052714284
0.01776031 -0.00127 -0.008127857
-0.0028255039 0.00127 -0.0064792857
-0.050051786 -0.00254 -0.00029714286
-0.02825504 0.00127 -0.0044185715
0.038346127 0.00127 0.0017635714
-0.02825504 -0.00127 -0.0044185715
0.020585814 0.00127 0.0025878572
-0.050051786 -0.00084666669 -0.00029714286
-0.048437212 0.00084666669 0.0013514286
-0.030676899 -0.00084666669 0.00093928573
0.050859071 0.00084666669 0.00093928573
0.023007674 -0.00127 -0.008127857
-0.040364344 0.00084666669 -0.00029714286
-0.048437212 0.00084666669 -0.0044185715
-0.018163955 0.00127 0.000115
-0.050051786 0.00084666669 -0.00029714286
0.043189846 0.0016933334 -0.0052428572
0.038346127 -0.00127 0.0021757144
-0.0024218606 0.00084666669 0.0013514286
-0.030676899 0.0016933334 0.00093928573
-0.033098761 0.0016933334 0.00093928573
0.010091086 0.00084666669 -0.0060671428
-0.027851395 0.00084666669 -0.0044185715
0.035520621 -0.0016933334 -0.0073035713
0.03794248 -0.0016933334 0.0021757144
0.035520621 -0.00084666669 -0.0073035713
-0.027851395 -0.00084666669 -0.0044185715
-0.039960697 0.00084666669 -0.00029714286
-0.050455429 0.00084666669 -0.00029714286
-0.046015348 -0.00127 -0.0073035713
0.030273257 0.0016933334 0.000115
0.025429536 0.00084666669 -0.0040064286
0.010494729 -0.00127 -0.0060671428
0.035520621 0.00084666669 -0.0073035713
-0.039960697 -0.00084666669 -0.00029714286
0.035520621 0.0016933334 -0.0073035713
0.037538838 -0.00084666669 -0.00029714286
0.030676899 0.00084666669 0.0013514286
-0.025429536 0.00084666669 -0.0040064286
-0.030676899 -0.0016933334 -0.0035942858
-0.045611706 0.0016933334 -0.0073035713
-0.048840854 -0.00084666669 -0.00029714286
0.046015348 0.00084666669 -0.00029714286
-0.032695118 -0.00127 0.00093928573
0.012512947 0.00084666669 -0.0060671428
0.012512947 0.0016933334 -0.0060671428
-0.048840854 0.00084666669 -0.00029714286
0.046015348 0.00127 0.0021757144
0.030676899 -0.00084666669 0.0013514286
0.012916589 0.00127 -0.0060671428
0.036731552 0.00084666669 -0.00029714286
-0.048437212 -0.00084666669 -0.00029714286
0.03794248 0.00084666669 -0.0052428572
-0.0028255039 0.00127 0.0013514286
0.023007674 0.00084666669 -0.0060671428
-0.048437212 0.00084666669 -0.00029714286
-0.0028255039 0.00084666669 0.0013514286
-0.040767986 0.00084666669 -0.00029714286
0.0028255039 -0.00127 -0.0052428572
-0.040364344 -0.00084666669 -0.00029714286
0.038346127 0.00127 0.0021757144
0.014934806 0.00127 -0.0052428572
-0.046015348 0.00127 -0.0073035713
-0.04964814 -0.00084666669 -0.00029714286
-0.030273257 -0.0016933334 -0.0044185715
0.022604031 0.00127 -0.008127857
-0.04964814 0.00084666669 -0.00029714286
0.043189846 0.0016933334 -0.0073035713
-0.0024218606 0.0016933334 0.0013514286
-0.049244497 -0.00084666669 -0.00029714286
-0.045611706 -0.00084666669 -0.0073035713
0.043189846 -0.0016933334 -0.0073035713
-0.049244497 0.00084666669 -0.00029714286
0.043189846 -0.00084666669 -0.0052428572
-0.040767986 -0.00084666669 -0.00029714286
0.027851395 -0.00084666669 -0.0040064286
-0.020182172 0.00084666669 -0.0044185715
0.052070003 -0.0016933334 -0.00070928573
0.0076692249 0.00084666669 -0.0060671428
-0.03794248 -0.0016933334 -0.0073035713
0.052070003 -0.00127 -0.00070928573
0.052070003 -0.00084666669 -0.00070928573
0.052070003 -0.00042333335 -0.00070928573
0.052070003 0 -0.00070928573
0.052070003 0.00042333335 -0.00070928573
0.052070003 0.00084666669 -0.00070928573
0.052070003 0.00127 -0.00070928573
0.052070003 0.0016933334 -0.00070928573
-0.020182172 0.0016933334 -0.0044185715
-0.020182172 -0.00084666669 -0.0044185715
-0.020585814 0.0016933334 -0.0044185715
-0.033098761 0.00084666669 0.00093928573
-0.01533845 -0.00084666669 0.00052714284
0.035520621 -0.0016933334 -0.0052428572
0.010494729 0.00127 0.0017635714
0.035520621 -0.00084666669 -0.0052428572
-0.039153412 -0.00084666669 -0.00029714286
-0.040767986 0.00084666669 0.000115
-0.038346127 0.00127 -0.0073035713
-0.018163955 -0.00127 0.000115
0.035924263 -0.00127 0.0021757144
-0.050859071 -0.00084666669 -0.0044185715
0.0072655817 0.00127 -0.0060671428
-0.03794248 0.0016933334 -0.0073035713
0.037538838 0.00084666669 -0.00029714286
0.046015348 -0.00127 -0.0073035713
0.027851395 -0.00084666669 0.00052714284
-0.012916589 -0.00084666669 -0.0052428572
-0.035520621 0.0016933334 0.0021757144
-0.039153412 0.00084666669 -0.00029714286
0.020585814 0.0016933334 0.0017635714
-0.040767986 -0.00084666669 0.000115
0.0024218606 0.00084666669 0.0017635714
0.050859071 -0.00084666669 -0.00029714286
0.030273257 0.0016933334 0.0013514286
0.010494729 0.00127 0.00052714284
0.0028255039 0.00127 0.000115
-0.023007674 -0.00084666669 -0.0044185715
0.036731552 -0.00084666669 -0.00029714286
0.025429536 -0.00084666669 -0.0040064286
-0.050859071 -0.00084666669 -0.00029714286
-0.030273257 -0.0016933334 0.00093928573
0.050859071 0.00084666669 -0.00029714286
-0.025429536 0.00084666669 -0.0044185715
-0.050859071 0.00084666669 -0.00029714286
0.035520621 0.0016933334 -0.0068914285
-0.0024218606 0.0016933334 -0.0064792857
0.051262714 0.00084666669 -0.00029714286
0.035924263 -0.00127 -0.0068914285
-0.0024218606 0.00084666669 -0.0064792857
-0.050455429 -0.00254 -0.00029714286
-0.039557055 -0.00084666669 -0.00029714286
-0.010091086 0.00084666669 0.00093928573
-0.050455429 -0.00084666669 -0.00029714286
0.010091086 -0.00084666669 -0.0060671428
-0.022604031 -0.0016933334 -0.0044185715
0.025429536 0.00084666669 -0.0060671428
-0.051666357 -0.00084666669 -0.00029714286
0.035520621 0.00084666669 -0.0052428572
-0.040767986 0.0016933334 0.000115
-0.051666357 0.00084666669 -0.00029714286
0.025429536 -0.00084666669 -0.0060671428
0.035520621 -0.0016933334 -0.0068914285
0.035520621 -0.00084666669 -0.0068914285
-0.051262714 -0.00084666669 -0.00029714286
0.012512947 0.0016933334 0.00093928573
0.035520621 0.00084666669 -0.0068914285
-0.023007674 0.00084666669 -0.0044185715
-0.051262714 0.00084666669 -0.00029714286
0.030273257 0.00084666669 0.000115
-0.038346127 -0.00127 -0.0073035713
-0.040364344 -0.00127 0.000115
0.012512947 0.00084666669 0.00093928573
-0.039557055 0.00084666669 -0.00029714286
-0.04480442 -0.00084666669 -0.00029714286
0.040364344 0.00127 -0.005655
-0.042382561 -0.00084666669 -0.00029714286
-0.0072655817 -0.00127 -0.0064792857
0.010091086 0.00084666669 0.00093928573
-0.030273257 -0.0016933334 -0.0077157142
0.01776031 0.00084666669 -0.0060671428
-0.018163955 0.00127 0.00052714284
0.01533845 -0.00084666669 -0.0035942858
-0.040767986 -0.00084666669 -0.0073035713
0.037135195 0.00084666669 -0.00029714286
-0.040364344 -0.00127 -0.0044185715
-0.02825504 0.00127 -0.0040064286
0.040767986 -0.0016933334 -0.0052428572
0.030676899 0.00084666669 0.000115
-0.04480442 0.00084666669 -0.00029714286
0.040767986 -0.0016933334 -0.0044185715
-0.042786203 0.00084666669 -0.00029714286
-0.040767986 -0.0016933334 -0.0073035713
0.018163955 0.00127 -0.0060671428
0.038346127 0.00127 -0.0068914285
-0.027851395 -0.00084666669 -0.0052428572
0.02825504 0.00127 -0.0040064286
-0.045611706 -0.00084666669 -0.00029714286
-0.041978914 -0.00084666669 -0.00029714286
-0.00040364341 0.00127 0.000115
-0.046015348 0.00127 0.0017635714
-0.045611706 0.00084666669 -0.00029714286
-0.033098761 -0.0016933334 0.0021757144
0.010091086 -0.00084666669 0.00093928573
-0.030676899 0.0016933334 -0.0035942858
0.030676899 0.00084666669 -0.0040064286
-0.045208063 -0.00084666669 -0.00029714286
-0.040364344 -0.00127 -0.0073035713
0.030676899 -0.00084666669 -0.0040064286
-0.045208063 0.00084666669 -0.00029714286
-0.042382561 0.00084666669 -0.00029714286
-0.045611706 0.0016933334 -0.0044185715
-0.045611706 0.0016933334 0.0017635714
0.040364344 0.00127 -0.0052428572
0.030273257 0.0016933334 -0.0040064286
-0.043189846 0.00084666669 -0.00029714286
-0.043997131 0.00084666669 -0.00029714286
-0.01776031 -0.00084666669 0.00052714284
0.043189846 0.00084666669 -0.0035942858
0.010494729 0.00127 0.00093928573
-0.043189846 -0.00084666669 -0.00029714286
0.020182172 0.00084666669 -0.0060671428
-0.01776031 0.00084666669 0.000115
0.038346127 -0.00127 -0.0073035713
-0.027851395 0.00084666669 -0.0052428572
0.043189846 0.0016933334 -0.0035942858
-0.043593489 -0.00084666669 -0.00029714286
-0.045611706 -0.00084666669 0.0017635714
0.00040364341 -0.00084666669 0.000115
-0.043593489 0.00084666669 -0.00029714286
0.020182172 -0.00084666669 -0.0060671428
0.038346127 0.00127 -0.0073035713
-0.030273257 -0.0016933334 -0.0035942858
-0.040767986 0.00084666669 -0.0044185715
-0.043189846 0.00084666669 -0.0044185715
-0.042786203 -0.00084666669 -0.00029714286
0.043189846 -0.0016933334 0.0021757144
0.043189846 -0.00084666669 0.0021757144
0.020585814 0.0016933334 -0.0060671428
-0.044400778 -0.00084666669 -0.00029714286
0.051262714 -0.00084666669 -0.00029714286
0.043189846 0.0016933334 0.0021757144
0.040364344 0.00127 -0.0073035713
-0.040767986 -0.00084666669 -0.0044185715
-0.050859071 -0.00084666669 0.0013514286
-0.044400778 0.00084666669 -0.00029714286
0.037135195 -0.00084666669 -0.00029714286
-0.040767986 -0.0016933334 -0.0044185715
-0.043997131 -0.00084666669 -0.00029714286
-0.033098761 -0.00084666669 -0.0044185715
-0.032695118 -0.00127 -0.0044185715
-0.033098761 0.0016933334 -0.0044185715
0.040364344 0.00127 0.0021757144
-0.047629923 0.00084666669 -0.00029714286
-0.012512947 -0.00084666669 0.0013514286
-0.02825504 0.00127 -0.0052428572
-0.02825504 0.00127 -0.0077157142
0.040767986 -0.0016933334 0.0021757144
-0.033098761 0.00084666669 -0.0044185715
-0.04722628 -0.00084666669 -0.00029714286
0.038346127 0.00127 -0.0052428572
-0.033098761 -0.0016933334 -0.0044185715
-0.04722628 0.00084666669 -0.00029714286
-0.050859071 -0.00084666669 -0.0068914285
0.022604031 0.00127 0.0025878572
-0.035520621 0.0016933334 -0.0044185715
-0.012512947 -0.0016933334 0.0013514286
-0.041575272 0.00084666669 -0.00029714286
0.040364344 0.00127 -0.0044185715
-0.0024218606 0.00084666669 0.000115
-0.041171629 0.00084666669 -0.00029714286
0.043189846 -0.0016933334 -0.0052428572
0.040767986 -0.0016933334 -0.0068914285
-0.0024218606 0.00084666669 -0.0035942858
-0.048033569 -0.00084666669 -0.00029714286
0.023007674 -0.00084666669 -0.0060671428
-0.041171629 -0.00084666669 -0.00029714286
0.046015348 -0.00127 0.0021757144
0.014934806 0.00127 -0.0060671428
-0.012512947 0.0016933334 0.0013514286
-0.0024218606 0.0016933334 0.000115
-0.048033569 0.00084666669 -0.00029714286
-0.025429536 -0.00084666669 -0.0040064286
-0.050859071 -0.00084666669 0.00093928573
-0.01776031 -0.00084666669 0.000115
0.038346127 -0.00127 -0.0052428572
-0.047629923 -0.00084666669 -0.00029714286
-0.012916589 -0.00084666669 0.0013514286
-0.033098761 -0.00084666669 0.0021757144
-0.03794248 -0.00084666669 -0.0044185715
-0.0052473643 0.0016933334 -0.0064792857
0.038346127 0.00127 0.000115
0.038346127 -0.00127 -0.0068914285
-0.030676899 -0.00084666669 -0.0077157142
-0.0052473643 0.00084666669 -0.0064792857
0.040767986 -0.0016933334 -0.0073035713
-0.0076692249 0.00084666669 -0.0064792857
0.050859071 0.00084666669 0.000115
-0.046418995 0.00084666669 -0.00029714286
-0.041978914 0.00084666669 -0.00029714286
-0.03794248 -0.0016933334 -0.0044185715
-0.046015348 -0.00084666669 -0.00029714286
-0.038346127 0.00127 -0.0044185715
-0.038346127 -0.00127 -0.0044185715
0.030676899 -0.00084666669 0.000115
-0.00040364341 0.00084666669 0.000115
-0.046015348 0.00084666669 -0.00029714286
0.02825504 -0.00127 -0.0040064286
0.040364344 0.00127 -0.0068914285
-0.032695118 -0.00127 0.0021757144
-0.027851395 0.00084666669 -0.0040064286
0.01533845 -0.00084666669 -0.0060671428
-0.046822637 -0.00084666669 -0.00029714286
-0.035520621 -0.00084666669 -0.0044185715
-0.0048437212 0.00127 -0.0064792857
-0.035520621 -0.0016933334 -0.0044185715
-0.046822637 0.00084666669 -0.00029714286
-0.033098761 0.0016933334 0.0021757144
0.035520621 0.0016933334 -0.0052428572
-0.041575272 -0.00084666669 -0.00029714286
-0.033098761 0.00084666669 0.0021757144
-0.0048437212 -0.00084666669 -0.0064792857
-0.027851395 -0.00084666669 -0.0040064286
0.027851395 0.00084666669 -0.0040064286
-0.046418995 -0.00084666669 -0.00029714286
0.040767986 -0.0016933334 -0.005655
-0.0076692249 -0.0016933334 -0.0064792857
-0.046015348 -0.00127 0.0017635714
-0.03794248 0.0016933334 -0.0044185715
-0.051666357 0.00084666669 -0.0011214286
-0.033098761 0.0016933334 -0.0077157142
-0.020182172 -0.00084666669 0.00052714284
0.033098761 0.0016933334 -0.0068914285
-0.046015348 0.00127 0.0013514286
-0.051666357 0 -0.0011214286
0.033098761 0.0016933334 0.0021757144
-0.051666357 0.00042333335 -0.0011214286
0.010091086 -0.00084666669 0.00052714284
0.0028255039 -0.00127 -0.0060671428
0.0028255039 -0.00084666669 -0.0060671428
-0.03632791 -0.00084666669 -0.00029714286
0.010091086 0.00084666669 0.00052714284
0.050455429 0.00084666669 -0.00029714286
-0.023007674 0.00084666669 -0.0040064286
0.0028255039 -0.00127 0.0013514286
-0.036731552 0.00084666669 -0.00029714286
0.0048437212 0.00084666669 0.000115
-0.040364344 -0.00127 0.0017635714
-0.0048437212 -0.00084666669 0.000115
0.02825504 0.00127 0.0017635714
0.048437212 0.00127 -0.0048307143
-0.045611706 -0.00084666669 0.0013514286
0.033098761 -0.00084666669 -0.0052428572
0.032695118 -0.00127 -0.0068914285
-0.022604031 -0.0016933334 -0.0040064286
0.032695118 -0.00127 0.0021757144
-0.0028255039 0.00127 -0.0035942858
-0.030273257 -0.0016933334 -0.0040064286
0.023007674 -0.00084666669 -0.0040064286
0.033098761 0.00084666669 -0.0052428572
0.033098761 -0.00084666669 -0.0068914285
0.0052473643 0.00084666669 0.0013514286
0.0024218606 -0.00084666669 -0.0060671428
0.033098761 -0.00084666669 0.0021757144
0.033098761 0.00084666669 -0.0068914285
0.033098761 0.00084666669 0.0021757144
-0.027851395 0.00084666669 -0.0035942858
0.014934806 0.00127 -0.0035942858
0.0024218606 -0.00084666669 0.0017635714
-0.040767986 0.00084666669 0.0017635714
-0.0052473643 -0.0016933334 0.000115
0.046015348 -0.00127 -0.0052428572
-0.040767986 -0.00084666669 0.0017635714
-0.023007674 -0.00084666669 -0.0040064286
-0.037135195 -0.00084666669 -0.00029714286
0.038346127 0.00127 -0.0044185715
0 -0.0016933334 -0.0064792857
0.02825504 -0.00127 0.0017635714
0.033098761 -0.00084666669 -0.0073035713
0.02825504 0.00127 0.00052714284
-0.0052473643 0.00084666669 0.000115
0.050051786 -0.00254 -0.00070928573
0.027851395 0.00084666669 0.0017635714
0.040364344 0.00127 -0.0035942858
0.02825504 0.00127 -0.0060671428
0.0052473643 -0.00084666669 0.0013514286
-0.036731552 -0.00084666669 -0.00029714286
-0.010091086 -0.00084666669 0.00093928573
0.043189846 -0.00084666669 -0.00029714286
0.050455429 0.00254 -0.00029714286
0.040364344 -0.00127 -0.0035942858
0.050455429 0.00127 0.000115
0.048437212 0.00127 -0.0073035713
0.032695118 -0.00127 -0.0073035713
-0.020182172 0.0016933334 0.00052714284
0.048033569 -0.0016933334 0.00093928573
0.046015348 0.00127 -0.0052428572
-0.046015348 -0.00127 0.0013514286
0.032695118 -0.00127 -0.0040064286
0.033098761 0.0016933334 -0.0052428572
-0.032695118 -0.00127 -0.0077157142
-0.037135195 0.00084666669 -0.00029714286
-0.025429536 0.00084666669 -0.0035942858
0.020585814 0.0016933334 -0.0040064286
0.035520621 0.00084666669 -0.0040064286
0.030676899 0.00084666669 0.0021757144
0.030676899 0.00084666669 0.0017635714
-0.01533845 -0.00084666669 -0.0044185715
-0.025429536 -0.00084666669 -0.0035942858
0.035520621 -0.00084666669 -0.0040064286
0.035520621 -0.0016933334 -0.0040064286
0.030676899 0.00084666669 -0.0060671428
-0.025429536 -0.00084666669 0.0017635714
0.033098761 0.0016933334 -0.0040064286
-0.045208063 -0.00254 -0.0023578571
-0.03794248 -0.00084666669 0.000115
-0.03794248 -0.0016933334 0.000115
0.01776031 0.00084666669 0.0017635714
0.030273257 -0.00127 0.0025878572
0.033098761 0.00084666669 -0.0040064286
-0.030273257 0.00084666669 0.000115
0.01776031 0.00084666669 -0.0035942858
-0.035924263 0.00084666669 -0.00029714286
0.052070003 0.0016933334 -0.0015335714
0.052070003 0.00042333335 -0.0015335714
-0.01533845 0.00084666669 -0.0044185715
0.030676899 0.00084666669 -0.0068914285
-0.035520621 0.00084666669 -0.00029714286
0.048437212 0.00127 0.00052714284
0.030273257 0.00127 0.0021757144
-0.045611706 -0.00254 -0.0023578571
0.030273257 0.0016933334 0.0021757144
0.052070003 0.00127 -0.0015335714
-0.01533845 -0.0016933334 -0.0044185715
0.0052473643 -0.00084666669 0.000115
-0.030273257 -0.0016933334 0.000115
0.035520621 0.0016933334 -0.0040064286
-0.02825504 0.00127 0.00093928573
0.043189846 0.0016933334 -0.0068914285
0.030676899 -0.0016933334 0.0021757144
-0.035520621 -0.00084666669 -0.00029714286
0.030676899 -0.00084666669 0.0021757144
-0.035520621 -0.0016933334 -0.0073035713
-0.01533845 -0.00084666669 -0.0052428572
0.030273257 0.0016933334 0.0017635714
0.043189846 -0.0016933334 -0.0068914285
0.0052473643 0.0016933334 0.0013514286
-0.035520621 -0.00084666669 -0.0073035713
0.0024218606 -0.00084666669 -0.0064792857
-0.010091086 -0.00084666669 0.0013514286
-0.045611706 0.0016933334 0.0013514286
0.030273257 -0.0016933334 0.0017635714
0.012916589 0.00127 -0.008127857
-0.03632791 0.00084666669 -0.00029714286
-0.01533845 0.00084666669 -0.0052428572
0.050455429 -0.00084666669 -0.00029714286
0.045611706 -0.00084666669 -0.0035942858
0.048033569 -0.0016933334 -0.0048307143
0.050051786 0.00254 -0.00029714286
-0.0048437212 0.00127 0.0013514286
0.033098761 -0.00084666669 -0.0040064286
0.03794248 0.00084666669 -0.0044185715
0.030676899 -0.0016933334 0.0017635714
-0.035924263 -0.00084666669 -0.00029714286
0.030273257 0.0016933334 -0.0060671428
0.050455429 -0.00254 -0.00029714286
-0.01533845 -0.0016933334 -0.0052428572
0.032695118 -0.00127 0.0013514286
-0.033098761 -0.0016933334 -0.0077157142
-0.035520621 0.0016933334 -0.0073035713
0.018163955 0.00127 0.0017635714
0.043189846 -0.00084666669 -0.0068914285
0.0028255039 -0.00127 -0.0064792857
0.012512947 0.00127 -0.008127857
-0.022604031 -0.0016933334 -0.0077157142
-0.038346127 -0.00127 0.000115
0.050455429 -0.00254 -0.00070928573
-0.037538838 0.00084666669 -0.00029714286
0.050859071 0.00084666669 0.00052714284
0.02825504 -0.00127 -0.0060671428
-0.010091086 0.00084666669 -0.0064792857
0.032695118 -0.00127 0.000115
-0.030273257 -0.0016933334 0.0021757144
-0.043189846 0.00084666669 0.0017635714
0.01533845 -0.00084666669 -0.0052428572
0.050455429 0.00254 -0.00070928573
-0.040767986 -0.0016933334 -0.0052428572
-0.038749769 -0.00084666669 -0.00029714286
-0.018163955 0.00127 -0.0044185715
0.0052473643 0.0016933334 -0.0060671428
0.050051786 0.00254 -0.00070928573
0.0052473643 0.00084666669 -0.0060671428
0.048437212 0.00127 0.00093928573
-0.03794248 0.00084666669 -0.00029714286
0.0024218606 -0.00084666669 -0.0052428572
0.0052473643 -0.00084666669 -0.0060671428
0.050859071 0.00084666669 -0.0048307143
0.02825504 -0.00127 0.00052714284
0.033098761 0.0016933334 -0.0073035713
0.027851395 -0.00084666669 -0.0060671428
-0.010091086 -0.00084666669 -0.0064792857
-0.037538838 -0.00084666669 -0.00029714286
-0.0048437212 -0.0016933334 0.000115
0.045611706 0.00084666669 -0.0052428572
0.040767986 -0.00084666669 -0.0035942858
