# .PCD v0.7 - Point Cloud Data file format
VERSION 0.7
FIELDS x y z
SIZE 4 4 4
TYPE F F F
COUNT 1 1 1
WIDTH 1179
HEIGHT 1
VIEWPOINT 0 0 0 1 0 0 0
POINTS 1179
DATA ascii
-0.011241802 0.0010666668 -0.003676923
0.0082581975 0.0010666666 -0.00023076928
0.0087257633 0.00074850564 -0.00024748
0.00927574 0.00074928958 -0.00023606548
0.012254107 0.00021333323 -0.00023076916
0.012762667 -0.00026666664 -0.00025524478
0.01276244 0.00021137606 -0.00025744527
0.0040901643 -0.0046769227 0.0026437868
0.003729508 0.0042666662 -0.00087692338
0.0042622956 0.0042666672 -0.00087692321
0.003729508 0.0037333334 -0.00087692332
0.0042622956 0.0037333325 -0.00087692332
0.0041202195 -0.0023822223 0.0017615382
-0.0087377047 0.0046933335 -0.0010923075
-0.0087377047 0.0046933335 -0.0029230774
-0.0092704911 0.004693334 -0.0010923075
0.0057540983 0.0046720002 -0.0028800007
0.0062868861 0.0046933345 -0.0031384607
0.0062868865 0.0046720002 -0.0028800007
0.0012786885 0.0046800002 -0.0031249996
-0.00026639336 0.0046933345 -0.0028692314
0.0021214611 -0.0027054539 0.0017615387
0.0020827125 -0.0023951514 0.0026279716
0.0020956288 -0.0023822228 0.0022461535
0.0019180328 -0.00236 0.0026634615
-0.012080942 -0.004426667 0.0026230766
-0.011891805 -0.0046399999 0.0026553846
-0.012080943 -0.0046266667 0.0026365384
-0.012120903 -0.0026400003 0.0026051281
-0.011907788 -0.0026266666 0.0026230766
-0.00011839709 -0.0026666666 0.0026410255
-0.00010655737 -0.0024000001 0.002623077
8.8797817e-05 -0.0023703706 0.0026410255
-0.0018736338 -0.0023733333 0.002641025
-0.0039016395 -0.0043897438 0.0026437868
-0.004078242 -0.0046836361 0.0026377616
-0.0039016395 -0.0046769232 0.0026437864
-0.0040983609 -0.0043733339 0.002618935
-0.012609289 0.0026844444 -0.0010923077
-0.01257377 0.0031466666 -0.00098461541
-0.01223042 0.0032414815 -0.0010923075
-0.011868853 -0.0026666669 0.0017532543
-0.011861168 -0.0043833335 0.001273558
-0.011861968 -0.004386133 0.0017593845
0.0027678723 0.00074666686 -0.00023606548
0.0027604748 0.00021242158 -0.00024549628
0.0022377057 0.00021333323 -0.00023076916
0.0027704914 0.004693334 -0.00093076902
0.0022377053 0.0046933345 -0.00093076902
0.0027704919 0.0042666672 -0.00087692321
0.012235568 0.0037194199 -0.00093076914
0.012147541 0.0042285719 -0.0010923075
0.0122541 0.0027733338 -0.00093076908
0.012094263 0.0010666666 -0.00039230776
0.012254097 0.0032533333 -0.00093076902
0.012768352 0.00073275383 -0.0012538455
0.012761694 0.00072436366 -0.0017365025
0.012713625 0.0017399997 -0.0010990383
0.012722951 0.0017493332 -0.00093076908
0.01257377 0.0032000002 -0.0028692307
0.01257377 0.0032000002 -0.0030846156
0.012076504 0.0046222224 -0.0030307693
0.01214754 0.004228571 -0.0028692316
0.012235566 0.0037194195 -0.0028692319
0.011709894 0.0046857148 -0.0028730778
0.01214754 0.004228571 -0.0030846151
0.011721312 0.0037333325 -0.0030846149
0.012235565 0.0037194195 -0.0030846151
0.012786882 -0.00026666658 -0.001738461
0.012733604 -0.0012800002 -0.00087692315
0.012769601 -0.00072456471 -0.00077311171
0.011894468 -0.0044133333 0.0026096152
0.0099098356 -0.004408889 0.0026410255
0.011881147 -0.0026666666 0.002246154
0.01272295 0.0017493335 -0.0030846153
0.01274868 0.00074062898 -0.0032370109
0.012727464 0.0012574357 -0.00089349126
-0.012215618 0.0027614818 -0.003063675
-0.012627048 0.0027733338 -0.0030307693
-0.012108285 0.0042049121 -0.0028720652
-0.011703553 0.0046518524 -0.0028931627
-0.011645199 0.0046323808 -0.0010923077
-0.012040984 0.0041066669 -0.0010923077
-0.012100183 0.0042133331 -0.00093675219
-0.011681353 0.0046600001 -0.00096442323
-0.011721312 0.0042666667 -0.00093076919
-0.011229962 0.00466963 -0.00094871805
-0.011227272 0.0037478788 -0.0030405596
-0.012619436 0.0027352381 -0.0028923077
0.012120904 -0.0046133334 -0.0017384617
0.012120903 -0.0046133334 -0.0022769228
0.01172131 -0.0046933326 -0.0017384624
0.011721309 -0.0046933331 -0.0022769228
0.0097499974 -0.0046836366 -0.002746853
0.0097499965 -0.004693334 -0.0022769228
0.0093344282 -0.0047253342 -0.0022769228
0.009270492 -0.0046933335 -0.0030307693
0.01261373 -0.0027333335 -0.0030307693
0.012623494 -0.0027306669 -0.0028871796
0.01272295 -0.0017493335 -0.0028692314
0.012700818 -0.0017476922 -0.0030763315
0.012672716 -0.002224762 -0.0028692316
0.012194898 -0.0022083949 -0.0011162391
0.012651265 -0.0022157577 -0.00306993
0.01214754 -0.0044266661 0.0007384615
0.012147541 -0.004408889 0.00023589737
0.012136884 -0.0026879993 0.0007384615
0.01257377 -0.0032266667 -0.0028961538
0.012215075 -0.0043102349 -0.0022799578
0.012249749 -0.0027689796 -0.0028703306
0.01221604 -0.0043123798 -0.0012538461
0.012120903 -0.0046133334 -0.0012538461
0.010756458 -0.00075105054 -0.0036739719
0.01125022 -0.00074105279 -0.003671254
0.011241806 -0.0022400003 -0.0030846151
0.011241803 -0.0017600001 -0.0030846151
-0.0032347778 0.0046780952 -0.0030461538
0.00074590126 0.0027733343 -0.0031923084
0.00072814204 0.0011155556 -0.0037128199
0.00022833722 0.0010666668 -0.0037384613
0.00023087424 0.0027733343 -0.0031743597
0.00021311469 0.0032533333 -0.0031384618
0.00075105752 0.0032481719 -0.00314541
0.00021311462 0.003733333 -0.0031384625
-0.012254095 -0.00074666704 -0.0036769223
-0.012040984 -0.0025599999 -0.0010923077
-0.012181914 -0.0021849463 -0.0011409429
-0.012627046 -0.0027733333 -0.0028692307
0.0093165059 -0.0047175768 -0.0012391608
0.0097499983 -0.0046933335 -0.00076923077
0.0097499974 -0.0046933335 -0.00023076928
0.011721309 -0.0046933335 -0.00076923083
0.012120903 -0.0046133338 -0.00076923089
0.012120904 -0.0046133338 -0.00023076928
0.011724746 -0.0046916129 -0.00024119113
0.0093344273 -0.0047253352 -0.0017384619
-0.003729508 -0.0046933345 -0.0030846153
-0.0037266277 -0.0042637838 -0.0031370069
-0.0042622951 -0.0046933335 -0.0030846149
-0.01172131 0.00074666698 -0.0036769218
-0.011721312 0.0010666668 -0.0036230769
-0.011234193 0.00075174629 -0.003687178
-0.011227272 -0.0010666668 -0.0037748253
-0.011721309 0.00021333323 -0.0036769228
-0.011713961 0.0032183907 -0.0030641907
-0.011233605 0.0032246152 -0.0030721889
0.011238765 0.00076495268 -0.0037076909
0.010762294 0.00021333329 -0.0036769223
0.011241807 0.00021333329 -0.0036769214
0.010763552 0.00076423545 -0.0037022622
0.0087377047 0.004693334 -0.00093076902
0.0087393699 0.0042500007 -0.00089543272
0.0092704911 0.004693334 -0.00093076902
0.0082552899 0.0042492123 -0.00088671345
0.0082645919 0.0046976004 -0.00092430756
0.0087377075 0.0037333325 -0.00087692321
0.0082581965 0.0037333325 -0.00087692327
0.0092576342 0.004246437 -0.000908488
0.010762293 0.004693334 -0.00093076914
0.0097500002 0.0046933335 -0.0010923076
0.010060794 -0.0026488891 0.0026320508
0.010103378 -0.002716735 0.0022417582
0.0082581947 0.00074666674 -0.00023076928
0.0087377047 0.0032533335 -0.00087692309
0.0082581947 0.0032533333 -0.00087692309
0.0092704957 0.003253333 -0.00087692309
0.0087377038 0.0010666666 -0.00028461544
0.0092704911 0.0010666666 -0.00028461544
0.012786883 0.00021333323 -0.00076923077
0.012786886 -0.00026666664 -0.00076923065
0.012748231 -0.00073620939 -0.0002550527
0.012786883 0.00021333323 -0.0012538456
0.010059018 -0.0023680003 0.0022461535
0.011248466 0.00074444473 -0.0002397435
0.011250221 0.00021333323 -0.00024210522
0.011721307 0.00021333323 -0.00023076928
0.0037295076 -0.003249231 -0.002798816
0.0032499994 -0.0032492306 -0.0027988164
0.0032500001 -0.0025599999 -0.0010923077
0.0087377047 -0.004693334 -0.0030307693
0.0059109754 -0.002684444 0.0022341879
0.0041233082 -0.0027014487 0.0022438124
0.004131149 -0.0026994867 0.0017573964
0.0041157799 -0.0043599997 0.0022461533
0.0041157799 -0.0043599997 0.0017615384
0.005906831 -0.0023537786 0.0012841027
0.0041202195 -0.0023822228 0.0012769231
0.0039000001 -0.0023680003 0.0022461535
0.0039000001 -0.0023680001 0.0017615382
0.012134544 -0.0026952841 0.00024990621
-0.002237705 0.0046720002 -0.0028799998
-0.0027603437 0.0046679368 -0.0030615383
-0.0022377048 0.0046577784 -0.0031025636
-0.0082581975 0.0046666665 -0.0030576924
-0.0087199453 0.004651852 -0.0030606836
-0.011241802 0.004666667 -0.0028961538
-0.010762296 0.0042666662 -0.0030846142
-0.0082581984 0.0046720007 -0.00094153843
-0.0077786883 0.0046933335 -0.0010923075
-0.007238551 0.0046896557 -0.00093262596
-0.0082581984 0.0046933335 -0.0010923076
0.0002131147 0.0046780957 -0.0031076919
0.0020956288 -0.0023822226 0.0017615384
0.0021214613 -0.0027054546 0.0012769233
0.0038893446 -0.0027199993 0.0012769233
6.3268453e-05 -0.0023500002 0.0022596153
-0.01224288 0.0032477193 -0.00093360303
-0.01218103 0.0037120006 -0.00093538431
-0.012131148 0.0037087176 -0.0010923075
-0.012722191 0.0012761904 -0.00088461535
-0.012722026 0.0002040579 -0.00031817169
-0.012673381 0.00070956518 -0.00032909703
-0.012773279 0.00020652474 -0.0012469715
-0.012776133 0.00020795508 -0.00077737583
-0.0098885242 -0.0046719997 0.0026446152
-0.0080983611 -0.0046577775 0.0026410255
-0.0098603638 -0.0046857148 0.0022346154
-0.0079188971 -0.0046821055 0.0026542512
-0.012747899 0.00073105731 -0.0027772975
-0.012733607 -0.0006400001 -0.0022769233
-0.012749279 -0.00025725484 -0.002276924
-0.01275782 -0.00025939386 -0.0017421325
-0.01257377 0.0010666666 -0.0024923077
-0.012706971 0.00070666702 -0.002276924
-0.012710775 0.00071619084 -0.0017461533
-0.012733608 -0.0010666667 -0.00039230764
-0.012720645 -0.00074954983 -0.00029625779
0.002237706 0.003733333 -0.00087692321
0.002770493 0.003733333 -0.00087692309
0.0012914295 -0.00026666664 -0.00024949829
0.0017581958 -0.00026666658 -0.00023076928
0.0012897115 0.0002151723 -0.00024748
0.0017581959 0.00021333329 -0.00023076916
0.0022377053 0.004693334 -0.0011461538
0.0017581965 0.004693334 -0.0011461537
0.0017581967 0.0046933335 -0.00093076914
-0.0012786885 0.004693334 -0.0011461537
-0.0017581967 0.0046933335 -0.0011461537
-0.0017581965 0.004693334 -0.00093076914
0.0042622956 0.004693334 -0.00093076914
-0.0067663924 0.0046933335 -0.00093076908
-0.0067663938 0.0046933335 -0.0010923076
-0.0062868865 0.0046933335 -0.00093076919
0.0059198546 -0.0023822221 0.0026170937
0.003729508 0.0046933345 -0.0028692314
0.0037295076 0.0046933345 -0.0031384614
0.0032500001 0.0046933345 -0.0031384612
0.0042622965 0.004693334 -0.0031384616
0.012254105 0.00074666663 -0.00023076904
0.011241802 0.0010666668 -0.00028461544
0.01223557 0.0037194199 -0.0010923074
0.012062295 0.0046293335 -0.00288
0.01172131 0.0042666667 -0.0030846158
0.012768351 0.00073275383 -0.0027615372
0.012723919 0.0012606056 -0.0031090903
0.012724727 0.0012488887 -0.0028378211
0.012725192 -0.0012715788 -0.0030817811
0.012760249 -0.000727273 -0.002766432
0.012745074 -0.00066970504 -0.0022837399
0.012737161 -0.00066844485 -0.0017384614
0.012786883 -0.00026666658 -0.0012538455
0.012719234 -0.00070095266 -0.0031658122
0.012766134 0.0007287318 -0.00077208976
-0.011721307 0.00074666686 -0.00028461532
-0.011241803 0.0010666666 -0.00039230764
-0.011241807 0.00074666698 -0.00028461532
-0.012254102 0.00074666686 -0.00028461532
-0.01172131 0.00021333323 -0.00028461521
-0.011907787 -0.0024266667 0.0025961539
-0.010062061 -0.0024228569 0.0026307688
-0.012076504 -0.0024533332 0.0026051281
-0.0087377056 0.0022400001 -0.0031384623
-0.0082555758 0.0017521305 -0.0031843635
-0.0087377047 0.0010666668 -0.0036769225
-0.0087333266 0.0017475788 -0.0031768191
-0.0077786874 0.003253333 -0.0031384614
-0.0077736126 0.0037079349 -0.003117949
-0.0082581965 0.003253333 -0.0031384605
-0.011721309 0.0017599999 -0.0030846151
-0.011241804 0.0017600001 -0.0030846153
-0.011843092 -0.0044038082 -0.001738462
-0.010639868 -0.004216738 -0.001241244
-0.01061356 -0.0042155557 -0.0017294874
-0.012179973 -0.0042991308 -0.00077235221
-0.012360656 -0.0039466666 -0.00087692309
-0.012171022 -0.0043263268 -0.0002453716
-0.010185108 -0.0046755564 -0.00076923089
-0.011401639 -0.0048000002 -0.00023076928
-0.0097499974 -0.004693334 -0.00023076928
-0.011401639 -0.0048000002 -0.00076923077
-0.0087329336 -0.0042459709 -0.0031256019
-0.0082581956 -0.0042514289 -0.0031307696
-0.0087377066 -0.003733333 -0.0031384614
0.0059174872 -0.0043733339 0.0026338464
0.0061092898 -0.0043822229 0.0026320508
0.0059215464 -0.0046857144 0.0026461538
0.0061181695 -0.004666667 0.002641025
-0.011861169 -0.004383333 0.00074182707
-0.011856558 -0.0043897433 0.00024970411
-0.010690214 -0.0042054909 -0.00025294127
-0.012116605 -0.0046589249 -0.00023771718
-0.011881147 -0.004693334 0.0007384615
-0.011863389 -0.0046933335 0.00023589737
0.01221604 -0.0043123821 -0.0017384618
0.011863389 -0.0044088885 -0.0017384618
0.011747952 -0.0026133338 -0.0011102563
0.012640369 -0.0017200001 -0.0010923077
0.012676997 -0.0017300004 -0.00086346164
0.012606556 -0.0020758973 -0.00070295855
0.012120903 -0.0046133334 0.00025384617
0.011704358 -0.0032460606 -0.0028545463
0.011240718 -0.0032522448 -0.0028087914
0.01172131 -0.0037333334 -0.0030307693
0.011236647 -0.0032481716 -0.0030828782
0.011241802 -0.0042666667 -0.0030307693
0.0095901638 -0.0046399999 -0.0030307693
0.010754098 -0.0042584608 -0.0030349116
0.012254098 -0.0017600001 -0.0030846151
0.012233798 -0.00071619067 -0.0036666654
0.01223042 -0.0027377782 -0.003063675
0.012627046 0.0027733333 -0.0028692312
0.012672715 0.0022247618 -0.0010923075
0.012672716 0.0022247618 -0.0028692314
0.012627048 0.0010666666 -0.0024923077
0.01272295 0.0017493335 -0.0028692319
0.012621126 0.0027555553 -0.0030786328
0.012672717 0.0022247618 -0.0030846151
-0.004262296 -0.0042514289 -0.0031307701
-0.0042622956 -0.0037333325 -0.0031384621
-0.0012786889 0.0022399998 -0.0031923088
-0.0017581958 0.002773334 -0.0031923086
-0.0012786887 0.0027733336 -0.0031923077
-0.0017581962 0.0042666672 -0.0031384628
-0.0017651459 0.0046608699 -0.0030963211
-0.002237706 0.0042666658 -0.0031384618
0.010229507 0.0042666667 -0.0030846151
0.00023087424 0.0022399996 -0.0031743606
0.0017581963 0.0011199999 -0.0037487177
0.0022377062 0.00074666674 -0.0037307704
0.0022377064 0.00021333323 -0.0037307693
0.001758196 0.00021333323 -0.0037307683
0.002237706 -0.00026666664 -0.0037307695
0.0017581962 -0.00026666664 -0.0037307674
-0.002237705 0.0010666666 -0.003676923
-0.0027704919 0.0010666666 -0.003676923
-0.0027704928 0.0042666672 -0.0031384618
-0.012254095 0.00021333329 -0.0036769228
-0.011241804 0.00021333329 -0.0036769216
-0.00074590161 0.0046933345 -0.0011461537
-0.00026639341 0.004693334 -0.0011461537
-0.00074590161 0.0046933345 -0.00093076902
-0.01260041 -0.0017066665 -0.0011192306
-0.012609288 -0.0020622222 -0.00071538455
-0.011721309 -0.00026666664 -0.0036769216
-0.011234457 -0.0032441383 -0.0027745359
-0.011710095 -0.0026105267 -0.0011433198
-0.011709199 -0.0032533333 -0.0028545463
-0.011721312 -0.0010666668 -0.0037307688
-0.01125339 -0.0027594208 -0.00024247484
-0.012116604 -0.0026735484 0.00024516124
-0.012588993 -0.0021028572 -0.0002923077
-0.012094265 -0.0046400009 0.0012769231
-0.012094265 -0.0046400009 0.0007384615
-0.012080451 -0.0043772836 0.0012729347
-0.012083609 -0.0043839999 0.00025384605
-0.012114753 -0.0026748716 0.00074122264
-0.012198113 -0.0042974008 -0.0012419814
-0.012360656 -0.0039466666 -0.0010923077
-0.003729508 -0.0037333325 -0.0031384609
0.010092504 -0.0046780962 0.0012769231
0.0098672137 -0.0046720002 0.0017615382
0.0098672146 -0.0046720007 0.0012769231
0.008151642 -0.0046933345 0.0012769231
0.011721311 -0.0046933335 -0.001253846
0.0097499983 -0.004693334 -0.0012538461
0.010092506 -0.0046780957 0.0017615382
0.0098946141 -0.0046933335 0.0026153843
0.0098698782 -0.0046755564 0.0022371795
0.0092733763 -0.0046947743 -0.00077068608
-0.0082581965 -0.00074666704 -0.0037307688
-0.009270492 -0.0010666668 -0.0037846153
-0.0077786883 -0.0010666667 -0.0037307688
-0.0082581975 -0.0010666668 -0.003730769
0.00074374862 -0.00074451201 -0.0037291369
0.00074590137 -0.0022399996 -0.0031923077
0.0012797655 -0.00074451207 -0.0037291371
0.00021311466 0.00021333323 -0.0037307697
-0.00026639336 0.00021333323 -0.003730769
0.0002131147 -0.00026666658 -0.0037307688
-0.00026639336 -0.00026666664 -0.0037307679
0.00073468487 0.00021333323 -0.0037222675
0.00074590155 -0.00026666658 -0.0037307679
0.00021311463 -0.0007466668 -0.00373077
-0.0092654182 -0.0017523805 -0.0031487169
-0.0097500002 -0.0010666668 -0.0037846153
-0.0092704948 -0.0022400001 -0.0031384618
-0.0062868865 -0.00074666686 -0.0037307697
-0.0067663933 -0.0010666668 -0.003730769
-0.0057540983 -0.0010666667 -0.0037307688
-0.0062756692 -0.0010666667 -0.0037222672
-0.011713698 -0.0042336504 -0.0030743587
-0.011721313 -0.0037333325 -0.0030846149
-0.012136888 -0.0041866666 -0.0030684615
-0.011241806 -0.0037333332 -0.0030846149
-0.011721311 -0.0032533333 -0.0030846151
0.0041157799 -0.0043599987 0.0012769231
-0.0017581962 -0.0043200008 -0.0017384613
-0.001278689 -0.0043200012 -0.0017384612
-0.0012786885 -0.0025599999 -0.0010923077
-0.0012786889 -0.0032492303 -0.0027988164
-0.001758196 -0.0046933335 -0.0027615388
-0.0027704916 -0.004693334 -0.0030846151
-0.0017581966 -0.0046836366 -0.0030797201
-0.0022377057 -0.0046933335 -0.0027615386
-0.002237705 -0.0046720007 -0.003073846
0.0041024596 -0.004693334 0.0007384615
0.0038893446 -0.004693334 0.0007384615
0.0038829511 -0.0046890671 0.00024738454
0.004262296 -0.0046933326 -0.0022769237
0.003729508 -0.0046933326 -0.0017384617
0.003729508 -0.0046933326 -0.0022769235
0.009270492 0.0027733343 -0.00087692321
0.0087377056 0.0022400001 -0.00087692303
-0.00074590166 -0.0046720002 -0.003073846
-0.0017727267 -0.0042666672 -0.0031286711
-0.00074590137 -0.0042666667 -0.0030846151
-0.001758196 -0.0037333327 -0.0031384625
0.0057540978 0.004693334 -0.0031384605
0.0062868851 0.0042666662 -0.0031384621
0.0057540997 0.0042666672 -0.0031384607
-0.01076466 0.00074192608 -0.0037128213
-0.01172131 0.0027733338 -0.0030846149
0.012755014 0.00072373828 -0.0022809503
0.011241805 -0.00026666664 -0.0036769218
0.0092661139 0.0037304105 -0.00087987346
0.0098885242 -0.0023893334 0.0026123077
0.0098672146 -0.0023594669 0.0022418459
0.0081440276 -0.002392381 0.0026153843
0.0099098356 -0.0026971425 0.0026153843
0.0097500002 0.0046933335 -0.00093076919
0.01022951 0.004693334 -0.00093076908
0.010762296 0.0046933335 -0.0010923075
0.0092704901 0.004693334 -0.0010923075
0.0087377047 0.0046933335 -0.0010923075
0.0097499983 0.0042666662 -0.0030846149
0.0092704911 0.0042608227 -0.0031355114
0.0080983611 -0.0026133333 0.002623077
0.0079491809 -0.0023679999 0.0026230766
0.0079491809 -0.0026666666 0.0026230766
0.0082581975 -0.0007466668 -0.00023076916
0.0082581965 -0.0010666668 -0.00028461544
0.0087377038 -0.0010666667 -0.00028461544
0.0087324204 -0.0007484298 -0.00023788936
0.0082581956 -0.00026666664 -0.00023076928
0.008727612 -0.00026610523 -0.00024210522
0.0082581947 0.00021333323 -0.00023076928
0.0087267766 0.00021242158 -0.00024549628
0.0092757363 0.00021420757 -0.00023606548
0.0092726508 -0.00026612787 -0.00023294473
0.009279374 -0.00074666663 -0.0002397435
0.010229504 0.00074666663 -0.00023076916
0.01022951 0.0010666666 -0.00028461544
0.0097500002 0.0010666668 -0.00028461544
0.0067663933 0.0037333325 -0.00087692303
0.0062868861 0.0032533335 -0.00087692327
0.0067663919 0.0032533333 -0.00087692315
0.0077786869 0.0042514293 -0.00088461547
0.0077786888 0.004693334 -0.00093076896
0.0087377029 0.002773334 -0.00087692332
0.011260074 -0.002800762 -0.00026153843
0.01188328 -0.0026752001 0.00024738465
0.011891805 -0.0043946663 0.0007384615
0.011891806 -0.0043946668 0.00025384605
0.011863389 -0.0044088885 -0.0012538461
0.011219607 -0.0023422223 -0.00026217953
0.011241802 -0.0010666668 -0.00028461544
0.011903088 -0.0023717647 0.00024434389
0.011907789 -0.0023733333 0.0007384615
0.01075179 -0.0023481688 -0.00024290348
0.01009927 -0.0043614809 0.0012769231
0.01009927 -0.0043614809 0.0007384615
0.011891804 -0.0043946663 0.0012769231
0.010101638 -0.0027200002 0.0012769231
0.01010164 -0.0027199998 0.0017615384
0.011881149 -0.0026666671 0.0017615382
0.011721308 -0.00026666658 -0.00023076928
0.012254098 -0.00026666658 -0.00023076928
0.012254105 -0.00074666669 -0.00023076916
0.012126232 -0.002410667 0.0017615382
0.0057499483 -0.0007411259 -0.0036825174
0.0067663933 -0.0010666667 -0.003676923
0.0057526575 -0.00026234228 -0.0037176709
0.0062868851 -0.00074666692 -0.0036769218
0.0085245902 -0.0045866668 -0.0017384617
0.0085719489 -0.0045985188 -0.0023606839
0.0082383482 -0.0046745096 -0.0022811459
0.0082368851 -0.0046720002 -0.0017384614
0.0077786851 -0.0046933326 -0.0017384619
0.0062868856 -0.0010666668 -0.0036446149
0.0057540983 -0.0010666668 -0.0036230765
0.004262296 -0.00073260092 -0.0037147924
0.0017581958 -0.00074666698 -0.003730769
0.0017581959 -0.0037333325 -0.0031384609
0.0017581963 -0.0032533333 -0.0031384618
0.0022377062 -0.0037333325 -0.0031384621
0.0038969559 -0.0043428568 0.0017615384
0.0039121779 -0.0044190479 0.0026153843
0.0039038749 -0.0046739392 0.0026279716
0.0059014647 -0.0043211346 0.002241571
0.0059124953 -0.0026926124 0.0012885653
0.0041318182 -0.0026993195 0.00073626358
0.0059215464 -0.0026971428 0.0007384615
0.0059080152 -0.0043140734 0.0007384615
0.002081421 -0.0046791108 0.002641025
3.5519122e-05 -0.0043851859 0.0026290594
6.0889924e-05 -0.0046780952 0.0026307688
-0.0018889714 -0.0046642423 0.0026475522
0.0047418019 0.0042666672 -0.00087692332
0.0047418033 0.003733332 -0.00087692321
0.005221311 0.0042666667 -0.00087692309
0.0047418028 0.004693334 -0.00093076931
0.0039000001 -0.0023680003 0.0012769231
0.0041202195 -0.0023822226 0.0007384615
0.0042622946 -0.00026666664 -0.00023076916
0.0037295092 -0.00026666664 -0.00023076916
0.0042622942 -0.00074666669 -0.00023076928
0.0052247783 -0.0042692693 -0.0002342714
0.0052213129 -0.0027200012 -0.00023076928
0.0058919969 -0.0026917649 0.0002348416
0.0047418037 -0.0027200005 -0.00023076928
0.0061194398 -0.0043428568 0.0007384615
0.0061291815 -0.0026709335 0.00022153847
0.0061163944 -0.0026453333 0.0007384615
0.0061306027 -0.0043484438 0.00024307694
0.0061163949 -0.0026453338 0.0012769231
0.0067566535 -0.0027698935 -0.00024698093
0.0067594438 -0.0042759422 -0.00024949829
0.0018787747 -0.0023578948 0.00025101216
0.002134108 -0.0023525928 0.00024786324
0.0021045087 -0.0023614818 0.00073846173
0.0047418033 -0.0010666668 -0.00028461544
0.0047368594 -0.00074556732 -0.00023743068
0.0052247765 -0.00074493227 -0.00023427128
0.01221604 -0.0043123811 -0.00076923077
0.012207277 -0.0043183835 -0.00024382281
-0.0017485097 0.0046836366 -0.0028741262
-0.0067579807 0.0046708775 -0.0030704453
-0.0067663933 0.0046933335 -0.002923077
-0.007245901 0.0046933335 -0.0029230774
-0.0062868856 0.0046720002 -0.003073846
-0.005221311 0.0046720002 -0.0030738465
-0.0047418033 0.0046933335 -0.002923077
-0.0057540983 0.004693334 -0.0029230774
-0.010762294 0.0010666668 -0.0036769232
-0.0092704911 0.0010666668 -0.0036769228
-0.0092657935 0.0017458817 -0.003163802
-0.01022951 0.004666667 -0.0028961543
-0.010762294 0.004666667 -0.0028961543
-0.0097500011 0.004666667 -0.0028961543
-0.010229508 0.0045866668 -0.0030307693
-0.0097499993 0.0045866668 -0.0030307693
-0.010229509 0.0046933335 -0.0010923075
0.00074590149 0.0042666676 -0.0031384616
0.0012786891 0.0042666667 -0.0031384618
-0.010229508 0.0010666668 -0.0036769228
0.0012786887 0.0011199999 -0.0037487177
0.0017581958 0.0027733345 -0.0031923081
0.001278689 0.0022399998 -0.0031923091
-0.0017581958 0.00021333329 -0.0037307679
-0.0022377062 0.00021333323 -0.0037307688
-0.00026639336 0.0046780957 -0.0031076919
0.00021311468 0.0042666662 -0.0031384621
0.0018754097 -0.0046720002 0.0022461538
0.0018860655 -0.0046613337 0.0026338459
0.0021007031 -0.0046780957 0.0022461533
0.001758196 -0.0007466668 -0.00023076928
0.0020967745 -0.0023776349 0.0012769229
0.0018754096 -0.0046720007 0.0017615382
0.0021007031 -0.0046780957 0.0017615387
0.0047390945 -0.0023484749 -0.00023441983
-0.01185921 -0.0043764696 0.0022429859
-0.011884953 -0.0026590477 0.0022423069
-0.011876306 -0.0044024247 0.0026181815
-0.01207904 -0.0043695234 0.0022346152
0.0012786889 0.0027733347 -0.0031923058
-0.00015222478 -0.002697143 0.0022461535
-0.00015846989 -0.0043241023 0.0022406315
-0.000159836 -0.0043199994 0.0017615384
-0.0058943061 -0.0046821055 0.0026542512
-0.012244746 0.0022194155 -0.00091093109
-0.012672717 0.0022247618 -0.00093076902
-0.012250484 0.0017572877 -0.00087874848
-0.012623913 0.0027419608 -0.0009402716
-0.0081250016 -0.0046666665 0.002246154
-0.0018731665 -0.002711579 0.0026485827
-0.0020633384 -0.0023854545 0.0026475522
-0.0020645494 -0.0026933334 0.0026365384
-0.0038982239 -0.0023911109 0.0026589744
-0.00015983607 -0.002346667 0.0017615384
7.6112417e-05 -0.0023542859 0.0017615384
-0.00015983601 -0.0023466668 0.0022461533
-0.011881148 -0.004693334 0.0022461538
-0.010184357 -0.0046734465 -0.00023441983
-0.011401639 -0.0048000002 -0.0010923077
-0.011220491 0.0046720002 -0.0010923076
-0.0097500011 0.0046933335 -0.0010923076
-0.0097500002 0.0046720007 -0.00094153854
-0.01022951 0.0046720007 -0.00094153831
-0.01212155 -0.0026718697 0.0022540335
-0.012126229 -0.0026727619 0.0017630772
-0.011898909 -0.0024177777 0.002246154
-0.012080943 -0.002453333 0.0022596153
-0.012127715 -0.0026691468 0.0012794274
-0.012757815 0.00019878778 -0.0022769249
-0.012721136 0.0012527655 -0.00284059
-0.01272392 0.0012606061 -0.0031041957
-0.012773286 0.00020652474 -0.0027684113
-0.012742201 -0.00063827977 -0.0017419358
-0.012773279 -0.00026326237 -0.00077954197
0.0022377053 0.0017599992 -0.00087692327
0.0022377057 0.0022400001 -0.00087692321
0.0017581963 0.0017599994 -0.00087692315
0.0017581959 0.00074666686 -0.00023076916
0.0032499989 0.0037333325 -0.00087692309
0.003729508 0.0010666666 -0.00023076928
0.0032516136 0.00074666686 -0.00023294485
0.0022377053 0.0032533333 -0.00087692321
0.0032532613 0.00021442171 -0.00023516489
0.0032540965 -0.00026393152 -0.0002362919
0.0017518029 0.0046890671 -0.0028627696
0.00021311475 0.004693334 -0.0011461538
-0.00026639341 0.0046933335 -0.00093076919
0.0017581962 0.0042666662 -0.00087692321
-0.0012786887 0.004693334 -0.00093076896
-0.001275359 0.0042416672 -0.00089543272
0.0052313004 0.004693334 -0.00092067278
0.0057540983 0.0046902867 -0.00090769219
0.0057622949 0.0046769236 -0.0011378695
-0.0052279723 0.0046933335 -0.0029163463
-0.0072459001 0.0046933335 -0.0010923075
-0.010762294 0.004693334 -0.0010923075
-0.010762293 0.0046720007 -0.00094153831
0.0052213115 0.0010666666 -0.00028461544
0.0057540983 0.0010666666 -0.00028461544
0.005754095 0.00074666663 -0.00023076928
0.0052230339 0.00074666663 -0.00023250608
0.0059228148 -0.0026488891 0.0026320508
0.0061004101 -0.0024266667 0.0025961539
0.0062868851 0.003733333 -0.00087692332
0.0057540992 0.0032533333 -0.00087692303
0.00575122 0.0042637843 -0.00087837846
0.0062806183 0.0046807854 -0.00091176451
0.0062898868 0.004254648 -0.00088299025
0.0067579807 0.0046708775 -0.0011319837
0.0067663928 0.0046720007 -0.0028800003
0.0072577409 0.0046814824 -0.0028752147
0.0062750466 0.0046814824 -0.0011401707
0.0067663933 0.004693334 -0.00093076908
0.011721306 0.00074666663 -0.00023076928
0.012736028 0.00071878819 -0.00027482514
0.011721309 0.002773334 -0.00093076908
0.011709278 0.0022176346 -0.00089950376
0.012254097 0.0032533333 -0.0030846151
0.012254094 0.0022400003 -0.00093076931
0.010762295 0.004693334 -0.0028692314
0.010750455 0.0046814824 -0.0030786323
0.011241805 0.003733333 -0.0030846151
0.012786882 0.00021333329 -0.0027615374
0.012232788 0.001749333 -0.00089846132
0.011721311 0.0017599994 -0.00087692309
0.012710443 0.0012452169 -0.0011765888
0.012714427 -0.001256533 -0.0028326157
0.01274777 -0.00072506361 -0.0012395324
0.012136883 -0.0026880002 0.0017615384
-0.01172131 0.0037333325 -0.00093076931
-0.0087377038 0.002773334 -0.0031384612
-0.0087377038 0.0032533333 -0.0031384609
-0.0082581965 0.0010666668 -0.0036769228
-0.00873663 -0.00074882171 -0.0037291381
-0.0077786893 0.0027733345 -0.0031384625
-0.0077786883 0.0010666668 -0.0036769225
-0.0072459015 0.0010666668 -0.0036769228
-0.0072459006 0.003253333 -0.0031384609
-0.0077758851 0.0022371926 -0.0031412954
-0.0072459029 0.0027733343 -0.00313846
-0.0087377075 0.00074666686 -0.0036769228
-0.0092704929 0.00074666698 -0.0036769223
-0.0082581965 0.0022400001 -0.0031384623
-0.010757946 0.0037376869 -0.0030835161
-0.010229507 0.0042666672 -0.0030846146
-0.009281707 0.0046708775 -0.0029004051
-0.012254097 0.0017599999 -0.0030846151
-0.012254097 0.0022399998 -0.0030846146
-0.012127808 -0.0046617291 -0.0012518518
-0.012132317 -0.0046628574 -0.002276923
-0.012120902 -0.0046600001 -0.00076586532
-0.011740685 -0.0047010914 -0.0012509089
-0.010229509 -0.0010666668 -0.0037846148
-0.0097500002 -0.0027733338 -0.0031384616
-0.0097499983 -0.0032533333 -0.0031384605
-0.010203412 -0.0032565985 -0.0031142854
0.0041024601 -0.0046933335 0.0022461535
0.0038893446 -0.0046933335 0.0022461538
0.0079433685 -0.0046642427 0.0026279716
0.0061270511 -0.0046933335 0.0022461535
-0.01208045 -0.0043772836 0.00074245012
-0.012103667 -0.0046368632 0.00024434389
0.012040984 -0.0025599999 -0.0010923077
0.010762295 -0.0022400003 -0.0030846151
0.010762296 -0.0027733331 -0.0030846156
0.010762296 -0.0017600001 -0.0030846151
0.010229509 -0.0017600001 -0.0030846151
0.012680327 -0.0010666668 -0.00028461532
0.012265317 -0.0010666667 -0.00028744945
0.008734826 -0.0023481078 -0.00023367978
0.0098565565 -0.0023466668 0.0007384615
0.0092749353 -0.0023511103 -0.00023974362
0.011241803 -0.0026133335 -0.0010923077
0.012222132 -0.0032462219 -0.002887181
0.010748089 -0.0037143701 -0.0030786316
0.011225587 -0.0037101449 -0.0030448162
0.011688525 -0.0032328204 -0.0030556212
0.010181074 -0.0046642423 -0.0022769226
0.011241806 -0.0027733331 -0.0030846149
0.011721309 -0.0027733336 -0.0030846149
0.010762296 -0.0032533337 -0.0030846149
0.011721312 -0.00074666686 -0.0036769223
0.01022607 0.0007604303 -0.0037186095
0.0097499955 0.00074666698 -0.0037307688
0.012254099 -0.0032533337 -0.0030307693
0.012254096 0.0017599999 -0.0030846151
0.012254098 0.0022400003 -0.0030846142
-0.0042622946 -0.0007466668 -0.0037307683
-0.0042622956 -0.0010666667 -0.0037307688
-0.0047418047 -0.00074666704 -0.0037307688
-0.0047418033 -0.0010666668 -0.003730769
-0.0052213124 -0.002773334 -0.0031384621
-0.0052213115 -0.0010666667 -0.003730769
-0.0052161538 -0.0042408598 -0.0031158815
-0.0057540964 -0.0042400002 -0.0031115389
-0.0057540992 -0.003733333 -0.0031384616
-0.0057540983 -0.004693334 -0.0030846151
-0.0042622956 -0.00026666664 -0.0037307688
-0.0057540983 -0.0007466668 -0.00373077
-0.0052213133 -0.00074666669 -0.00373077
-0.0052213119 -0.00026666658 -0.0037307683
-0.00070023414 0.0010666666 -0.003630769
-0.0011188525 0.0010666666 -0.0035692307
-0.0062868847 0.0046933335 -0.0029230774
0.0017581958 0.0022400003 -0.0031923086
0.002237706 0.0027733338 -0.0031923084
-0.0012786888 0.00021333323 -0.0037307704
-0.0017581963 -0.00026666658 -0.0037307676
-0.0012786887 -0.00026666658 -0.0037307679
0.0012786889 0.00021333317 -0.0037307695
-0.002234411 0.00074006879 -0.003725773
0.00021311473 0.00074666686 -0.0037307697
-0.00026639336 0.00074666698 -0.0037307683
-0.00074590143 0.0017599992 -0.0031923079
-0.0002663933 0.0037333325 -0.0031384623
-0.0002663933 0.0032533333 -0.0031384614
-0.00027527305 0.0027644453 -0.0031743592
0.0042549465 0.0046896553 -0.0028710885
0.0047418019 0.0046933335 -0.0031384612
-0.0062868865 -0.0017599992 -0.0031923081
-0.0067663933 -0.0017599994 -0.0031923081
-0.0057540992 -0.0017599994 -0.0031923081
-0.0047371704 -0.0042782621 -0.0002354515
-0.0052266857 -0.0042747348 -0.00024162885
-0.00412022 -0.0043377778 0.0007384615
-0.0052223881 -0.0027183848 -0.00023294473
-0.0058843344 -0.0027358027 0.0007404557
-0.011241806 -0.00026666664 -0.0036769218
-0.011719926 -0.00074943755 -0.0036825174
-0.012722951 -0.0017493335 -0.0030846151
-0.012706965 -0.0017466669 -0.0028557705
-0.012676999 -0.0017300001 -0.00086346141
-0.012200821 -0.0010666667 -0.00027863251
-0.011721312 -0.0010666666 -0.00023076928
-0.011243688 -0.00075670623 -0.00026877818
-0.011718203 -0.00075288059 -0.00027677359
-0.011250215 -0.0010666667 -0.00024210522
-0.011896372 -0.0024228569 0.0007384615
-0.012467213 -0.0039466666 -0.0019
-0.012672716 -0.002224762 -0.0028692316
0.009277897 -0.0046962961 -0.00023974362
0.0087288255 -0.0046933326 -0.00023974362
0.0079385256 -0.0046933345 0.0022461533
0.0079385256 -0.0046933335 0.0017615382
0.0079385256 -0.004693334 0.0012769231
0.010653607 -0.0042112004 -0.0012366152
0.010613115 -0.004224 -0.0017384614
0.011881149 -0.0046400004 0.0017615382
0.012112024 -0.0046151113 0.0017723076
0.010092505 -0.0046780952 0.0022461538
0.010087432 -0.0046488889 0.0026320508
0.0086682113 -0.0046469569 -0.0011719062
-0.007245902 -0.0017599992 -0.0031923088
-0.0067663924 -0.0022266672 -0.0031519241
-0.0072459006 -0.0010666667 -0.003730769
-0.0067663952 -0.00074666704 -0.0037307688
-0.0077786855 -0.0007466668 -0.0037307683
0.00022643438 -0.0027696984 -0.00317028
-0.00027704908 -0.0027733345 -0.0031815388
0.00023087427 -0.0022399998 -0.003174359
0.00021311469 -0.0032320002 -0.0031169225
0.00074590166 -0.0027545113 -0.0031638008
0.00074984814 -0.0032375306 -0.0031264948
-0.0086950818 -0.0010666668 -0.0037199999
-0.0097499955 -0.0022400001 -0.0031384612
-0.0012786889 -0.0042666667 -0.0030846151
-0.0012786888 -0.0037333334 -0.0030846146
-0.00074590161 -0.0037333327 -0.0030846158
0.00021311473 -0.0042666672 -0.0030846146
-0.00074984814 -0.0032375308 -0.0031264948
-0.0017581962 -0.0032492306 -0.0027988164
0.00023087423 -0.0017599994 -0.003174359
-0.00027704902 -0.0017599994 -0.0031815392
8.5245876e-05 -0.0043413327 0.0012769229
0.0018792845 -0.0043733334 0.0017664335
0.0018754096 -0.0043946663 0.0012769231
8.5245891e-05 -0.0043413332 0.0017615389
0.00021311469 -0.00026666658 -0.00023076916
0.00021311488 -0.00074666663 -0.00023076928
0.00073200261 -0.00026666658 -0.00024949817
-0.00026639341 -0.00074666686 -0.00023076916
-0.001278689 -0.0046933335 -0.0012538463
-0.00074590149 -0.0046933326 -0.0017384619
-0.00074590161 -0.0046933335 -0.0012538459
-0.001278689 -0.0046933321 -0.0017384612
-0.001758196 -0.004693334 -0.0017384621
-0.0027704914 -0.004693334 -0.0027615381
-0.002237706 -0.0042666672 -0.0031384625
-0.0022377053 -0.0046933326 -0.0022769237
-0.0027704919 -0.0046933326 -0.0022769237
0.0032499991 -0.0046933335 -0.00023076928
0.0027704928 -0.0046933326 -0.00023076916
0.0087331384 -0.0046887621 -0.0007769232
0.0057540983 -0.0046933326 -0.0017384612
0.0072943377 -0.0047224252 -0.0017384619
0.0057540978 -0.004693334 -0.0012538463
0.0052213119 -0.0046933331 -0.0017384619
0.0057540983 -0.0046933331 -0.0022769237
0.0052213115 -0.0046933335 -0.0027615379
0.005221311 -0.0046933335 -0.0022769237
0.0041557387 -0.0046933345 0.00025384617
0.0042622951 -0.0046933331 -0.00023076928
0.0027704935 -0.0046933326 -0.00076923071
0.0027704919 -0.004693334 -0.0012538458
0.002237706 -0.0046933326 -0.00076923094
0.0032499989 -0.0046933335 -0.00076923094
0.0022377057 -0.0046933326 -0.00023076928
0.0032499998 -0.004693334 -0.0012538462
0.0027704919 -0.0046933326 -0.0017384622
0.0022377057 -0.0046933331 -0.0017384617
0.0047418033 -0.004693334 -0.0017384615
0.0047418033 -0.0046933335 -0.0022769233
0.010229505 0.0022400003 -0.00087692321
0.010229508 0.0027733343 -0.00087692338
0.011234541 0.0027563635 -0.00091608358
0.011241805 0.0022400005 -0.00087692321
0.010762298 0.0022400001 -0.00087692321
0.011241805 0.0017599997 -0.00087692309
0.0062868833 0.00021333323 -0.0037307704
0.0077825384 -0.00074923737 -0.0036976826
0.0062759174 -0.00025568626 -0.003702261
0.0067643183 0.00022164494 -0.003724474
0.010229509 -0.00074666698 -0.0036769228
0.0032500003 0.004693334 -0.0028692314
0.0032430508 0.0046886965 -0.0011438124
0.0017581965 0.0042666667 -0.00313846
0.0022377064 0.0042666672 -0.0031384609
-0.00074590172 -0.00026666664 -0.0037307683
-0.00074590137 -0.00074666669 -0.0037307697
0.0057540992 0.0037333325 -0.0031384616
0.0057540983 0.0011123808 -0.0037384608
0.006286887 0.0011123808 -0.0037384608
0.0062868837 0.00074666686 -0.0037307709
0.0057540974 0.0027733343 -0.0031384614
0.0057540974 0.0032533333 -0.0031384609
0.0052213129 0.002773334 -0.0031384625
-0.010754011 0.00021807395 -0.0037128206
0.0062844893 0.0022220227 -0.003172342
0.0067663942 0.0027733338 -0.0031384616
0.0067663942 0.0022211769 -0.0031638024
0.0067663928 0.001112381 -0.0037384608
0.0067663956 0.0042666667 -0.0031384612
-0.0082581975 0.0037066659 -0.0031115375
-0.0087377056 0.0037139386 -0.0030993009
-0.0087377056 0.0042666667 -0.0030846146
-0.011241804 0.0027733333 -0.0030846151
0.010762296 -0.00026666658 -0.0036769218
-0.010762294 -0.0010666668 -0.0037846151
-0.010213721 -0.0022439512 -0.003096581
0.011713318 0.00075733365 -0.0036903843
0.012254095 0.00021333323 -0.0036769218
0.012254097 0.00074666698 -0.0036769218
0.010751983 0.001107957 -0.0037012398
0.011241802 0.0011022221 -0.0036948712
0.0097447764 0.0037270577 -0.00089592783
0.010229507 0.0042666662 -0.00093076914
0.010219991 0.0032438096 -0.00088461547
0.010229509 0.0046933335 -0.0010923075
0.010754897 0.0027659268 -0.00088141032
0.010762295 0.0042666667 -0.00093076914
0.0097457366 0.0037077323 -0.003116922
0.010219641 0.0037195052 -0.0030965819
0.0092704911 0.004693334 -0.0030846151
0.0077758855 0.0022371931 -0.0031412949
0.0077886791 0.0011066666 -0.0037274037
0.0082581993 0.001112381 -0.0037230768
0.0082581965 0.002773334 -0.0031384612
0.0098672146 -0.0023680001 0.0017615382
0.0081409859 -0.0023680001 0.0017615382
0.0097499974 -0.00074666692 -0.00023076916
0.010059019 -0.0023680006 0.0017615382
0.004739779 -0.00026599149 -0.00023349549
0.0052234638 -0.00026612787 -0.00023294473
0.0052247765 0.00021333323 -0.0002342714
0.0042622946 0.00021333323 -0.00023076916
0.0097499965 0.00074666686 -0.00023076928
0.010749439 0.00021149416 -0.00024748
0.0072459029 0.0032533333 -0.00087692309
0.0082581956 0.0027733336 -0.00087692315
0.0077786897 0.003733333 -0.00087692309
0.0067663938 0.0042666662 -0.00087692315
0.007245901 0.0046933345 -0.00093076914
0.0087377066 0.0017599992 -0.00087692315
0.0082581984 0.0017599997 -0.00087692315
0.0098672146 -0.0046720002 0.0007384615
0.01186339 -0.0046400004 0.00023589737
0.010692189 -0.0042035091 -0.00024210534
0.010712306 -0.0027022227 -0.00024140545
0.0098641701 -0.0046780952 0.0002461538
0.010185107 -0.0046755555 -0.00023076928
0.012136885 -0.0026879993 0.0012769231
0.012126232 -0.0024106672 0.0012769231
0.011901129 -0.0024066668 0.0012701922
0.011881148 -0.0026666664 0.0007384615
0.0099098366 -0.0043733339 0.0022461538
0.0098685883 -0.0026941937 0.0022183622
0.0081371097 -0.0043830308 0.0026181815
0.01257377 -0.0010666667 -0.0024923077
0.011707992 -0.0010666668 -0.00029807689
0.0081409859 -0.0023680003 0.002246154
0.0079256659 -0.0023797704 0.0022461538
0.0092704911 -0.0010666667 -0.00028461544
0.0107479 0.00074570574 -0.00025793479
0.010762295 0.0017599992 -0.00087692327
0.0012842971 -0.0032449123 -0.0031327938
0.001278689 -0.002760001 -0.0031519241
0.0037295073 -0.004693334 -0.0012538459
0.0042622965 -0.004693334 -0.0012538462
0.0042622956 -0.0046933326 -0.0017384619
0.0072459015 -0.004693334 -0.0030307693
0.0072863204 -0.0047172415 -0.0022880635
0.0067663933 -0.0046933345 -0.0027615388
0.0072459029 -0.0046933345 -0.0027615384
0.0067579816 -0.0046652635 -0.002310931
0.007778686 -0.0046933331 -0.0022769235
0.0022344107 -0.0022334023 -0.0031873116
0.002237706 -0.0017599992 -0.0031923081
0.001758196 -0.0022399996 -0.0031923081
0.0017581959 -0.0017599997 -0.0031923091
0.0021420212 -0.0027102041 0.00023736258
0.0027704933 -0.0027200002 -0.00023076916
0.0021214616 -0.0027054546 0.00073846127
0.0027704928 -0.0043200012 -0.00023076916
0.0021098368 -0.0043413327 0.0017615384
0.0021045092 -0.00434 0.0022394224
0.0041113389 -0.004408889 0.0026230766
0.0059039453 -0.0046866676 0.0022394226
0.0061147544 -0.0024123075 0.0017573964
0.0061137299 -0.0024066668 0.0012567306
0.0079043722 -0.002715897 0.0017656805
0.0061163949 -0.0026453338 0.0017615382
0.0047385409 0.00021333323 -0.00023516489
0.0047396291 0.00074666674 -0.00023516489
0.0042622937 0.00074666663 -0.00023076916
0.0077786841 0.0027733343 -0.0031384616
0.0082581984 0.0046933335 -0.0010923076
0.0077786888 0.004693334 -0.0028692319
0.0082581984 0.004693334 -0.0028692309
0.0020923999 -0.0027054546 0.0026377621
0.0018647538 -0.0027199998 0.0017615382
0.0018647537 -0.0027199998 0.0022461535
0.0041318182 -0.0026993195 0.0012791208
0.0037295087 -0.00074666669 -0.00023076928
0.0038893446 -0.0027200002 0.0007384615
0.0047385423 -0.0042699333 -0.00023516477
0.0042622951 -0.0010666667 -0.00028461544
0.0037295078 -0.0010666667 -0.00028461544
0.005215222 -0.0023542852 -0.00023076928
-0.0027704919 0.0046720002 -0.0028800005
-0.0077786893 0.004666667 -0.0030576924
-0.0077786893 0.004693334 -0.0029230774
-0.0057540983 0.0046720007 -0.0030738458
-0.0042589661 0.0042416663 -0.0031199523
-0.0042622951 0.003733333 -0.0031384623
-0.0037295076 0.0042420509 -0.0031218946
-0.0047418028 0.0037333325 -0.0031384623
-0.0052213115 0.003733333 -0.0031384621
-0.0047418033 0.0032533335 -0.0031384612
-0.0052213105 0.0032533333 -0.0031384607
-0.010762295 0.0045866668 -0.0030307693
-0.0092278691 0.0046293335 -0.0030415386
-0.0012786889 -0.00074666686 -0.0037307707
-0.00026639336 -0.00074666698 -0.0037307683
0.0037409242 0.0046857144 -0.0011423075
0.0022377053 -0.00074666663 -0.00023076916
0.0022377067 -0.00026666652 -0.00023076928
0.0027625009 -0.00074577768 -0.0002397435
0.0018754096 -0.0023680001 0.0017615382
0.0018875876 -0.0023619051 0.0022256412
0.0027615204 -0.00026610523 -0.00024210522
0.0012927088 -0.00074479537 -0.00025155186
0.0027661133 -0.002349589 -0.00023667014
0.0032499984 -0.0027200007 -0.00023076928
0.0039000001 -0.0023680006 0.0007384615
0.0032518362 -0.0023503453 -0.00023819634
-0.0020565575 -0.0046613333 0.0026338459
-0.0020778696 -0.0046933345 0.0022461538
-0.0038665105 -0.0046780957 0.00073846173
-0.0041024601 -0.004693334 0.0012769231
-0.0041024596 -0.004693334 0.00073846127
-0.012081577 -0.0043834918 0.0017589743
-0.012094264 -0.0046400004 0.0017615382
0.00073175627 0.00021333329 -0.00025364186
0.0022377055 0.00074666651 -0.00023076916
0.001278689 0.0032410254 -0.0031550308
-0.0058987127 -0.0044114292 0.0026384611
-0.0058630775 -0.0046909098 0.0022412585
-0.012694536 0.0017422223 -0.0009092305
-0.012672715 0.0022247618 -0.0010923075
-0.012680327 0.0017599999 -0.0010923076
-0.012748903 0.00072448858 -0.00079162244
-0.0097499946 -0.0046933335 -0.00076923089
-0.0097499974 -0.004693334 -0.001253846
-0.008243667 -0.0046884851 -0.0030797201
-0.010176229 -0.0046560001 -0.001243077
-0.010167554 -0.0046437215 -0.0017284438
-0.0082553932 -0.0017459646 -0.0031724684
-0.0082581956 -0.0022399998 -0.0031384616
-0.0077758841 -0.0017515784 -0.0031838063
-0.00013319672 -0.0043866667 0.0026230766
-0.00012177986 -0.0046780957 0.0026153843
-0.0040867892 -0.0026917649 0.0026515839
-0.01010519 -0.0027288892 0.0007384615
-0.01009927 -0.0043614805 0.0012769233
-0.01009927 -0.0043614814 0.0007384615
-0.010073771 -0.0046687182 0.0026272186
-0.011881148 -0.004693334 0.0012769231
-0.010092505 -0.0046780962 0.0012769229
-0.010092506 -0.0046780957 0.0017615387
-0.0058768718 -0.0027292753 0.00025150506
-0.0082581975 -0.0025599999 -0.0010923077
-0.0082700355 -0.0042903707 -0.0017384612
-0.0077786874 -0.0025599999 -0.0010923077
-0.011842567 -0.0043990803 -0.0012482757
-0.011241807 0.00021333323 -0.00028461521
-0.010738616 0.00021333323 -0.00029658107
-0.010062062 -0.0026590477 0.0026461538
-0.010101642 -0.0024106672 0.0022461535
-0.0098793907 -0.0023771429 0.0025999998
-0.011898909 -0.0024177774 0.0017615384
-0.01271839 -0.00026476185 -0.0003096154
-0.012076504 -0.002453333 0.0017974358
-0.012254095 -0.00026666664 -0.00028461532
-0.012757818 0.00019878778 -0.0017384607
-0.012769608 -0.00026234228 -0.0012451143
-0.012254101 0.00021333323 -0.00028461521
-0.012254097 -0.0007466668 -0.00028461521
0.0037295078 0.00074666663 -0.00023076916
0.0037295076 0.0032533333 -0.00087692298
0.0032499991 0.0032533333 -0.00087692332
0.0042622951 0.0027733343 -0.00087692338
0.0037295092 0.0027733343 -0.00087692321
0.0042622951 0.0010666666 -0.00023076928
0.0032499987 0.0027733336 -0.00087692309
0.0037295076 0.0022400001 -0.00087692309
0.0027704935 0.0027733343 -0.00087692332
0.0022377057 0.0042666676 -0.00087692338
0.00021311473 0.0046933345 -0.00093076908
0.00021311465 0.0042666662 -0.00087692332
0.0012786885 0.0046933335 -0.00093076902
0.0012786887 0.004693334 -0.0011461538
0.00074590161 0.004693334 -0.0011461538
0.00074590166 0.0046933335 -0.00093076908
0.0052094706 0.004681482 -0.0011401707
0.0047494145 0.0046780952 -0.0011384614
0.0052213115 0.0046720002 -0.0028800005
-0.0042622956 0.0046933345 -0.0011461538
-0.0037295078 0.0046933345 -0.00093076902
-0.0042622942 0.004693334 -0.00093076914
-0.0037295078 0.004693334 -0.0011461538
-0.0047418028 0.0046933335 -0.00093076908
-0.0042437632 0.0046747834 -0.0028856187
-0.003729508 0.0046720002 -0.0028800003
-0.005221311 0.0037087167 -0.00089349103
-0.0047388976 0.0037158781 -0.0008867131
-0.0052213101 0.004693334 -0.00093076914
-0.0057540983 0.004693334 -0.00093076919
-0.0052213096 0.0032533333 -0.00087692309
-0.0057540983 0.0032533337 -0.00087692315
-0.0042578559 0.003724444 -0.00088141032
-0.0047418023 0.0042666667 -0.00093076908
-0.0047418033 0.0046933335 -0.0011461537
-0.005209472 0.0046814824 -0.0011401707
-0.0061004097 -0.0023866666 0.0026230766
-0.0079518445 -0.0027000001 0.002643269
-0.0079518436 -0.0024133332 0.0026365384
-0.007245901 0.0042666667 -0.00093076914
-0.0077786874 0.0042666667 -0.00093076919
-0.0072459006 0.0032533333 -0.00087692321
-0.0067663938 0.0042666667 -0.00093076925
0.0052213119 0.003733333 -0.00087692338
0.00609153 -0.0026311111 0.0026051281
0.0072281426 0.004675556 -0.0011102562
0.0027704912 0.0046933345 -0.0011461538
0.011241803 0.0042666667 -0.0009307689
0.011241805 0.0037333325 -0.00093076908
0.010762296 0.0037333325 -0.00093076931
0.011721311 0.0032533328 -0.00093076902
0.011721311 0.0017599999 -0.0030846151
0.01172131 0.0022400003 -0.0030846151
0.011241807 0.0022400003 -0.0030846151
0.011241806 0.0027733333 -0.0030846151
0.011721309 0.0032533333 -0.0030846149
0.011721312 0.0010666668 -0.00039230764
0.012672716 0.0022247615 -0.00093076919
0.011697633 0.004663704 -0.0030547008
0.011229962 0.0046696304 -0.0030666669
0.010762295 0.0042666672 -0.0030846151
0.012786876 0.00021333323 -0.0017384604
0.012786878 0.00021333323 -0.0022769247
0.011891806 -0.0043946663 0.0017615382
0.012143868 -0.0044285054 0.0012694958
0.012254096 -0.00026666658 -0.0036769216
0.012670178 -0.00063999993 -0.0036666663
0.011721309 0.00021333329 -0.0036769228
-0.011241806 0.0042666662 -0.0009307689
-0.011237905 0.00276813 -0.00092682923
-0.011721312 0.0027733336 -0.00093076931
-0.011239098 0.0022363842 -0.00087874854
-0.011721307 0.0017599994 -0.00087692327
-0.010754344 0.0027542296 -0.0008897818
-0.011241803 0.0032533333 -0.00093076902
-0.012254097 0.0027733331 -0.00093076937
-0.0092704929 0.0027733343 -0.0031384628
-0.0072459034 0.0017599992 -0.0031923074
-0.0067663942 0.0022211762 -0.0031638001
-0.0072432728 0.0022255143 -0.0031544159
-0.003729508 -0.0010666667 -0.0037307695
-0.0047418033 -0.00026666664 -0.0037307672
-0.0087377075 0.00021333323 -0.0036769223
-0.0082581975 0.0027733333 -0.0031384605
-0.0092704939 0.0042666667 -0.0030846139
-0.010229509 0.0037333325 -0.0030846146
-0.0097499983 0.003733333 -0.0030846151
-0.010744731 0.00074549468 -0.0002994081
-0.012129783 -0.0046281484 -0.0027256408
-0.011698144 -0.0046701455 -0.0027474924
-0.011754093 -0.0047015385 -0.0017384615
-0.01172131 -0.0046933326 -0.00023076928
-0.0018647538 -0.004693334 0.0022461538
-0.0097499993 -0.0025599999 -0.0010923077
-0.0097534359 -0.0032584944 -0.0027667491
-0.00921237 -0.0038981813 -0.002462937
-0.0067663919 -0.0042420514 -0.0031218929
-0.0062868865 -0.0046933345 -0.0030846151
-0.0067663938 -0.0046933335 -0.0030846151
-0.011241806 -0.0042429627 -0.0030786323
0.002136908 -0.0046904511 0.00024948025
0.0018672912 -0.0046679368 0.0002461538
0.0017581962 -0.004693334 -0.00023076928
0.0021081085 -0.0046818028 0.00073846173
0.0041024601 -0.004693334 0.0017615382
0.0039035522 -0.0043555554 0.0022246153
0.0079420768 -0.0043733334 0.0026338459
