# .PCD v0.7 - Point Cloud Data file format
VERSION 0.7
FIELDS x y z
SIZE 4 4 4
TYPE F F F
COUNT 1 1 1
WIDTH 1188
HEIGHT 1
VIEWPOINT 0 0 0 1 0 0 0
POINTS 1188
DATA ascii
0.006766187 -0.0042514284 -0.003107843
0.0062467628 -0.0046491427 -0.0030941172
0.0077327853 -0.0046628569 -0.0030980387
0.0067661875 -0.0046285712 -0.0030735291
0.0072446042 -0.0046285712 -0.0030735291
-0.017906474 -0.0046285712 0.002622549
-0.016129496 -0.0048000002 0.0025882353
-0.017906474 -0.0046628569 0.001764706
-0.017786872 -0.0046800007 -0.0017352939
-0.016169699 -0.0042836973 0.0022410615
-0.013258995 -0.0046628579 -0.00022549019
-0.013276081 -0.0046800002 -0.0017352941
-0.015354914 -0.0047085709 -0.0022843143
-0.015787773 -0.0046628583 -0.0027647067
-0.014762591 -0.0046628569 -0.0030392157
-0.015241004 -0.0046628583 -0.0027647067
0.0082697859 0.00020571426 -0.0037254887
0.0082697831 -0.0002742857 -0.0037254905
0.0087482026 -0.0002742857 -0.003725491
-0.014284173 0.0045942855 -0.0029019606
-0.013710071 0.0046354281 -0.0029019606
-0.014284173 0.0045942855 -0.001117647
0.0037589918 -0.00075428566 -0.0037254887
0.0037297017 -0.0010971428 -0.0037843138
0.0032122293 -0.00075428566 -0.0037254887
-0.0032122293 0.00020571426 -0.0037254887
-0.0037589921 0.00020571426 -0.0037254887
-0.0037589914 0.00075428566 -0.0037254887
0.010251801 -0.0046628583 -0.0022843133
0.0097733801 -0.0046628583 -0.0027647067
0.0097733792 -0.0046628588 -0.0022843126
0.0092266183 -0.0010971428 -0.0037254901
0.009770018 -0.0022527403 -0.0032349715
0.0092266193 -0.0017142855 -0.0032450964
0.01807734 -0.0026400001 0.002622549
0.018747646 0.0016984614 -0.00091176474
0.018225418 0.00075604388 -0.0036938158
0.017769784 0.0010971429 -0.0036568623
0.017769787 0.00075428566 -0.0037254905
0.0022553958 -0.0010971428 -0.0037941178
0.001708633 -0.0046354281 -0.0030941172
0.0017086331 -0.0046628583 -0.002764706
0.0012302158 -0.0046354285 -0.0030941174
0.018743703 0.0012057142 -0.0031421569
0.003212231 0.00020571426 -0.0037254887
0.0032122303 0.00075428566 -0.0037254887
-0.012233812 -0.0002742857 -0.0037254905
-0.012233809 -0.00075428566 -0.0037254887
-0.018675361 0.0016628569 -0.0029019606
-0.018739641 0.00068897958 -0.0022810451
-0.01871858 0.0012262184 -0.0031038057
-0.018671943 0.0016731427 -0.0030529411
0.0062194252 -0.0022628573 -0.0032450967
0.0057410072 -0.0017142855 -0.0032450976
0.0057410072 -0.002262857 -0.0032450978
0.0057410067 -0.002742857 -0.0032450987
0.0062150634 -0.0027399394 -0.0032407176
0.006747548 -0.00075428566 -0.0037130117
0.0067475489 -0.0002742857 -0.0037130131
0.0072528883 -0.00075636356 -0.0037130131
0.010730214 0.0046628569 -0.0009117648
0.010251797 0.0046537141 -0.001172549
0.010718157 0.0046467222 -0.001158016
0.010251799 0.0046628569 -0.00091176468
0.018218908 0.0037518365 -0.0011176469
-0.0047158273 0.0046628569 -0.0011176469
-0.0047158273 0.0046628569 -0.0009117648
-0.0052625905 0.0046628569 -0.0009117648
0.016744604 0.0042514284 -0.0009117648
0.016266184 0.0046628569 -0.0009117648
0.016732179 0.0046503893 -0.00091800367
0.017291361 0.00075428566 -0.00022549019
0.017291369 0.0010971429 -0.00022549019
0.017769782 0.00075428566 -0.00022549019
0.017291371 0.0046354281 -0.00092549028
0.017769784 0.0010971429 -0.00022549019
0.015241012 0.00075428566 -0.00022549019
0.015787769 0.00020571426 -0.00022549019
0.015241009 0.00020571426 -0.00022549019
0.015953751 -0.0027036734 0.0026274505
0.015938129 -0.0027154284 0.0022450984
0.014129496 -0.0027212028 0.0022487105
0.013919664 -0.00272 0.002633987
0.012028777 -0.0030171429 0.0025882353
0.012087358 -0.0026644897 0.0026470586
0.013896883 -0.0043885713 0.002633987
0.014133813 -0.004333714 0.002615686
0.014118193 -0.0046236734 0.0026274505
0.01207434 -0.0023999999 0.002633987
0.011892085 -0.0024228573 0.002633987
0.010730215 0.0042514284 -0.00091176474
0.010149281 -0.0023657142 0.0022450984
0.010115108 -0.0024000001 0.0025882353
0.010149281 -0.0026742858 0.002622549
0.0099198353 -0.0024097958 0.0026470586
-0.017906474 -0.0046628569 0.00073529419
-0.017496403 -0.0048000002 -0.00022549019
-0.016129496 -0.0046628569 0.00073529419
-0.018043166 -0.0046628569 0.00025490194
-0.017786872 -0.0046799998 -0.0012549016
-0.017496403 -0.0048000002 -0.0012549019
-0.017782215 -0.004675325 -0.0007765895
0.017803956 -0.0045828568 -0.0027418302
0.016729418 -0.0046171425 -0.0028409583
0.017275594 -0.0045784609 -0.0028491702
0.015924461 -0.0023999999 0.0012843137
0.016190246 -0.0024533332 0.0012766885
0.015924461 -0.0023999999 0.0017647058
0.016197842 -0.0024685713 0.001764706
0.016190248 -0.0024533332 0.00074291939
0.016266188 -0.0011559182 -0.00021568628
0.018765673 0.00073469389 -0.0017352933
0.018658273 -0.0012342856 -0.0030392157
0.018734006 -0.00027799225 -0.0022787489
0.018248202 -0.0037608789 -0.0028438915
0.018589929 -0.0030171429 -0.0030392157
0.018589929 -0.0030171429 -0.0028333333
0.018163454 -0.0042514284 -0.0022925495
0.018589929 -0.0020571428 -0.0007745098
0.018637767 -0.0016868571 -0.00082941179
0.018589929 -0.0020571428 -0.00022549019
0.018179858 -0.0021531428 -0.0011313724
0.018115532 -0.0026863865 -0.00071395613
0.01813429 -0.0026971428 -0.00022549019
0.018157078 -0.0042514284 -0.0007745098
-0.018678375 0.001677983 -0.00091580162
-0.0182482 -0.0042514289 -0.00077451003
-0.018783579 -0.00074285711 -0.00078594789
-0.018741809 -0.0010971428 -0.00032461865
-0.018736383 -0.0012293877 -0.00084313733
0.018218908 0.0037518365 -0.0029019604
0.018726617 0.00075428566 -0.0036568632
0.018658273 0.0010971429 -0.003588235
0.018248202 0.0032228569 -0.00091176474
0.017769782 0.002262857 -0.0009117648
-0.0182482 0.002742857 -0.0030392155
-0.018233012 0.0022399998 -0.0030544656
-0.018589929 0.0027428574 -0.0030392157
-0.018179856 0.0037439999 -0.00093235297
-0.018234532 0.0032091427 -0.0011176469
-0.018111512 0.0042514284 -0.001117647
-0.01811151 0.0042514284 -0.00098039221
-0.018043166 0.0045942855 -0.00098039221
-0.017769784 0.0045257141 -0.001117647
-0.012779123 0.0007499088 -0.0037225685
-0.013258994 0.0015085714 -0.003588235
-0.012233813 0.00075428566 -0.0037254887
-0.01373741 -0.0037714283 -0.0031078437
-0.013737411 -0.0032228569 -0.0031078437
-0.013258994 -0.0032228569 -0.0031078432
-0.013258993 -0.0042514284 -0.0031078428
-0.01373741 -0.0042514284 -0.0031078432
-0.01325216 -0.0027291426 -0.003128431
-0.012774362 -0.0027303894 -0.0031639934
-0.018786762 -0.0012287999 -0.0028250981
-0.018747646 -0.0016984614 -0.0028333333
-0.018696241 -0.0012038094 -0.0011328976
-0.018384891 -0.0039771427 -0.0018039217
-0.018617267 -0.0031817141 -0.0028333331
-0.012080035 -0.0026914284 0.0026397058
-0.013942446 -0.0024685715 0.0026568626
-0.01207434 -0.0023999999 0.002633987
-0.011892086 -0.0024685715 0.0026568626
-0.011892086 -0.0027154286 0.0026431372
-0.011857914 -0.0043542855 0.002622549
-0.013874101 -0.0043885713 0.0025882353
-0.014079137 -0.0043885713 0.0025882353
-0.0141247 -0.0026971428 0.0026111109
-0.012028777 -0.0043885713 0.0025882353
-0.012028777 -0.0046628569 0.0025882353
-0.011864749 -0.0046079997 0.002615686
0.0022553965 -0.0046628588 -0.0022843129
0.0027338127 -0.0046628583 -0.0022843136
0.0042374115 -0.0046628579 -0.0017352942
0.0037589918 -0.0046628593 -0.0022843129
0.0037589914 -0.0046628588 -0.0017352934
0.0058776978 -0.0043428573 0.002633987
0.0041007195 -0.0043428573 0.002633987
0.0060599521 -0.0042971424 0.0026111109
0.0079280576 -0.0027085715 0.002622549
0.0079280576 -0.0024000001 0.0026568626
0.0080647478 -0.0026742858 0.0026568626
0.0078776991 -0.0027139848 0.0022342624
0.0058776978 -0.0046354281 0.0026431372
0.0061120256 -0.0046432652 0.0022450984
-0.017782209 0.0042264932 -0.00095543673
-0.017769784 0.0045942855 -0.00098039221
-0.017276177 0.0042514284 -0.00093464059
-0.01673484 0.0042318366 -0.00092156872
-0.016744604 0.0046432652 -0.00096078432
-0.014762589 0.0010971429 -0.0036568623
-0.014284173 0.0015085714 -0.003588235
-0.014762591 0.0015085714 -0.003588235
-0.009773382 0.0046628569 -0.0009117648
-0.0097547416 0.0046503893 -0.0011176469
-0.010251799 0.0046628569 -0.0009117648
-0.010251799 0.0045942855 -0.001117647
-0.011755394 0.0042514284 -0.00091176468
-0.012233813 0.0046628569 -0.00091176474
-0.011755395 0.0046628569 -0.0009117648
-0.011276981 0.0032228569 -0.0009117648
-0.011276979 0.0037714283 -0.0009117648
-0.010730215 0.0032228569 -0.0009117648
-0.010730216 0.0037714283 -0.00091176474
0.0072446042 -0.0042514284 -0.0031078425
0.003758993 -0.0046354281 -0.0030941172
0.0032056165 -0.0042337328 -0.003154333
0.0042374106 -0.0046354285 -0.0030941174
0.003758993 -0.0046628583 -0.0027647065
0.0042374106 -0.0042514284 -0.0031078428
0.0027283451 -0.004240457 -0.00316549
0.0032122303 -0.0046354281 -0.0030941172
0.0058776978 -0.0026742856 0.00025490194
0.0052685332 -0.0042573917 -0.0002344416
0.005267147 -0.0027337139 -0.00023921567
0.0058776978 -0.0043199998 0.00025490194
0.003212231 -0.0046628588 -0.0017352939
0.0032122303 -0.0046628583 -0.0012549015
0.003212231 -0.0046628588 -0.0022843126
0.0061120251 -0.0046432652 0.0012843137
0.0078597125 -0.0046628569 0.001764706
0.0061120256 -0.0046432652 0.001764706
0.0078597134 -0.0046628569 0.001284314
0.004134892 -0.0046285712 0.0022450984
0.0057410081 -0.0046628583 -0.00077450997
0.0052625905 -0.0046628593 -0.00022549019
0.0057410058 -0.0046628583 -0.00022549019
0.0062194248 -0.0046628588 -0.00022549019
-0.017856769 -0.0043511684 0.0022263816
-0.017906474 -0.0026742856 0.0022450984
-0.018094424 -0.0043542855 0.0017475492
-0.018097842 -0.0027154284 0.0022450984
-0.018134292 -0.0046171425 -0.0017352937
-0.016129496 -0.0046628569 0.0022450984
-0.016171554 -0.0042830766 0.0017752639
-0.010730215 -0.0042514284 -0.0031078432
-0.011276979 -0.0042514284 -0.003107843
-0.010730217 -0.0032228576 -0.0031764705
-0.010722173 -0.0037593276 -0.0031199546
-0.010247085 -0.0037454185 -0.0031433406
-0.013874102 -0.0046628569 0.00025490194
-0.014762591 -0.0046628579 -0.00022549019
-0.010251799 -0.0042514284 -0.0031078428
-0.0097686118 -0.0037506982 -0.0031605114
-0.013258994 -0.0046628569 -0.0030392157
-0.015787771 -0.0046628588 -0.0022843126
-0.015354916 -0.0047085709 -0.0017352939
-0.015787767 -0.0046628588 -0.0017352938
0.0092479782 -0.00026999999 -0.0037083342
0.0097733811 -0.00072685711 -0.0036980389
0.0092418054 -0.00073904754 -0.0036797388
0.009773382 -0.0002742857 -0.0037254905
0.008269784 -0.0010971428 -0.0037254901
0.0077230218 -0.00075428566 -0.0037254887
0.010257493 -0.0002742857 -0.0037083337
0.010251799 -0.0010971428 -0.0037254901
0.013231655 -0.0015634286 -0.0035882355
0.013258993 -0.0011999999 -0.0036225491
0.012757794 -0.0015999998 -0.003588235
0.016266188 -0.00075428566 -0.0036568632
0.015787769 -0.0010971428 -0.0036568623
0.01578524 -0.00026412695 -0.0036797393
0.015787767 0.00020571426 -0.0037254887
0.0057410072 0.00020571426 -0.0037254905
0.0042374106 -0.0002742857 -0.003725491
0.0042374111 0.00020571426 -0.0037254905
0.017291367 0.0037714283 -0.0030392152
0.017291369 0.0042514284 -0.0030392155
0.016744604 0.0042514284 -0.0030392155
-0.017742446 0.0045805713 -0.0030392157
-0.017272728 0.0046503893 -0.0030392155
-0.017750258 0.0046236734 -0.0029019606
-0.017291369 0.0046628569 -0.0029019604
-0.017291367 0.0045257141 -0.001117647
-0.015778856 0.0042454656 -0.003104859
-0.015241006 0.0046285712 -0.0030735289
-0.016744604 0.0046628569 -0.0030392155
0.0032122303 0.0046354281 -0.0028470585
0.0027338129 0.0046354285 -0.0028470585
0.0027338129 0.0046628569 -0.0011862745
0.0032219938 -0.0010971428 -0.0037843138
0.009773382 -0.0046628588 -0.0017352937
0.009773382 -0.0046628583 -0.0012549016
0.0092266193 -0.0046628583 -0.0012549016
0.0092266193 -0.0046628588 -0.0017352934
0.009773382 -0.0046628588 -0.00077451003
0.010251801 -0.0046628579 -0.00077450997
0.0092266193 -0.0046628588 -0.00077451015
0.0092266193 -0.0046628588 -0.00022549019
0.0072446028 -0.0046628569 -0.002764706
0.0077230209 -0.0046628583 -0.002764706
0.0102518 -0.0046628583 -0.0017352938
0.0047158264 -0.0046628588 -0.0022843129
0.0047158278 -0.0046628588 -0.0017352937
0.0052625895 -0.0046628593 -0.0017352937
0.0092266183 -0.0046628583 -0.0027647065
0.0087482017 -0.0017142855 -0.0032450978
0.0097733811 -0.0010971428 -0.0037254901
0.0097733792 -0.0017142855 -0.0032450964
0.017853318 -0.0027047617 0.002267974
0.017906474 -0.0043885713 0.0022450979
0.01619784 -0.0026742856 0.0022450984
0.016163668 -0.0043542855 0.002622549
-0.018140802 -0.0042318362 -0.0030392159
-0.01770144 -0.0045257141 -0.0030392157
-0.017769784 -0.0042514284 -0.0030392157
-0.018189618 -0.0042514284 -0.0027598043
-0.018207194 -0.0037668569 -0.0030483657
-0.01776384 -0.0032139129 -0.003104859
0.018741013 -0.00028150374 -0.00077812187
0.018758167 -0.00075428566 -0.00026244344
0.015924461 -0.0046628569 0.00073529419
0.016163668 -0.0046285712 0.00073529419
0.015924461 -0.0046628569 0.001284314
0.01617506 -0.0043428568 0.0022450984
0.018088728 -0.0043428568 0.0012843137
0.018043166 -0.0045942855 0.001284314
0.018043166 -0.0045942855 0.00073529419
0.018167971 -0.0042395028 -0.0027706733
0.018167429 -0.0037527271 -0.0030392155
0.017769784 -0.0032228569 -0.0030392155
0.01823453 -0.0032091427 -0.0030392152
0.012233813 -0.0046628569 -0.0030392155
0.013267034 -0.004670925 -0.0022923874
0.012780576 -0.0046628569 -0.0030392155
0.012233812 -0.0046628579 -0.0027647065
0.010251801 -0.0046628569 -0.002764706
0.015241009 -0.00075428566 -0.0036568637
0.0087482017 -0.0042514284 -0.003107843
0.008269784 -0.0037714283 -0.0031078437
0.008269784 -0.0042514284 -0.003107843
0.0087482017 -0.0037714283 -0.0031078432
0.0087482007 -0.0046542855 -0.0030992643
0.018726619 0.00020571426 -0.0027647065
0.018726619 0.00020571426 -0.0032450978
0.018718075 -0.00028285713 -0.0036397064
0.018707091 0.0002155102 -0.0036470597
0.018248202 0.00020571426 -0.0036568637
0.0027338127 0.00075428566 -0.0037254905
0.0032122305 0.0010971429 -0.0037254905
-0.0022553962 0.00075428566 -0.0037254887
-0.002255396 0.00020571426 -0.0037254887
-0.0017086331 0.00020571426 -0.0037254887
0.001230216 0.00075428566 -0.0037254905
0.0017086331 -0.0010971428 -0.0037941174
0.00075179862 -0.0010971428 -0.0037941178
0.018788354 0.00074764976 -0.0032406694
0.018624101 0.0027085715 -0.0029019609
0.018681057 0.0022399998 -0.0029019606
0.018624101 0.0027085715 -0.001117647
-0.011755396 0.00075428566 -0.0037254905
-0.011276978 0.0015085714 -0.003588235
-0.011276976 0.00075428566 -0.0037254887
-0.012233811 0.00020571426 -0.0037254887
-0.012233812 -0.0010971428 -0.0037254905
-0.011276979 -0.0010971428 -0.0037254905
-0.011755396 -0.0010971428 -0.0037254901
-0.011271917 -0.0022450793 -0.0032069709
-0.011276979 -0.002742857 -0.0031764715
-0.011755397 -0.00075428566 -0.0037254905
-0.0097613214 -0.004630588 -0.0030795843
-0.0097733811 -0.0046628583 -0.0027647065
-0.0092266183 -0.0046354281 -0.0030941172
-0.010730215 -0.0046628569 -0.0030392155
-0.0092266193 -0.0046628583 -0.0027647067
-0.0087286737 -0.0010971428 -0.0036862739
-0.0092452578 -0.0010971428 -0.0037130127
-0.0087482026 -0.002742857 -0.003176471
-0.0032122298 -0.0002742857 -0.0037254905
-0.0027338127 0.00020571426 -0.0037254905
0.0067475485 0.00020571426 -0.0037130117
0.0057410072 -0.0042514284 -0.003107843
0.0057410072 -0.0046285712 -0.0030735291
0.0052625895 -0.0046354281 -0.0030941174
0.0052566463 -0.0031840994 -0.0031824384
0.0047103595 -0.0031872005 -0.0031984313
0.0052625891 -0.0037714283 -0.0031078437
0.0047158264 -0.0037714283 -0.0031078437
0.0062194262 -0.0017142855 -0.0032450964
0.0067661861 -0.0022628575 -0.0032450967
0.0072446042 -0.0010971428 -0.0037254901
0.0077230227 0.0042514284 -0.0009117648
0.008269784 0.0046628569 -0.0009117648
0.0077230218 0.0046628569 -0.0009117648
0.0138741 -0.0043885713 0.001284314
0.012080038 -0.0042857141 0.0013014706
0.013883865 -0.004368979 0.0017843138
0.01388777 -0.0027154284 0.0012843137
0.012081936 -0.0042819045 0.00074291939
0.012028777 -0.0030171429 0.0012843137
0.014133813 -0.0042788568 0.0012843137
0.015924461 -0.0043885713 0.00073529419
0.014133813 -0.0042788568 0.00073529419
0.015938129 -0.0027154284 0.00073529419
0.015924461 -0.0043885713 0.001284314
0.011755395 0.0046628569 -0.0009117648
0.011276979 0.0042514284 -0.0009117648
0.011276979 0.0046628569 -0.0009117648
0.012780574 0.0042514284 -0.0009117648
0.012233813 0.0046628569 -0.0009117648
0.012780577 0.0046628569 -0.0009117648
0.017769786 0.0032228569 -0.0009117648
-0.0082697831 0.0042514284 -0.00091176474
-0.0077230223 0.0046628569 -0.0009117648
-0.008269784 0.0046628569 -0.0009117648
-0.0097733801 0.0042514284 -0.0009117648
-0.0092266174 0.0046628569 -0.00091176474
-0.0087482026 0.0042514284 -0.00091176468
-0.0087482017 0.0046628569 -0.0009117648
-0.016266186 0.0046628569 -0.0030392157
-0.016266188 0.0046628569 -0.0029019606
0.017291367 0.0042514284 -0.0009117648
0.017769784 0.0042514284 -0.00091176468
0.017291367 0.0037714283 -0.0009117648
0.014079136 -0.0024228571 0.002633987
0.015924461 -0.0024228571 0.002633987
0.014106476 -0.0023588571 0.0022496735
0.013737409 0.0042514284 -0.0009117648
0.01428417 0.0046628569 -0.0009117648
0.013737409 0.0046628569 -0.0009117648
0.015241005 0.0010971429 -0.00022549019
0.015787771 0.0010971429 -0.00022549019
-0.017272728 0.0046503893 -0.00098039221
-0.014762591 0.0046354285 -0.00092549023
-0.014762592 0.0042514284 -0.00091176468
-0.014284171 0.0046354281 -0.00092549028
-0.015241006 0.0046354281 -0.00092549028
-0.014762591 0.0045942855 -0.001117647
-0.015241007 0.0045942855 -0.001117647
-0.015259647 0.0046503893 -0.0029019604
-0.011276979 0.0046628569 -0.0009117648
-0.010730215 0.0046628569 -0.0009117648
-0.010730216 0.0045942855 -0.001117647
-0.011276979 0.0042514284 -0.0009117648
-0.015241007 0.0042514284 -0.0009117648
-0.014762589 0.0045942855 -0.0029019609
0.014101919 -0.00272 0.0026339865
0.015947243 -0.0043885713 0.002633987
0.016129496 -0.004617143 0.002633987
0.013892741 -0.0043511684 0.0022263816
0.0099442443 -0.0026400001 0.002622549
0.0099198343 -0.0023510202 0.0022418303
0.010169784 -0.0027154284 0.0022450984
0.0099784173 -0.0030171429 0.0022450979
-0.017906474 -0.0046628569 0.0012843137
-0.018043164 -0.0046628569 0.00073529419
-0.017906474 -0.0046628569 0.00025490194
-0.01624666 -0.0046236729 -0.0012549019
-0.016539568 -0.0045257141 -0.001117647
-0.016246658 -0.0046236734 -0.00077450991
-0.017496403 -0.0048000002 -0.00077450974
-0.017496403 -0.0048000002 -0.0017352941
-0.016246658 -0.0046236734 -0.0017352942
0.016249102 -0.0046457145 -0.0017352941
0.01533669 -0.0047451425 -0.0017352942
0.015341897 -0.0047346936 -0.0022941181
0.013887772 -0.0046354285 0.0017647055
0.014133813 -0.0046354281 0.001284314
0.013887772 -0.0046354281 0.0012843137
0.017291369 -0.0032228569 -0.0030392152
0.016744604 -0.0032228569 -0.0030392152
0.017291367 -0.0042514284 -0.0030392155
0.015924461 -0.0023999999 0.00073529419
0.015924461 -0.0023485713 0.00027205877
0.015260533 -0.0010971428 -0.00025490194
0.015254097 -0.0023110029 -0.00026491447
0.015787767 -0.00075428566 -0.00022549019
0.016266184 -0.00075428566 -0.00022549019
0.017769786 0.00020571426 -0.00022549019
0.018248202 -0.002742857 -0.0030392155
0.018589929 -0.0027428574 -0.0030392157
0.017769784 -0.002742857 -0.0030392157
0.018709535 -0.00066857139 -0.001735294
0.018652059 -0.0011470129 -0.00026916224
0.018280888 -0.00115677 -0.00025234441
0.018258328 -0.00075936504 -0.00026361656
0.018097842 -0.0027154284 0.00073529419
0.018097842 -0.0027154284 0.00025490194
0.018088728 -0.0043428568 0.00073529419
0.018737556 0.00021394284 -0.00077725516
0.018723026 0.00020571431 -0.00027966977
0.018243317 -0.00072489789 -0.0036519617
0.018248199 -0.0002742857 -0.0036568632
-0.018589929 0.0027085715 -0.00094607845
0.0182482 0.0010971429 -0.003588235
0.01823614 0.0017021848 -0.0030472891
0.0182482 0.002742857 -0.0009117648
0.017291365 0.002262857 -0.0009117648
-0.018617267 0.0022217142 -0.0030392157
-0.017769784 0.002742857 -0.0030392157
-0.017282253 0.0022491429 -0.0031032683
-0.017291367 0.002742857 -0.0030392155
-0.017753705 0.0022265546 -0.0030795843
-0.017291367 0.0032228569 -0.0030392152
-0.018761415 0.00021693506 -0.0022955423
-0.018784333 -0.00074361905 -0.0027738565
-0.018747652 0.00022153847 -0.0027647067
-0.018747648 -0.0002742857 -0.0032398195
-0.018661525 -0.0016718367 -0.00084313721
-0.018751798 -0.00066045107 -0.001731682
-0.015787771 0.0010971429 -0.0036568628
-0.015241008 0.0015085714 -0.003588235
-0.015778007 0.0016718367 -0.0031732034
-0.015241006 0.0010971429 -0.0036568623
-0.013258991 -0.0017005713 -0.0032313725
-0.013726619 -0.0016938343 -0.0032246292
-0.0087396586 -0.0046457141 -0.0030992641
-0.0087482017 -0.0042318366 -0.0031372546
-0.0082697822 -0.0046628569 -0.003107843
-0.0092266193 -0.0037714292 -0.0031764703
-0.013255085 -0.0022569795 -0.0031725497
-0.018624101 -0.0027085715 -0.0030392157
-0.018218908 -0.0010971428 -0.0036470587
-0.016169699 -0.0042836973 0.0012964247
-0.017869195 -0.0043387008 0.0007165774
-0.015992805 -0.0039771427 0.00073529419
-0.017891286 -0.004327619 0.0013071896
-0.016129496 -0.0046628569 0.0012843137
-0.017262077 -0.0045844899 -0.0030392159
-0.018221911 -0.004261978 -0.0022825534
0.0072446042 0.0046628569 -0.0009117648
0.0072446042 0.0046628569 -0.0011862745
0.0057410067 0.0046902853 -0.0011725489
0.0057410072 0.0046628569 -0.0009117648
0.0062194243 0.0046628569 -0.0009117648
0.0062194248 0.0042514284 -0.00091176474
0.0067661875 0.0046628569 -0.0009117648
0.0057341731 0.0042377142 -0.00089117652
-0.0099328533 -0.0023999999 0.0026339865
-0.010142446 -0.0024137143 0.0026431372
-0.0099393623 -0.0027036734 0.002627451
-0.0099784173 -0.0030171429 0.0021764706
-0.0081038019 -0.0027036734 0.0026274505
-0.0099784173 -0.0039771427 0.0021764706
-0.015924461 -0.0043885713 0.0025882353
-0.015924461 -0.0045942855 0.0025882353
-0.016129496 -0.0026742858 0.0025882353
-0.015901679 -0.002697143 0.0025882353
-0.015938129 -0.0042788568 0.0022450984
-0.014079137 -0.0043885713 0.0022450979
-0.013887769 -0.0046354281 0.0025882353
-0.0138741 -0.0046628569 0.0022450984
-0.011892087 -0.0023588571 0.0022176472
-0.010163353 -0.0023717645 0.0022410615
-0.0080647478 -0.0043428573 0.002633987
-0.0078938846 -0.0043542855 0.002622549
-0.0079280576 -0.0023999999 0.0026568626
-0.0080647478 -0.0045942855 0.0026568626
-0.0087482026 -0.0046628569 -0.0027647053
-0.0087482017 -0.0046628583 -0.0022843136
-0.0092266211 -0.0046628593 -0.0022843126
-0.010115108 -0.0046628569 0.0012843137
-0.010115108 -0.0046628569 0.001764706
-0.0099100703 -0.0046628569 0.0012843137
-0.0102518 -0.0032228569 -0.0031764715
-0.010730213 -0.0022432653 -0.0032156853
-0.011846523 -0.0043428568 0.0022450984
-0.010128777 -0.0043062856 0.0022313725
0.0019136689 -0.0046354285 0.0026431372
0.0020959233 -0.0046628569 0.0026339865
0.0021016188 -0.0027257141 0.0026225485
0.0039640288 -0.0043428573 0.002633987
-0.0057410058 -0.0046628579 -0.0022843133
-0.0057410067 -0.0046628569 -0.0027647063
-0.00526259 -0.0046628583 -0.002764706
-0.0062194243 -0.0046628583 -0.002764706
-0.0062194243 -0.0046628588 -0.0022843129
-0.00075179868 -0.0046628583 -0.0027647063
-0.0012302159 -0.0046628569 -0.0027647058
-0.0012302159 -0.0046354285 -0.0030941172
-0.00027338133 -0.0046628569 -0.0027647063
0.00020503601 -0.0046628579 -0.0027647058
0.00075179868 -0.0046628583 -0.0027647067
0.00020503595 -0.0046628588 -0.0022843126
0.00021870506 -0.0046354285 -0.0030666662
-0.0017086333 -0.0046628579 -0.002764707
0.0037589918 -0.0046628579 -0.0012549015
0.0039093522 -0.0046902853 0.00025490206
0.0042374106 -0.0046628569 -0.002764706
0.00321223 -0.0046628583 -0.0027647065
0.0039093527 -0.0027154284 0.001284314
0.0039640288 -0.0043199998 0.00073529419
0.0039640288 -0.0043199998 0.001284314
0.0058776978 -0.0026742858 0.0025882353
0.004146283 -0.0027123808 0.0022450984
0.0058776978 -0.0023314285 0.0025882353
0.0058776978 -0.0043199998 0.0022450984
0.0078776991 -0.0027139848 0.00073890632
0.00605084 -0.0026971428 0.00074901979
0.0078733824 -0.0027154284 0.0012843137
0.006766187 -0.0046628583 -0.0027647065
0.0078597134 -0.0046628569 0.0022450984
0.0097733801 -0.0046628588 -0.00022549019
-0.017291369 0.0037714283 -0.0009117648
-0.016744606 0.0037714283 -0.0009117648
-0.015241005 0.002742857 -0.003107843
-0.015241004 0.0032228569 -0.0031078437
-0.012233813 0.0042514284 -0.0009117648
-0.011755396 0.0037714283 -0.0009117648
0.0067661884 -0.0027303894 -0.0032263817
0.0037542782 -0.0032063066 -0.0032237987
0.0042374125 -0.0032032654 -0.0032156867
0.0037589918 -0.002742857 -0.0032450976
0.0032122319 -0.0032091436 -0.0032313715
0.0042374115 -0.002742857 -0.003245099
0.0042374101 -0.0010971428 -0.0037254901
0.004237412 -0.002262857 -0.0032450976
0.0047158268 -0.0042514284 -0.0031078432
0.0047158268 -0.0046354281 -0.0030941169
0.0058356384 -0.0046417578 0.00025490206
0.0058581694 -0.0046432652 0.00072549016
0.0047158268 -0.0023314285 -0.00022549019
0.0058776974 -0.0023314285 0.00073529419
0.0047158273 -0.0010971428 -0.00020261435
0.0041690646 -0.0023999999 0.00073529419
0.00020503593 -0.0037577152 -0.0032313715
0.00075179822 -0.0037518381 -0.0032156853
0.00075179822 -0.0032228583 -0.0032450964
0.00075179845 -0.0042318362 -0.0031372553
0.001236429 -0.004232727 -0.0031452761
0.0037589914 -0.0022628575 -0.0032450967
0.0058776974 -0.0023314285 0.001284314
0.0041690646 -0.0023999999 0.0017647055
0.0058776978 -0.0023314285 0.001764706
0.0039184652 -0.0023999999 0.0026339865
0.0061339936 -0.0046457141 0.00025490194
0.006069066 -0.0042788568 0.00073529419
0.0067661875 -0.0046628588 -0.00077451003
0.006766188 -0.0046628583 -0.0012549016
0.0062194243 -0.0046628583 -0.0012549015
0.0067661875 -0.0046628588 -0.00022549019
0.010169785 -0.0027154284 0.0017647058
0.0099784173 -0.0030171429 0.001764706
0.0078642694 -0.0043245712 0.002231373
0.0060485625 -0.0027085713 0.001284314
0.012028777 -0.0030171431 0.001764706
0.010160672 -0.0043428568 0.001764706
0.010160672 -0.0043428568 0.0022450984
0.011892087 -0.0043199998 0.0022450979
0.010160672 -0.0043428568 0.0012843137
0.0099784173 -0.0030171431 0.0012614379
-0.018097844 -0.0027154284 0.0017647058
-0.01810072 -0.0027067668 0.0012951499
-0.015908686 -0.0046523074 0.0022556563
-0.015924461 -0.0046628569 0.0017647058
-0.015938129 -0.0042788568 0.0017647058
-0.015787767 0.0042514284 -0.0009117648
-0.015241007 0.0037714283 -0.00091176474
-0.015772583 0.0046323808 -0.00093464059
-0.011276978 -0.0037714283 -0.0031078437
-0.016539568 -0.0045257141 -0.00029411761
-0.016246658 -0.0046236734 -0.00022549019
-0.015787767 -0.0046628588 -0.00022549019
-0.015924463 -0.0046628569 0.00073529419
-0.015924461 -0.0046628569 0.001284314
-0.013737411 -0.0046628588 -0.00022549019
-0.01373741 -0.0046628588 -0.0017352937
-0.013737412 -0.0046628583 -0.0012549015
-0.015787771 -0.0046628583 -0.0012549016
-0.010251801 -0.0046628569 -0.002764706
-0.014284171 -0.0046628569 -0.0030392155
-0.012780576 -0.0046628569 -0.0030392155
-0.013276082 -0.0046800002 -0.0022843136
-0.012233813 -0.0046628569 -0.0030392155
-0.014762592 -0.0046628569 -0.0027647063
-0.014694245 -0.0045257141 -0.0022843136
-0.016260719 -0.0046518855 -0.0027756861
-0.010730217 -0.0046628579 -0.0012549015
-0.010730214 -0.0046628588 -0.00077451003
-0.011276978 -0.0046628588 -0.00077451003
-0.011276979 -0.0046628579 -0.0012549015
-0.011755395 -0.0046628569 -0.0012549015
-0.011276976 -0.0046628588 -0.0017352933
-0.011755395 -0.0046628579 -0.0017352938
-0.012233812 -0.0046628583 -0.0012549015
0.0077230209 -0.0002742857 -0.0037254905
0.0092452606 0.00020571426 -0.0037130117
0.0082654227 -0.0007499088 -0.0037225685
0.010730216 -0.0020571428 -0.003588235
0.011071943 -0.0020571428 -0.003588235
0.010251799 -0.0042514284 -0.0031078425
0.0097841732 -0.0046339845 -0.0030897825
0.010229017 -0.0046399995 -0.0030735291
0.010246541 -0.0007384615 -0.0036727004
0.013258994 -0.00075428566 -0.0036568632
0.012233814 -0.00025714285 -0.0037083342
0.012233811 0.00020571426 -0.0037254887
0.011749926 -0.00026331426 -0.0037145102
0.011755396 0.00020571426 -0.0037254905
0.017291367 0.00075428566 -0.0037254887
0.017306905 0.00021506491 -0.0037130117
0.0042374111 0.00075428566 -0.0037254905
0.0037589925 -0.0002742857 -0.0037254905
0.016744604 0.0046628569 -0.0030392155
0.016266188 0.0046628569 -0.0029019606
0.013258993 0.0046628569 -0.001117647
0.013258994 0.0046628569 -0.0009117648
0.018140802 0.0042318362 -0.0030392159
0.017769784 0.0042514284 -0.0030392157
0.018043166 0.0045942855 -0.0030392157
0.017247872 0.0011096103 -0.003688057
-0.016744606 0.0046628569 -0.0029019604
-0.016744606 0.0042514284 -0.0030392155
0.0062318514 0.0046753245 -0.0011800353
0.0032122307 -0.0017142855 -0.0032450964
0.00321223 -0.0037714296 -0.0031764705
0.0042374111 -0.00075428566 -0.0037254905
0.0052625891 -0.0002742857 -0.0037254905
0.0052625909 0.00020571426 -0.0037254887
-0.0022553953 -0.0002742857 -0.0037254905
0.0092266183 -0.0037714283 -0.0031078437
0.0087482026 -0.0032228569 -0.003107843
0.0092266183 -0.0032228569 -0.0031078437
0.0087481998 -0.0046628583 -0.001735294
0.010251799 -0.0046628569 -0.0012549018
0.0062194248 -0.0037714283 -0.0031078437
0.0057410081 -0.0031954283 -0.0031490203
0.0077230213 -0.0037714283 -0.0031078437
0.0077230209 -0.0027291426 -0.0032039224
0.008269785 -0.0031999997 -0.00313072
0.008269785 -0.0017142855 -0.0032450969
0.0087482017 -0.0010971428 -0.0037254901
0.01619784 -0.0026742856 0.001764706
0.01617506 -0.0043428568 0.001764706
0.017857656 -0.0023999999 0.002264706
0.016190248 -0.0024533332 0.0022527236
0.01786091 -0.0024228571 0.001764706
0.017853899 -0.0024158242 0.0012790348
0.018739048 -0.00028675323 -0.00026500295
0.018229866 -0.00027094074 -0.00026064075
0.018720681 -0.00074832293 -0.00078346144
0.017906474 -0.0045942855 0.0025882353
0.017906474 -0.0043885713 0.0012843137
0.017906474 -0.0043885713 0.001764706
0.016158786 -0.0046236734 0.0013137256
0.016156834 -0.0046217139 0.0017647058
0.017906474 -0.0046628569 0.001764706
0.015924461 -0.0046628569 0.0017647058
0.011755396 -0.0046628569 -0.0030392157
0.014762589 -0.00075428566 -0.0036568632
0.012780575 -0.0011999999 -0.0036225496
0.012233813 -0.001645714 -0.0035882355
0.008269785 -0.0046354281 -0.0030941172
0.0092266183 -0.0046628569 -0.0030941172
0.011276979 -0.0046628569 -0.0030392155
0.0087482017 -0.0046628569 -0.0027647063
0.010730215 -0.0042514284 -0.003107843
0.016266188 -0.0045257141 -0.0030392157
0.016744604 -0.0045257141 -0.0030392157
0.013258993 -0.0046628569 -0.0030392157
0.012780575 -0.0042377142 -0.0030941174
0.013268757 -0.0042612241 -0.0030882347
0.01575049 -0.0032041557 -0.0030766486
0.015742207 -0.002742857 -0.0030849669
0.016266188 -0.0032228569 -0.0030392155
0.015241005 -0.0032228569 -0.0031078439
0.013737409 -0.0011999999 -0.0036225496
0.014284171 -0.0011999999 -0.0036225496
0.013258996 0.00020571426 -0.00022549019
0.013258997 0.00075428566 -0.00022549019
0.01373741 0.00020571426 -0.00022549019
0.01373741 -0.0002742857 -0.00022549019
0.013737408 0.0010971429 -0.00022549019
0.013258994 0.0010971429 -0.00022549019
0.0017086329 0.00075428566 -0.0037254887
0.0017086331 0.00020571426 -0.0037254887
0.0027338124 -0.00075428566 -0.0037254905
0.002255396 -0.00075428566 -0.0037254887
0.001230216 -0.002262857 -0.0032450978
0.0012302158 -0.0010971428 -0.0037254901
-0.0027338127 0.00075428566 -0.0037254905
0.0017086331 0.0010971429 -0.0037254905
0.001230216 0.0010971429 -0.0037254901
-0.0017086331 0.00075428566 -0.0037254887
-0.0012382566 0.00019764702 -0.0037174169
-0.0012390347 0.00074764976 -0.003703353
0.018248202 0.002742857 -0.0030392155
0.017744932 0.0027303894 -0.0030641707
-0.014762592 0.0046285712 -0.0030735293
-0.0077230223 0.0046354281 -0.0028470585
-0.0082697831 0.0046354281 -0.0028470585
-0.0077230223 0.0046354281 -0.0030941174
-0.00027338133 0.0046628569 -0.0011862745
0.00020503601 0.0046457145 -0.00086029427
-0.00027338133 0.0046457141 -0.00086029427
-0.011755396 0.00020571426 -0.0037254905
-0.010251798 -0.0046285712 -0.0030735293
-0.0037589925 -0.0002742857 -0.0037254905
-0.0042374115 0.00075428566 -0.0037254905
-0.0047158264 0.00020571426 -0.0037254887
-0.0042374101 0.0010971429 -0.0037254901
-0.0047069122 0.00074832299 -0.0037195217
0.0062194243 -0.0042514284 -0.003107843
0.0052625891 -0.0022628573 -0.0032450967
0.00526259 -0.0010971428 -0.0037254901
0.0052625905 -0.0017142855 -0.0032450967
0.0052625895 -0.0027428574 -0.0032450978
0.008269784 0.0042514284 -0.0009117648
0.008269784 0.0046628569 -0.0011862742
0.012233815 0.00075428566 -0.00022549019
0.012233812 0.00020571426 -0.00022549019
0.011755397 0.00075428566 -0.00022549019
0.012766906 0.00020571426 -0.00023921579
0.012766907 -0.0002742857 -0.00023921567
0.011892087 -0.0023999999 0.001764706
0.011892087 -0.0023999999 0.001284314
0.010149281 -0.0023657142 0.0017647058
0.012233811 -0.0002742857 -0.00022549019
0.012779489 -0.00075102033 -0.00022875809
0.012233811 -0.00075428566 -0.00022549019
0.014750162 0.00020571426 -0.00024420675
0.013737413 0.00075428566 -0.00022549031
0.014284175 0.00020571426 -0.00022549019
0.0138741 -0.0043885713 0.00073529419
0.013942446 -0.0030171429 0.00011764711
0.01327142 -0.0039771427 -0.00024420675
0.014133813 -0.0046354281 0.00073529419
0.013887772 -0.0046354281 0.00073529419
0.014133814 -0.0042788568 0.0017647058
0.013737411 0.0046628569 -0.0011176469
0.011755395 0.0042514284 -0.0009117648
0.013258994 0.0042514284 -0.0009117648
0.01373741 0.0037714283 -0.00091176474
0.017769784 0.002742857 -0.0009117648
-0.0082697831 0.0046628569 -0.0011176469
0.016266184 0.00075428566 -0.00022549019
0.016266186 0.0011559182 -0.00025490194
0.017735612 0.0045599998 -0.001117647
0.017305039 -0.00075428566 -0.00023921567
0.017769784 -0.0002742857 -0.00022549019
0.017305037 -0.0002742857 -0.00023921567
0.015241005 0.0046628569 -0.0011176469
0.015241005 0.0046628569 -0.0009117648
0.014762591 0.0046628569 -0.00091176468
0.014762591 0.0046628569 -0.0029019606
0.015241005 0.0046628569 -0.0029019604
0.014284172 0.0042514284 -0.0009117648
0.014284176 0.00075428566 -0.00022549019
0.015241007 0.0042514284 -0.00091176474
0.015787773 0.0046628569 -0.0009117648
0.015787771 0.0042514284 -0.0009117648
0.016266186 0.0042514284 -0.00091176468
0.00075179862 0.0046457145 -0.00086029427
0.00075179845 0.0042514289 -0.00084313727
-0.01373741 0.0045942855 -0.001117647
-0.013258994 0.0046354285 -0.00092549023
-0.013258993 0.0045942855 -0.001117647
0.015924461 -0.0043885713 0.0022450984
0.0099208616 -0.0027067668 0.0022342624
0.0080896011 -0.0026929867 0.0021889484
0.011892086 -0.0026742858 0.0025882353
-0.018043166 -0.0043885713 0.00073529419
-0.018103918 -0.0026971428 0.00073529419
-0.016539568 -0.0045257141 -0.0007745098
-0.016163668 -0.0042857141 0.00073529419
0.01624262 -0.0046344828 -0.0022677486
0.015787771 -0.0046628579 -0.0027647067
0.016258992 -0.0046195486 -0.0028008253
0.015992805 -0.0030171429 0.00011764711
0.01619784 -0.0026742856 0.00073529419
0.0178518 -0.0027154284 0.0012843137
0.017853318 -0.0027047617 0.00074291963
0.018043166 -0.0045942855 -0.00077450986
0.018043166 -0.0045942855 -0.00022549019
0.0178518 -0.0046902853 -0.0007745098
0.018070502 -0.0045805713 -0.0017352942
0.018157074 -0.0042514284 -0.0017352942
0.017757356 -0.0032103895 -0.0028395718
0.017086331 -0.0035657142 -0.0024901961
0.0182482 -0.0032166233 -0.0028645275
0.014133814 -0.0046354285 0.0017647058
0.014133811 -0.0046354281 0.0022450984
0.017906474 -0.0046628569 0.0022450984
0.01811151 -0.0045942855 0.0022450984
0.01808873 -0.0045714285 0.0025882353
0.01390339 -0.0046236734 0.002627451
0.012087358 -0.0046628569 0.0026078429
0.01207434 -0.0043885713 0.002633987
0.010730214 -0.0046628583 -0.0027647065
0.010730214 -0.0046628588 -0.0022843126
0.010730214 -0.0046628588 -0.0017352934
0.0057410072 -0.0046628569 -0.0012549018
0.0057410067 -0.0046628583 -0.0017352939
0.0047158278 -0.0027428574 -0.00022549019
0.017291367 -0.002742857 -0.0030392155
0.016266188 -0.002742857 -0.0030392157
0.015787771 -0.0010971428 -0.00022549019
0.0141247 -0.0027276189 0.00072766899
0.014079137 -0.0030171429 0.00011764711
0.014752075 -0.00229978 -0.00024132733
0.014750164 -0.0010971428 -0.00024420675
0.015938131 -0.0027154284 0.001284314
0.015938129 -0.0027154284 0.0017647058
0.016129496 -0.0024685715 0.0025882353
0.015924461 -0.0023999999 0.0022450984
0.015787767 -0.0002742857 -0.00022549019
0.01626619 -0.0002742857 -0.00022549019
0.018244945 0.00020897959 -0.0002287582
0.0182482 -0.002262857 -0.0030392152
0.018248204 -0.0017142855 -0.0030392152
0.017769784 -0.0017142855 -0.0030392155
0.018617267 -0.0027154286 -0.0028745099
0.018644605 -0.002262857 -0.0028745097
0.018217824 -0.0027352378 -0.0028562089
0.018726619 -0.0012342856 -0.00084313727
0.018689338 -0.0012093505 -0.0011550802
0.018617267 -0.0022217142 -0.0030392157
0.018612711 -0.0015999998 -0.0011633987
0.018745469 -0.00028374384 -0.0012549016
0.018095739 -0.0024158242 0.0022503776
0.018097842 -0.0027154284 0.0022450984
0.017769784 -0.0026057144 -0.001117647
0.017906474 -0.0043885713 0.00073529419
0.01770144 -0.0030171426 -0.00022549019
0.01617506 -0.0043428568 0.00073529419
0.018088728 -0.0024228569 0.001284314
0.017853899 -0.0024158242 0.00074057316
0.018097842 -0.0027154284 0.0012843137
0.018105298 -0.0024062337 0.00025490194
0.016744606 -0.00075428566 -0.0036568637
0.017769786 -0.0002742857 -0.0036568632
0.017769784 -0.00075428566 -0.0036568632
0.017291365 -0.0002742857 -0.0036568632
0.017291365 0.002262857 -0.0031078437
0.017291365 0.002742857 -0.0031078432
0.017301448 0.00020908663 -0.00023561553
0.016728105 0.00020098523 -0.00024678838
0.016730936 -0.0002742857 -0.00023921567
0.0182482 0.002262857 -0.0009117648
-0.018589929 0.002262857 -0.0029019609
-0.018726621 -0.0002742857 -0.0027647058
-0.018714191 0.0012093505 -0.0011426024
-0.018043166 -0.0026742858 -0.001117647
-0.018191246 -0.0022285713 -0.0011176469
-0.018589929 -0.0020571428 -0.00029411761
-0.018772183 -0.00071384612 -0.0012408241
-0.017906474 -0.0026742856 0.0012843137
-0.017906474 -0.0026742856 0.001764706
-0.016266188 0.0037714283 -0.003107843
-0.014745506 -0.0002742857 -0.0037083337
-0.014284172 -0.00025714285 -0.0037083342
-0.01522998 -0.0002742857 -0.003703353
-0.015787771 -0.0010971428 -0.0037254905
-0.018248199 -0.00075428566 -0.0036568637
-0.0182482 -0.0002742857 -0.0036568632
-0.017769784 0.0042514284 -0.0030392157
-0.014762592 -0.002262857 -0.003107843
-0.01428417 -0.002262857 -0.0031078437
-0.014284174 -0.0016685713 -0.0031993464
-0.014758182 -0.0016722579 -0.0031720435
-0.012761936 -0.0002742857 -0.0037130131
-0.0097733811 -0.0042514284 -0.003107843
-0.009218418 -0.0042459425 -0.0031160784
-0.012761936 -0.0010971428 -0.0037130127
-0.013258995 -0.0037714283 -0.003107843
-0.012780575 -0.0037714283 -0.0031078437
-0.012780578 -0.002262857 -0.0031764705
-0.012229629 -0.0022586586 -0.0031820727
-0.012780575 -0.0046628574 -0.0022843136
-0.013258995 -0.0046628569 -0.0012549018
-0.018231705 -0.0022510344 -0.003100744
-0.018223023 -0.0027284208 -0.0030897825
-0.018589929 -0.0030857143 -0.0030392157
-0.018043166 -0.0043885713 0.00025490194
-0.017886946 -0.0043297955 0.0017843138
-0.018070506 -0.0043885713 0.0013254903
-0.015938129 -0.0042788568 0.0012843137
-0.015924461 -0.0042514284 0.00073529419
-0.01588143 -0.0027022222 0.0012817722
-0.016193284 -0.0026697142 0.0022313725
-0.016129496 -0.0046628569 0.001764706
-0.014284173 -0.0037714283 -0.0031078439
-0.014284171 -0.0032228569 -0.0031078437
-0.014284171 -0.002742857 -0.0031078432
-0.017291365 -0.0042514284 -0.0030392155
-0.018289207 -0.0039771427 -0.0023529413
0.0072446037 0.0042514284 -0.0009117648
0.0032051604 0.0046439413 -0.00087626785
0.0037484779 0.0046523074 -0.00089592772
0.003758993 0.0042514289 -0.00084313733
0.0027338129 0.0046457141 -0.00086029415
0.0042374111 0.0046628569 -0.0009117648
0.0047037662 0.0046386551 -0.001158016
0.0042374101 0.0046354285 -0.0028470585
0.0052783615 0.004673406 -0.001128205
0.0047158268 0.0046628569 -0.0009117648
0.0022553958 0.0046457145 -0.00086029421
0.0060690651 -0.0024137143 0.002615686
0.0078682564 -0.0023914285 0.0022279415
0.0060599521 -0.0026514286 0.0022450984
0.0041650441 -0.002387899 0.0022410615
0.0058776974 -0.0023314285 0.0022450984
-0.011276979 0.002742857 -0.0009117648
-0.010730214 0.0042514284 -0.0009117648
-0.010251799 0.00020571426 -0.00022549019
-0.010710685 0.00020571426 -0.00025490194
-0.01071515 0.00075777242 -0.00024293782
-0.0080920849 -0.0024137143 0.0026431368
-0.010154163 -0.0027036734 0.0026274505
-0.010169785 -0.0027154284 0.0022450984
-0.0099237394 -0.0027154284 0.0022450984
-0.014079137 -0.0045942855 0.0025882353
-0.0138741 -0.0043885713 0.0022450984
-0.012028777 -0.0043885713 0.0022450979
-0.012028777 -0.0045942855 0.0022450984
-0.011857912 -0.0046285712 0.0022450984
-0.014079138 -0.0045942855 0.0012843137
-0.014079138 -0.0045942855 0.001764706
-0.013874102 -0.0046628569 0.0017647058
-0.014079136 -0.0043885713 0.001764706
-0.012028777 -0.0043611424 0.00077647052
-0.013881695 -0.004373333 0.00075817003
-0.012775317 -0.0039771427 -0.0002730015
-0.012028777 -0.0030171429 0.00073529419
-0.012083455 -0.0023588571 0.0022450984
-0.011276978 -0.0046628588 -0.00022549019
-0.010730214 -0.0046628588 -0.00022549019
-0.0087482017 -0.0046628579 -0.0017352939
-0.008269784 -0.0046628588 -0.0017352937
-0.010115108 -0.0043885713 0.0026568626
-0.010115108 -0.0046628569 0.0022450984
-0.0099328542 -0.0046628569 0.0026339865
-0.011857912 -0.0046285712 0.001284314
-0.010702879 -0.0010971428 -0.0036980389
-0.010251798 -0.0010971428 -0.0037254901
-0.0102518 -0.0022491426 -0.0032313727
-0.010247779 -0.0046628579 -0.00023760088
-0.010132194 -0.004302857 0.0017990196
-0.010146652 -0.0043041753 0.0012790348
-0.0099784173 -0.0039771427 0.0012843137
-0.012028777 -0.0043542855 0.0017303921
-0.013881694 -0.004373333 0.0012919392
-0.013896883 -0.0043428568 0.001764706
-0.014079137 -0.0043885713 0.001284314
-0.0012443563 -0.0023503448 -0.0002609872
-0.0018482954 -0.002337391 0.00072634278
-0.00073471223 -0.0023485713 -0.00024607836
-0.0057410062 -0.0046628583 -0.0017352938
-0.0052625895 -0.0046628588 -0.0022843126
-0.0052625895 -0.0046628588 -0.0017352934
-0.0099100703 -0.0046628569 0.001764706
-0.008269784 -0.0046628588 -0.00022549019
-0.0087482035 -0.0046628579 -0.00022549019
-0.0078515122 -0.004657371 0.0012815687
-0.006766187 -0.0046628579 -0.0027647065
-0.0067661875 -0.0046628569 -0.003107843
-0.0072446037 -0.0046628569 -0.0027647051
-0.0072446042 -0.0046354285 -0.0030941174
-0.00027338133 -0.0046285712 -0.0030735291
-0.00075841264 -0.0042337324 -0.0031543332
0.00075179857 -0.0046285712 -0.0030735289
0.0039093522 -0.0046902853 0.0017647058
0.0021294963 -0.0046556387 0.001764706
0.0037589918 -0.0046628588 -0.00077450997
0.0032122303 -0.0046628588 -0.00077451003
0.0032258993 -0.0046628588 -0.00023921567
0.0047158268 -0.0046628583 -0.0012549015
0.0042374106 -0.0046628583 -0.0022843136
0.0027338127 -0.0046628569 -0.002764706
0.0021066437 -0.0042998316 0.0012641292
0.0021479956 -0.002723265 0.001764706
0.0021000654 -0.004313766 0.001764706
0.0060827341 -0.0023999999 0.0017647058
0.0060781776 -0.0024045713 0.002231373
0.0078597134 -0.0023999999 0.0017647058
0.0047158278 -0.00075428566 -0.00022549019
0.0042374111 -0.00075428566 -0.00022549019
0.0047158268 -0.0002742857 -0.00022549019
0.0052625905 -0.0002742857 -0.00022549019
0.0052762586 -0.00075428566 -0.00023921567
0.0060781785 -0.0024045713 0.00073986931
0.0067618238 -0.0023343463 -0.00022987067
0.006738849 -0.0010971428 -0.00023921567
0.008269784 -0.0046628588 -0.0017352937
0.0077230218 -0.0046628588 -0.0022843126
0.007723019 -0.0046628588 -0.0017352934
0.0067661889 -0.0046628588 -0.0017352938
-0.014284171 0.0010971429 -0.00022549019
-0.014762591 0.002742857 -0.00091176468
-0.014284172 0.002742857 -0.0009117648
-0.014762591 0.002262857 -0.0009117648
-0.017906474 -0.0024685715 0.0025882353
-0.017906474 -0.0024097958 0.0022156867
-0.016197842 -0.0024685713 0.0022450984
-0.018111512 -0.0024685713 0.0022450984
-0.017906474 -0.0023999999 0.0017647058
-0.016197842 -0.0024685713 0.001764706
-0.016197842 -0.0024685713 0.001284314
-0.018248202 -0.0010971428 -0.00029411761
-0.017763572 0.0037527268 -0.00091800367
-0.014762591 0.0032228569 -0.0009117648
-0.017291371 0.0032228569 -0.0009117648
-0.014284173 0.0010971429 -0.0036568623
0.002255396 0.0042514289 -0.00084313733
0.0017086328 0.004645715 -0.00086029415
0.00075179839 -0.0023438958 -0.00023172912
0.0018681054 -0.0024228569 0.00073529419
0.001243885 -0.0023451427 -0.00025294127
-0.011755396 0.0045942855 -0.001117647
-0.012233812 0.0046628569 -0.0029019604
-0.011755396 0.0046628569 -0.0029019606
-0.011276978 0.0045942855 -0.001117647
0.0072446037 -0.002262857 -0.0032450978
0.0072446042 -0.0017142855 -0.0032450978
0.0077230209 -0.0017142855 -0.0032450964
0.0012302164 -0.0032228576 -0.0032450976
0.0052625891 -0.0042514284 -0.0031078432
0.0042374115 -0.0002742857 -0.00022549019
0.0057410081 -0.0002742857 -0.00022549019
0.0057410058 0.00020571426 -0.00022549019
0.0042374101 -0.0010971428 -0.00020261435
0.004134892 -0.0027085713 0.00025490194
0.0041409223 -0.002710588 0.00074740488
0.00020503587 -0.0032228583 -0.0032450964
-0.00027338121 -0.0032228576 -0.0032450978
0.00020503596 -0.002742857 -0.0032450978
0.00018639634 -0.0010971428 -0.0037379679
-0.00027338124 -0.003757715 -0.0032313725
-0.0012302158 -0.0042342856 -0.0031593137
-0.00075179857 -0.0037518381 -0.0032156855
0.0032122305 -0.002742857 -0.0032450978
0.0037589909 -0.0017142855 -0.0032450967
-0.0002733813 -0.002742857 -0.003245099
-0.00075179845 -0.0027428574 -0.0032450978
0.00020503596 -0.0017142855 -0.0032450969
-0.00027338121 -0.0017142855 -0.0032450978
-0.00027338124 -0.00075428566 -0.0037254905
-0.0002733813 -0.0010971428 -0.0037254901
-0.0012302159 -0.00075428566 -0.0037254905
-0.00072446041 -0.00075428566 -0.0036980389
0.0041650441 -0.002387899 0.0012722031
0.0052812295 -0.0010971428 -0.00021925138
0.006082735 -0.0023999999 0.001284314
0.0058776978 -0.0026742856 0.00073529419
0.0039093527 -0.0027154284 0.0017647058
0.0058776978 -0.0046628569 0.001764706
0.0058581694 -0.0046432652 0.0012647059
0.0058776978 -0.0043199998 0.0017647058
0.004146283 -0.0043428568 0.001764706
0.004146283 -0.0043428568 0.0012843137
0.0058776978 -0.0043199998 0.0012843137
0.0039093527 -0.0027154284 0.0022450984
0.0041379984 -0.0043387008 0.0022388594
0.0058776978 -0.0043199998 0.00073529419
0.006069066 -0.0042788568 0.001284314
0.0078597125 -0.0043199998 0.001284314
0.0078597134 -0.0043199998 0.00073529419
5.4676268e-05 -0.0023588571 0.00073529419
0.00075179857 -0.0010971428 -0.00020261435
0.0012473022 -0.0010971428 -0.00022549019
0.00020503598 -0.0010971428 -0.00020261435
0.00020503601 0.0042514284 -0.00084313727
-0.0012302158 0.0042514284 -0.00084313744
-0.00075179851 0.0042514284 -0.00084313727
-0.0012302159 0.0046432652 -0.00088235299
-0.0017086333 0.0046628569 -0.0011862743
-0.0017086333 0.0046432652 -0.00088235305
0.0027338122 -0.002742857 -0.00022549019
0.0032258993 -0.002742857 -0.00023921567
0.0021479959 -0.0027232652 0.00073529419
0.0062194243 -0.0046628588 -0.00077450997
0.0072446028 -0.0046628579 -0.00077450997
0.0072446028 -0.0046628569 -0.0012549015
0.0078597134 -0.0043199998 0.0017647058
0.0080989199 -0.0042857141 0.0022450984
0.0078733824 -0.0027154284 0.0017647055
0.0099328524 -0.0043428568 0.001764706
0.0080989199 -0.0042857141 0.0017647058
0.012081351 -0.0042830766 0.0017647058
0.012083454 -0.0023588571 0.0017647058
0.012097123 -0.0046628569 0.0022450984
0.011892087 -0.0046628569 0.001764706
0.011892087 -0.0046628569 0.0022450984
0.011892085 -0.0046628569 0.0025882353
0.012097124 -0.0046628569 0.0017647058
0.0099784173 -0.0030171431 0.00075817003
0.010160672 -0.0043428568 0.00073529419
0.011892087 -0.0043199998 0.0017647058
-0.016129496 -0.0024685715 0.0025882353
-0.015787771 0.0037714283 -0.0009117648
-0.010728762 -0.00075866259 -0.0037225685
-0.010730214 -0.002742857 -0.0031764712
-0.011272209 -0.0032021264 -0.0031605114
-0.011755396 -0.0042514284 -0.0031078425
-0.012780575 -0.0032228569 -0.0031078437
-0.011755394 -0.002742857 -0.0031764705
-0.01175068 -0.0031968472 -0.0031433403
-0.015787767 -0.0046628588 -0.00077450997
