# .PCD v0.7 - Point Cloud Data file format
VERSION 0.7
FIELDS x y z
SIZE 4 4 4
TYPE F F F
COUNT 1 1 1
WIDTH 1175
HEIGHT 1
VIEWPOINT 0 0 0 1 0 0 0
POINTS 1175
DATA ascii
-0.010761061 0.0042142849 -0.00026136357
-0.010761063 0.0037142858 -0.00026136357
-0.01125664 0.0042142835 -0.00026136357
-0.010761063 0.0052857143 -0.00026136357
-0.01076106 0.0047857137 -0.00026136357
-0.012743358 0.0042142849 -0.00026136357
-0.01224779 0.0042142835 -0.00026136357
-0.0077168164 0.0042142835 -0.00026136357
-0.0057345154 0.0057857144 -0.0027471581
-0.0047433614 0.0057857139 -0.0027471581
-0.0052389367 0.0057857125 -0.0032443181
-0.0052389367 0.005785713 -0.002747159
-0.0047433628 0.0057857125 -0.0032443181
-0.0052389367 0.0057857125 -0.0022500004
-0.00028318574 0.0057857125 -0.00026136357
0.00021238931 0.0057857139 -0.00075852219
-0.00077876094 0.0057857144 -0.00075852219
-0.011752216 0.0052857138 -0.00026136357
-0.01076106 0.0057857125 -0.00075852266
-0.011256638 0.005785713 -0.0012556824
-0.01076106 0.0057857125 -0.0012556822
-0.010265491 0.0057857144 -0.00075852242
-0.010761059 0.0057857125 -0.0047357958
-0.010265489 0.0057857144 -0.0047357972
-0.01076106 0.0057857125 -0.0042386362
-0.011256636 0.0057857144 -0.0047357958
0.0092743393 0.0057857144 -0.0027471585
0.014230088 0.005785713 -0.008215907
-0.014230092 0.0057857144 -0.0077187489
-0.014230087 0.0057857125 -0.0081448872
-0.015221238 0.0057142838 -0.0077187498
-0.01575727 0.0032857142 -0.0077390415
-0.015716817 0.003285714 -0.0072215917
-0.015748279 0.0027936508 -0.007734532
-0.015688498 0.0022142851 -0.0077471598
-0.015707683 0.0012304146 -0.0082204919
-0.015221239 0.0027857134 -0.008215908
-0.01472566 0.0022142853 -0.008215908
-0.015622419 0.00071428565 -0.0077660996
-0.015633522 0.00023529411 -0.0082326215
-0.015603538 0.0012571429 -0.0072215917
-0.015629681 0.0012307693 -0.00775153
-0.015575222 0.00028571428 -0.006227273
-0.015646018 0.0017142856 -0.0062272716
-0.01560354 0.0012571429 -0.006724433
-0.012743361 0.00071428553 -0.0082159108
-0.012743359 0.0012142854 -0.0082159089
-0.012247788 0.00071428553 -0.0082159089
-0.012247789 0.00021428568 -0.008215907
-0.012743359 0.00021428571 -0.008215908
-0.011752216 0.00021428571 -0.0082159089
-0.01274336 0.0037142858 -0.0082159098
-0.011752216 0.0037142858 -0.0082159098
-0.011742775 0.0041904766 -0.0081875008
-0.011752214 0.005785713 -0.0081448862
-0.013238938 0.00021428571 -0.0082159089
-0.010265487 0.0057857144 -0.0077187503
-0.0097699137 0.005785713 -0.0081448862
-0.0092743365 0.0057857144 -0.0077187507
-0.011752216 -0.0017789114 -0.0082564931
-0.011752216 -0.00078214274 -0.008244318
-0.011252913 -0.0017744363 -0.0082607651
-0.011262084 -0.0012893769 -0.0082377614
-0.011264807 -0.00078571442 -0.0082377614
-0.014678465 -0.0057619032 -0.0072215903
-0.014230092 -0.0057857125 -0.0072215903
-0.014230089 -0.0057857144 -0.0067244326
-0.014725662 -0.0052857143 -0.0072215907
-0.015575222 -0.0022857143 -0.0042386362
-0.01557522 -0.0022857143 -0.0037414769
-0.01557522 -0.0022857145 -0.0047357953
0.01174677 -0.004774726 -0.0081612766
0.011739903 -0.0042857151 -0.0081912056
0.014707963 -0.0042857151 -0.0032620737
0.015716814 -0.0031428575 -0.0032443181
0.015716814 -0.0031428575 -0.0028181816
0.015716819 -0.0032857137 -0.00026136357
0.015716817 -0.003785715 -0.00026136357
0.015716815 -0.0027857136 -0.00075852266
0.01564602 -0.0017857143 -0.0017528413
0.015716815 -0.0027857134 -0.0022500004
0.015646018 -0.0017857142 -0.0022500004
-0.0042433622 -0.005763391 -0.0081981542
0.015787609 -0.0057142857 -0.0055170455
0.014669881 -0.0047575757 -0.0057494831
0.014230089 -0.0057857144 -0.006724433
0.014672563 -0.0058214273 -0.0067125936
0.014644752 -0.0057959179 -0.0072723222
0.014230093 -0.0057857148 -0.0077187498
0.012743361 -0.0047857151 -0.0081448872
0.01323894 -0.0047857142 -0.0081448862
0.013238939 -0.0037619043 -0.0081956163
0.013238939 -0.0052857152 -0.0081448872
0.013734515 -0.005785713 -0.0081448872
0.014659588 -0.0047523808 -0.0081306826
-0.010761059 -0.0057857125 -0.0077187489
-0.010761061 -0.0057619032 -0.0081685623
-0.0097699128 -0.005785713 -0.0081448872
-0.011261581 -0.0057641175 -0.008199391
-0.011260803 -0.0027843139 -0.0082326196
-0.01076106 -0.0027857134 -0.0082159089
-0.010761059 -0.0022857143 -0.0082675619
-0.010761063 -0.0032857137 -0.0082159098
-0.013238939 -0.0042857137 -0.0082159089
-0.012743359 -0.0042857151 -0.0082159089
-0.013238938 -0.0037857145 -0.0082159089
-0.015858406 -0.0053571425 -0.00026136357
-0.01472566 -0.0052857138 -0.0017528413
-0.015858406 -0.0057142861 -0.00026136357
-0.015575222 -0.0022857143 -0.0052329544
-0.013734516 -0.0052857143 -0.00026136357
-0.013734517 -0.0057857125 -0.00026136357
-0.013734516 -0.0047857137 -0.00026136357
-0.0052389367 -0.0057857125 -0.00026136357
-0.0057345121 -0.005785713 -0.00026136357
-0.0052389377 -0.0052857152 -0.00026136357
-0.01472566 -0.0052857143 -0.001255682
-0.014678464 -0.0057619032 -0.0012556817
-0.014725662 -0.0047857137 -0.0012556822
-0.015626708 -0.0036753246 -0.0012815082
-0.014678463 -0.0057619028 -0.00075852289
-0.014725659 -0.0057857125 -0.00026136357
-0.014678463 -0.0057619028 -0.0017528413
0.015745129 -0.0058000004 -0.0037414772
0.015757268 -0.0057755103 -0.0026558442
0.015745131 -0.0058000004 -0.007363637
0.015197639 -0.0059047611 -0.0067165396
0.013734512 -0.005785713 -0.0067244326
0.015752213 -0.0057857144 -0.0067007579
0.015190898 -0.0059183673 -0.0037414769
0.01520193 -0.0058961045 -0.0026890496
0.015757268 -0.0057755103 -0.0042995135
0.014697342 -0.0042857151 -0.0037130679
0.014707964 -0.0042857151 -0.0042563914
-0.014230093 -0.0057857139 -0.00075852242
-0.01423009 -0.0057857139 -0.0077187489
-0.013734512 -0.005785713 -0.0077187498
-0.01224779 -0.0057857144 -0.0067244312
-0.01274336 -0.0057857125 -0.0067244307
-0.0097699147 -0.005785713 -0.0017528415
-0.0092743384 -0.0057857144 -0.0017528418
-0.0097699147 -0.0057857125 -0.0012556822
-0.011752216 -0.0057857125 -0.0062272735
-0.011752217 -0.0057857125 -0.0067244316
-0.0047433628 -0.0057571409 -0.0081874989
-0.0047433614 -0.0057857139 -0.0077187493
-0.004247786 -0.005785713 -0.0077187512
-0.0057345144 -0.0057857144 -0.0077187479
-0.0052389367 -0.005785713 -0.0077187507
-0.011256636 -0.0057857144 -0.0077187493
-0.01125664 -0.005785713 -0.0072215907
-0.010265487 -0.0057857139 -0.0017528418
-0.011752216 -0.0057857125 -0.0072215912
-0.0062300875 -0.005785713 -0.0077187493
-0.010265488 -0.0057857144 -0.00075852219
-0.0097699137 -0.0057857125 -0.00026136357
-0.010265485 -0.005785713 -0.00026136357
-0.01076106 -0.0057857125 -0.00026136357
-0.0092743365 -0.005785713 -0.0012556827
-0.0092743365 -0.0057857139 -0.00075852242
-0.0082831848 -0.0057857144 -0.0017528418
-0.0077168173 -0.0057857144 -0.0017528418
-0.0082831839 -0.005785713 -0.0012556824
-0.0077168173 -0.0057857148 -0.0077187507
-0.0082831848 -0.0057857144 -0.0077187493
-0.0022654862 -0.005785713 -0.00075852266
-0.0077168159 -0.0057857125 -0.0012556827
-0.0077168182 -0.0057857144 -0.00075852219
-0.0075752214 -0.0034285712 0.0022244318
-0.0075752214 -0.0034285712 0.0017272728
-0.007221241 -0.0037857138 0.0022244328
-0.0092743384 -0.0017857145 -0.00026136357
-0.008778763 -0.0022857147 -0.00026136357
-0.0062300884 -0.0012857141 -0.00026136357
-0.0073628318 -0.0045714285 0.0012301137
-0.0073628318 -0.0045714285 0.0017272728
-0.0073628318 -0.0045714285 0.0022244318
-0.010265485 0.00071428553 -0.0082159098
-0.0097699147 0.00021428568 -0.0082159089
-0.0097699147 0.00071428559 -0.0082159098
-0.0092778197 -0.00079625315 -0.0082764514
0.0042519518 -0.0047731088 -0.008207554
0.0047433632 -0.0052857152 -0.0081448862
0.0047433628 -0.0057857125 -0.0081448862
0.0047366195 -0.0047687059 -0.0081956163
0.0052389386 -0.005785713 -0.0081448862
0.0052389381 -0.0042857151 -0.0082159089
0.0062212381 -0.004767857 -0.0081981532
0.005734514 -0.0042857137 -0.0082159089
0.0047433632 -0.0042857137 -0.0082159089
0.002761062 -0.0047857123 -0.008215908
0.0032566369 -0.0052727289 -0.0081836274
0.0027586203 -0.0052758618 -0.0081816232
-0.010265485 -0.0047857123 -0.0082159089
-0.010761061 -0.0042857151 -0.0082159089
-0.010265486 -0.0042857137 -0.008215908
-0.0067256629 -0.0042857137 -0.008215908
-0.0067256629 -0.0037857143 -0.008215907
-0.0067256638 -0.0052857134 -0.008215908
-0.0077222618 -0.0057582399 -0.0081831282
-0.0072212378 -0.0052857143 -0.0082159098
-0.008778763 0.00071428559 -0.0082159108
-0.0077094925 0.00021428568 -0.0082648899
-0.0082831839 0.00021428568 -0.008215907
-0.0082831839 0.00071428547 -0.0082159089
-0.010761058 0.0012142855 -0.0082159089
-0.010761061 0.00071428559 -0.0082159108
0.010761061 -0.0047602048 -0.0081753246
0.010761064 -0.0052857143 -0.0081448881
0.015716814 -0.004265307 -0.00030194782
0.016000001 -0.0037571429 -0.00028977264
0.016000001 -0.0047857137 -0.00033238623
0.014725661 -0.0042857151 -0.0022500004
0.014631268 -0.0052857152 -0.0017528408
0.0022654866 0.0057857125 -0.00026136357
0.0022654864 0.0052857138 -0.00026136357
0.0032566369 0.0057857125 -0.00026136357
0.0037522144 0.0057857139 -0.00075852219
0.004247786 0.005785713 -0.00075852266
0.0082831839 0.005785713 -0.00026136357
0.0092743356 0.005785713 -0.00026136357
0.010761063 0.0052857138 -0.00026136357
-0.0032566369 -0.00078571419 -0.00026136357
-0.0027610618 -0.00028571428 -0.00026136357
0.0022654859 -0.003785714 0.0027215919
0.00021238929 -0.001285714 -0.00026136357
0.00021238929 -0.0017857141 -0.00026136357
0.00077876094 -0.0017857143 -0.00026136357
-0.00028318574 -0.00078571419 -0.00026136357
0.00021238928 -0.00078571431 -0.00026136357
-0.0012743361 -0.00078571413 -0.00026136357
-0.00077876123 -0.00028571428 -0.00026136357
-0.00077876094 -0.00078571431 -0.00026136357
-0.0032566367 -0.0017857142 -0.00026136357
-0.0027610622 -0.0017857148 -0.00026136357
-0.0032566367 -0.0022857147 -0.00026136357
-0.0027610625 -0.001285714 -0.00026136357
-0.00077876111 -0.001285714 -0.00026136357
-0.0012743361 -0.0012857142 -0.00026136357
-0.0022654864 -0.0012857142 -0.00026136357
-0.0052389372 -0.00078571442 -0.0082869334
-0.004247786 -0.00078571431 -0.0082869334
-0.0037522144 0.00021428571 -0.0082869316
-0.0042477865 -0.00028571428 -0.0082869316
-0.0067256629 0.005785713 -0.0072215893
-0.006230087 0.0057857125 -0.0072215912
-0.0067256605 0.0057857144 -0.0067244321
-0.0092743356 0.0057857125 -0.0081448862
-0.0097699128 0.0052857157 -0.0081448881
-0.006725661 0.0057857144 -0.0077187507
-0.0082831839 0.0057857148 -0.0077187493
-0.0072212387 0.0057857125 -0.0072215903
0.014725662 -0.0022857147 -0.0082159089
0.014230087 -0.002285714 -0.0082159089
0.0077168169 0.00021428568 -0.0082869316
0.0087787583 0.00021428571 -0.0082869316
0.0087787611 0.00071428553 -0.0082869325
0.008283183 0.00021428571 -0.0082869306
0.0082786651 -0.0002826748 -0.0082823979
0.0077213347 -0.00028267474 -0.008282396
0.014230087 0.00071428553 -0.00026136357
0.01472566 0.00071428559 -0.00026136357
0.014230094 0.0012142853 -0.00026136357
0.016000001 0.0042142859 -0.0082159089
0.016000001 0.0047857142 -0.0082159089
0.016000001 0.0037142858 -0.0082159089
0.015221243 0.0037142858 -0.0082159089
0.015610618 -0.0013214285 -0.0022499999
0.015575222 0.0012857142 -0.0017528408
0.015615677 0.0022653062 -0.0017629869
0.015575222 0.0012857142 -0.0012556817
0.015221238 0.00071428547 -0.0012556822
0.014230093 0.0057857134 -0.0077187493
0.013238939 0.0057857148 -0.0077187493
0.013734516 0.0057857125 -0.0072215903
0.014230087 0.005785713 -0.0072215907
0.015221241 0.005785713 -0.0062272721
0.015707683 0.0057511502 -0.006227273
0.016000001 0.0052857143 -0.0051619317
0.01423009 0.005785713 -0.0012556827
0.015197643 0.0047857137 -0.00030871201
0.016000001 0.0047857142 -0.0012556817
0.015716815 0.0047857151 -0.00033238623
0.015703946 0.0042207791 -0.001255682
0.0075752214 -0.0034285712 0.0022244318
0.0075752214 -0.0034285712 0.0027215909
0.0077168178 -0.0037857133 0.0027215923
0.010761061 -0.0032857137 -0.00026136357
0.011256638 -0.0037857136 -0.00026136357
0.010761059 -0.003785715 -0.00026136357
0.014725661 -0.0022857147 -0.00026136357
0.01472566 -0.0017857142 -0.00026136357
0.01423009 -0.0017857145 -0.00026136357
0.015221235 -0.0027857136 -0.00026136357
0.015221243 -0.002285714 -0.00026136357
0.01472566 -0.0027857134 -0.00026136357
0.01423009 -0.0027857141 -0.00026136357
0.014725661 -0.0032857137 -0.00026136357
0.015221243 -0.0017857145 -0.00026136357
0.014230089 -0.0032857137 -0.00026136357
0.013734516 -0.0047857137 -0.00026136357
0.013734516 -0.0042857151 -0.00026136357
0.014230087 -0.0042857137 -0.00026136357
0.013734516 -0.0052857143 -0.00026136357
0.014230089 -0.0052857129 -0.00026136357
0.014230092 -0.0037857138 -0.00026136357
0.014725661 -0.0042857151 -0.00026136357
0.005734514 -0.0017857143 -0.00026136357
0.0057345135 -0.0012857139 -0.00026136357
0.0062300875 -0.0017857142 -0.00026136357
0.0047433623 -0.00028571422 -0.00026136357
0.0047433651 -0.00078571425 -0.00026136357
0.0052389377 -0.00028571425 -0.00026136357
0.0047433642 0.00021428571 -0.00026136357
0.0042477865 -0.00078571419 -0.00026136357
0.0067256619 0.005785713 -0.00026136357
0.0052389367 0.0057857125 -0.00026136357
0.0052389381 0.0052857152 -0.00026136357
0.0052389367 0.005785713 -0.00075852266
0.0067256643 0.0052857134 -0.00026136357
0.0067256596 0.0057857139 -0.00075852219
0.0072212406 0.005785713 -0.00075852266
0.0052389372 -0.00078571419 -0.00026136357
0.0057345149 -0.00078571425 -0.00026136357
0.006230088 0.0027857136 -0.00026136357
0.011256638 0.0057857139 -0.0037414788
0.011752216 0.0057857125 -0.0032443181
0.012247782 0.0057857144 -0.0037414785
0.012247787 0.0057857144 -0.0027471581
0.012743361 0.005785713 -0.0037414785
0.012247787 0.005785713 -0.0042386372
0.011752215 0.0057857125 -0.002747159
0.012247786 0.005785713 -0.0022500004
0.0082831839 0.0057857125 -0.0022500004
0.0087787611 0.0057857125 -0.0022500004
0.0087787574 0.005785713 -0.0017528413
0.0082831839 0.005785713 -0.0012556827
0.0047433637 0.0032857137 -0.00026136357
0.0047433632 0.0037142858 -0.00026136357
0.005734514 0.0032857137 -0.00026136357
0.0052389381 0.0037142858 -0.00026136357
0.0047433642 0.0042142835 -0.00026136357
0.0052389372 0.0042142849 -0.00026136357
0.0032566367 -0.0057857125 -0.00026136357
0.0026902652 -0.0045714285 0.00073295459
0.002761062 -0.005785713 -0.00026136357
0.0027610618 -0.0052857138 -0.00026136357
-0.0037522137 -0.005785713 -0.00026136357
-0.0037522144 -0.0057857139 -0.00075852219
-0.0042477865 -0.0057857125 -0.00026136357
-0.0032566364 -0.0057857125 -0.00026136357
-0.0023362832 -0.0045714285 0.0027215909
0.0077168173 -0.0037857138 0.00073295459
0.0077168173 -0.0037857138 0.0012301141
0.011256637 -0.003285714 -0.008215908
0.011752215 -0.003785714 -0.0082159089
0.011752216 -0.003285714 -0.0082159089
0.0072212392 0.00021428574 -0.0082869334
0.0072256629 -0.00027232143 -0.0082602985
0.010265485 -0.0037857138 -0.0082159089
0.0092743374 -0.0042857137 -0.0082159089
0.0097699147 -0.003785714 -0.008215908
0.010761059 -0.003785714 -0.0082159089
0.010265486 -0.0057857125 -0.0081448872
0.010265486 -0.0052857143 -0.0081448881
0.008778763 -0.0042857151 -0.0082159098
0.0082831848 -0.0057857125 -0.0081448853
0.008778763 -0.005785713 -0.0081448862
0.0087787621 -0.0052857143 -0.0081448881
0.0082831839 -0.0052857152 -0.0081448862
0.0097699147 0.00071428553 -0.0082869306
0.011752215 0.0047857137 -0.0082159098
0.012247786 0.0052857129 -0.008215908
0.012247787 0.0047857123 -0.008215907
0.01472566 0.0047857137 -0.0082159089
0.013734516 0.0017142856 -0.0082159098
0.013734516 0.0012142855 -0.0082159089
0.015216299 0.0012026574 -0.00819939
0.015575222 0.00066666672 -0.0082159089
0.006230087 -0.0032857137 -0.00026136357
0.005734513 -0.0027857136 -0.00026136357
0.005734514 -0.003285714 -0.00026136357
0.0072212387 -0.0037857145 0.00073295459
0.0073628318 -0.0034285716 0.00073295459
0.0075752214 -0.0034285712 0.00073295459
0.0067256633 -0.0027857136 -0.00026136357
-0.015787613 0.0047857137 -0.00033238623
-0.01472566 -0.00028571428 -0.00026136357
-0.01423009 0.00021428571 -0.00026136357
-0.01472566 0.00021428571 -0.00026136357
-0.014230089 -0.00028571428 -0.00026136357
-0.013734517 0.00021428571 -0.00026136357
-0.013734515 -0.00028571425 -0.00026136357
-0.01522124 -0.001285714 -0.00026136357
-0.01557522 -0.00078571431 -0.00026136357
-0.015221238 -0.00078571425 -0.00026136357
-0.012712386 -0.003839286 0.0031788009
-0.012642225 -0.003938776 0.0036550327
-0.012703717 -0.0042571435 0.0031761369
-0.015008851 -0.0047857142 -0.00026136357
-0.015205254 -0.00427189 -0.00028427411
-0.015801772 -0.0042714295 -0.00028977264
-0.015716817 0.0027857134 -0.0012556822
-0.010761063 -0.0022857147 -0.00026136357
-0.015575222 -0.0022857143 -0.0032443181
-0.015008851 -0.0042857151 -0.002747159
-0.015646018 -0.0035714286 -0.002747159
-0.01500885 -0.0042857141 -0.0022499999
-0.014725662 -0.0052857138 -0.0022500004
-0.012247785 0.0057857139 -0.00075852219
-0.014725662 0.0057142843 -0.001255682
-0.015221237 0.0057142838 -0.0047357962
-0.01522124 0.0057142838 -0.0042386372
-0.014230091 0.0057857139 -0.0047357962
-0.015221238 0.0057142838 -0.0052329539
-0.015716814 0.005642856 -0.0072215903
-0.015716814 0.005642856 -0.0062272716
-0.011256642 0.005785713 -0.0022500004
-0.0092743365 0.0057857144 -0.00075852219
-0.0097699137 0.0057857125 -0.00026136357
-0.008778763 0.0052857143 -0.00026136357
-0.0082831848 0.0052857134 -0.00026136357
-0.0087787611 0.0057857125 -0.00026136357
-0.0092743346 0.0052857134 -0.00026136357
-0.0087787574 0.0057857125 -0.00075852266
-0.0037522144 0.0057857139 -0.0037414785
-0.0037522148 0.0057857144 -0.0017528418
0.0067331162 -0.00027819548 -0.0082308622
0.0062300884 -0.00028571425 -0.0082159089
0.0062300875 -0.00078571419 -0.0082159089
0.0067256619 -0.00078571425 -0.008215908
0.0032566367 0.0052857143 -0.00026136357
0.00077876099 0.0057857125 -0.00026136357
0.012307256 -0.0042285719 0.0031590918
0.010265485 0.0052857134 -0.00026136357
0.0082831848 0.0052857134 -0.00026136357
0.0077168164 0.0047857123 -0.00026136357
0.008778763 0.0052857138 -0.00026136357
0.0087787611 0.0047857137 -0.00026136357
0.012261946 -0.0037999991 0.0027215919
0.012267095 -0.0042727273 0.0027215919
0.012267095 -0.0042727259 0.0022244323
0.0076711914 -0.0038317463 0.0031792941
-0.011256639 0.0037142863 -0.00026136357
-0.010265484 0.0012142851 -0.00026136357
-0.0097699137 0.0012142854 -0.00026136357
-0.0097699147 0.0017142856 -0.00026136357
-0.010265485 -0.00028571431 -0.00026136357
-0.011256639 0.00021428568 -0.00026136357
-0.010761063 -0.00028571425 -0.00026136357
-0.011256638 -0.00028571425 -0.00026136357
-0.0097699147 0.00071428565 -0.00026136357
-0.0092743346 0.0012142851 -0.00026136357
-0.008778763 0.0017142856 -0.00026136357
-0.0087787611 0.0012142855 -0.00026136357
-0.008778763 0.00071428559 -0.00026136357
-0.0087787639 -0.00028571428 -0.00026136357
-0.0097699147 -0.00078571419 -0.00026136357
-0.0077168145 -0.00028571425 -0.00026136357
-0.0057345144 -0.00028571425 -0.00026136357
-0.01076106 -0.0017857142 -0.00026136357
0.015716817 -0.0017857144 -0.00026136357
0.015716817 -0.0022857147 -0.00026136357
0.015646018 -0.0012857142 -0.00026136357
-0.012743359 0.00071428559 -0.00026136357
-0.013238939 0.00071428553 -0.00026136357
-0.012743359 0.00021428571 -0.00026136357
-0.012247787 0.0012142851 -0.00026136357
-0.013734517 0.0022142855 -0.00026136357
-0.014230087 0.0037142863 -0.00026136357
-0.01076106 0.0027857134 -0.00026136357
-0.011256636 0.0022142846 -0.00026136357
-0.01125664 0.0027857136 -0.00026136357
-0.010265485 0.0022142848 -0.00026136357
-0.01076106 0.0032857137 -0.00026136357
-0.0092743374 0.0037142858 -0.00026136357
-0.014725661 0.00071428559 -0.00026136357
-0.01522124 0.00071428553 -0.00026136357
-0.014230089 0.0017142856 -0.00026136357
-0.013734517 0.0012142854 -0.00026136357
-0.013734516 0.0017142856 -0.00026136357
-0.01323894 0.001214285 -0.00026136357
0.011752215 0.0057857125 -0.0012556822
0.011256638 0.0057857125 -0.0012556827
0.011752215 0.005785713 -0.00075852266
0.012247787 0.005785713 -0.0012556827
0.015707375 0.0042190459 -0.0077045453
0.01566962 0.0042380947 -0.0067244312
0.01566962 0.0042380961 -0.0072215893
0.015716815 0.0047857151 -0.0081448862
0.015696589 0.0042244904 -0.008155033
0.015221241 0.005785713 -0.0042386367
0.015221237 0.0057857134 -0.0052329549
-0.012743362 0.005785713 -0.0081448872
-0.013238939 0.0057857148 -0.0067244316
0.015221239 0.0057857144 -0.0057301135
0.014230093 0.0057857144 -0.005730113
-0.015221239 0.0056785708 -0.0081093758
-0.015699115 0.0056250002 -0.0081093749
-0.014692988 0.0057142857 -0.0081175705
-0.0067256647 -0.002285714 -0.00026136357
-0.0072212378 -0.0022857147 -0.00026136357
-0.0047433637 -0.0027857136 -0.00026136357
-0.0052389377 -0.0022857147 -0.00026136357
-0.0047433628 -0.002285714 -0.00026136357
-0.00028318577 -0.0052857143 -0.00026136357
0.00021238934 -0.005785713 -0.00026136357
-0.00028318577 -0.0057857125 -0.00026136357
-0.00077876105 -0.005785713 -0.00026136357
-0.0069380533 -0.0042380951 0.0023428034
-0.0057345144 -0.0032857137 -0.00026136357
-0.0052389372 -0.0047857133 -0.00026136357
-0.0047433628 -0.0052857134 -0.00026136357
-0.0022969525 -0.0042698421 0.003174033
0.0047433637 -0.0052857138 -0.00026136357
0.0047433642 -0.0047857123 -0.00026136357
0.0052389372 -0.0047857137 -0.00026136357
0.0052389377 -0.0052857152 -0.00026136357
0.012247787 0.0042142835 -0.00026136357
0.011752214 0.0037142858 -0.00026136357
0.011752215 0.0042142849 -0.00026136357
0.0052389381 -0.0032857137 -0.00026136357
0.0026808258 -0.0042619053 0.003185607
0.0027003791 -0.0042806128 0.0027266648
0.012247789 0.005785713 -0.0032443171
0.01472566 0.0057857125 -0.0032443181
0.014230092 0.005785713 -0.0032443181
0.013734517 0.0057857125 -0.0032443181
0.012743359 0.005785713 -0.00075852266
0.013734516 0.0057857125 -0.0052329544
0.014230091 0.005785713 -0.0052329539
0.015221238 0.0012142851 -0.00026136357
0.015603539 0.0012571429 -0.00026136357
0.015221238 0.0017142855 -0.00026136357
0.01472566 0.0012142853 -0.00026136357
0.01571309 0.0057293214 -0.0027508973
0.015711933 0.0057339882 -0.003234522
0.016000001 0.0047857142 -0.0049488638
0.0097699137 0.0057857125 -0.0012556822
0.0092743365 0.005785713 -0.0012556824
0.013734517 0.0057857125 -0.0022500004
0.01423009 0.005785713 -0.0022500004
0.012247785 0.0047857123 -0.00026136357
0.013734513 0.0057857125 -0.00075852266
0.014230087 0.0052857134 -0.00026136357
0.013238939 0.0052857138 -0.00026136357
-0.011752216 -0.003785714 -0.008215908
-0.011256639 -0.0037857138 -0.008215907
-0.011245113 -0.0022890358 -0.0082621565
-0.012247786 -0.0037857145 -0.0082159089
-0.013734516 -0.0052857152 -0.0082159089
-0.011757272 -0.0022908167 -0.0082260547
-0.015221242 -0.00028571428 -0.0072215903
-0.015575222 -0.00028571428 -0.0081981532
-0.01557522 -0.00028571428 -0.0079318183
-0.015575221 -0.00064285717 -0.0081448862
-0.01423009 -0.0017857145 -0.0082159089
-0.014230087 -0.002285714 -0.0082159089
-0.014725661 -0.0022857147 -0.0082159098
-0.013238939 -0.001285714 -0.0082159089
-0.01274336 -0.0012857142 -0.0082159089
-0.012743361 -0.00028571425 -0.0082159108
-0.013721645 -0.0057792189 -0.0082029952
-0.013734516 -0.0047857137 -0.0082159098
-0.014721495 -0.0047731088 -0.0082075531
-0.015575222 -0.0022857143 -0.006227273
-0.015631858 -0.0033142853 -0.0062272716
-0.01557522 -0.002285714 -0.0067244321
-0.015646018 -0.0035714286 -0.0067954548
-0.015631858 -0.0036285713 -0.0061704544
-0.015635904 -0.0036122447 -0.0056590913
-0.014678465 -0.0057619028 -0.0067244316
-0.015221239 -0.00028571428 -0.0067244326
-0.015741803 -0.0032941173 -0.0081741316
-0.01560354 -0.0027857148 -0.0077329562
-0.013238944 -0.00028571425 -0.0082159089
-0.013734516 0.00021428568 -0.0082159089
-0.01500885 -0.004809523 -0.0081685605
-0.015575222 0.00028571428 -0.0072215912
-0.013238938 -0.0027857136 -0.008215907
-0.014725661 -0.0032857137 -0.0082159089
-0.014230089 -0.003285714 -0.008215908
-0.005734514 -0.002285714 -0.00026136357
-0.0032566367 0.0012142855 -0.00026136357
-0.0037522141 0.0012142853 -0.00026136357
-0.0037522134 0.0017142856 -0.00026136357
-0.0017699114 0.00021428571 -0.00026136357
-0.003752212 -0.002285714 -0.00026136357
-0.0037522137 -0.0017857146 -0.00026136357
-0.0052389367 -0.0017857142 -0.00026136357
-0.0047433632 -0.00078571431 -0.00026136357
-0.003752213 -0.001285714 -0.00026136357
-0.0032566371 -0.0012857142 -0.00026136357
-0.0042477865 -0.0017857142 -0.00026136357
-0.0052389367 0.0022142855 -0.00026136357
-0.0052389372 0.0027857134 -0.00026136357
-0.0057345144 0.0022142846 -0.00026136357
-0.006230088 0.00071428559 -0.00026136357
-0.0057345149 0.0027857136 -0.00026136357
-0.0067256656 0.0032857137 -0.00026136357
-0.0072212378 0.0037142858 -0.00026136357
-0.0067256643 0.0037142858 -0.00026136357
-0.0097699147 0.0022142855 -0.00026136357
-0.0087787639 0.0037142858 -0.00026136357
-0.0092743346 0.0042142835 -0.00026136357
-0.008778763 0.0032857137 -0.00026136357
-0.0087787602 0.0027857134 -0.00026136357
-0.0092743384 0.0022142848 -0.00026136357
-0.005734514 -0.00078571425 -0.00026136357
-0.0042477869 0.0012142855 -0.00026136357
-0.0042477874 0.0017142856 -0.00026136357
-0.0047433628 0.0017142856 -0.00026136357
-0.0047433628 0.00021428568 -0.00026136357
-0.0047433628 0.00071428553 -0.00026136357
-0.0052389381 0.00071428559 -0.00026136357
-0.0037522134 0.00071428553 -0.00026136357
-0.012743359 0.0052857138 -0.00026136357
-0.01323894 0.0037142858 -0.00026136357
-0.010265489 0.0057857139 -0.0017528418
-0.0072212387 0.0042142849 -0.00026136357
-0.0077168164 0.0047857123 -0.00026136357
-0.0082831839 0.005785713 -0.00026136357
-0.006230088 0.0057857125 -0.0012556822
-0.0057345163 0.0057857144 -0.0017528415
-0.0057345144 0.005785713 -0.0022500004
-0.0052389372 0.0057857125 -0.0017528415
-0.0047433609 0.0057857139 -0.00075852219
-0.0052389377 0.0057857125 -0.00026136357
-0.0047433646 0.005785713 -0.00026136357
-0.0047433614 0.0057857139 -0.0017528418
-0.0052389372 0.0057857125 -0.0012556822
-0.0042477874 0.0057857125 -0.0022500004
-0.011256639 0.0052857134 -0.00026136357
-0.011752215 0.0047857137 -0.00026136357
-0.0082831848 0.0057857139 -0.0017528418
-0.0082831839 0.0057857125 -0.0012556824
-0.0087787602 0.0057857125 -0.0012556822
-0.0087787583 0.005785713 -0.0017528415
-0.010761061 0.0057857125 -0.0052329553
-0.011256638 0.0057857125 -0.0052329539
-0.011256634 0.0057857144 -0.0057301135
0.013238941 0.0057857125 -0.0052329549
-0.0067256601 0.0057857144 -0.0017528418
-0.0067256601 0.0057857148 -0.003741479
-0.010270666 0.004188152 -0.0081916563
-0.011275269 0.0041954876 -0.0081785284
-0.011256639 0.0047857142 -0.0081448862
-0.010755617 0.0037087912 -0.0082104467
-0.010755399 0.0042057149 -0.0081534088
-0.011752215 0.0047857151 -0.0081448862
-0.0077168169 0.0057857148 -0.0057301135
-0.0057345163 0.0057857148 -0.0057301135
-0.012743358 0.0057857125 -0.0022500004
-0.013238939 0.0057857144 -0.0027471585
-0.01323894 0.0057857125 -0.0022500004
-0.01274336 0.0057857125 -0.002747159
-0.013734516 0.0057857125 -0.0072215893
-0.013734511 0.005785713 -0.0067244326
-0.014230088 0.0052857143 -0.0081448862
-0.01423009 0.0057857144 -0.0057301135
-0.014230091 0.005785713 -0.0062272735
-0.013238938 0.0057857139 -0.0057301125
-0.013238939 0.0057857144 -0.0047357967
-0.014230092 0.005785713 -0.0072215889
-0.01472566 0.0057142838 -0.0077187503
-0.014230094 0.0057857139 -0.0037414785
-0.015221242 0.0057142838 -0.0037414778
-0.014230087 0.0047857142 -0.0081448862
-0.013734515 0.0052857148 -0.0081448872
-0.013238937 0.0052857152 -0.0081448862
-0.013734515 0.0047857151 -0.0081448862
-0.014725661 0.00071428565 -0.0082159089
-0.015221241 0.00021428571 -0.008215907
-0.014725662 0.00021428568 -0.008215908
-0.01575675 0.0028021969 -0.008190413
-0.015733 0.0022122448 -0.0081956163
-0.015779747 0.0032698407 -0.0081685595
-0.015219727 0.0022188441 -0.0082128849
-0.01472566 0.0012142855 -0.0082159089
-0.01423009 0.0012142853 -0.0082159089
-0.015646018 0.00071428565 -0.0082159098
-0.015646018 0.0017142856 -0.0072215912
-0.015688499 0.0017142856 -0.0077471598
-0.015221238 -0.00078571448 -0.0057301139
-0.01557522 -0.0022857145 -0.0057301144
-0.015575222 0.00071428571 -0.006227273
-0.01557522 0.00071428571 -0.0057301135
-0.013238939 0.0012142853 -0.0082159089
-0.012247787 0.0047857137 -0.0081448853
-0.012235293 0.0042058821 -0.00815742
-0.012743359 0.0047857151 -0.0081448872
-0.0097699156 0.0057857125 -0.0077187507
-0.010265485 0.0052857143 -0.0081448872
-0.010265485 0.0047857142 -0.0081448872
-0.0097644674 0.0047692317 -0.0081612756
-0.013734516 -0.0057857125 -0.0072215912
-0.013238938 -0.0057857134 -0.0077187493
-0.013238937 -0.005785713 -0.0072215903
-0.015646018 -0.0036071427 -0.0042386362
-0.01472566 -0.0052857143 -0.0042386358
-0.015640572 -0.0036373625 -0.0047412585
-0.01500885 -0.0042857146 -0.0042386358
-0.015221236 -0.00078571448 -0.0047357953
-0.015221242 -0.0012857137 -0.0047357958
0.015716812 -0.0027857136 -0.002747159
0.014659583 -0.0047523812 -0.0037130679
0.015716815 -0.0027857134 -0.00026136357
0.015221238 -0.0032857137 -0.00026136357
0.015646022 -0.0022857145 -0.0017528408
0.016000001 0.0047857142 -0.0035284092
0.007716815 -0.0057857125 -0.0081448862
0.0072273957 -0.0057763965 -0.0081417989
0.0077168145 -0.0052857152 -0.0081448872
0.0072212392 -0.0052857152 -0.0081448872
0.0052389377 -0.0052857152 -0.0081448881
0.0057345149 -0.0057857125 -0.0081448862
0.0062300884 -0.005785713 -0.0081448872
0.0042477869 -0.005785713 -0.0081448862
0.0027610622 -0.0057857125 -0.0081448872
0.0032566364 -0.005785713 -0.0081448862
-0.0037522144 -0.0057857144 -0.0077187498
-0.0037576593 -0.0057582399 -0.0081831291
0.0077168145 -0.0042857137 0.0027215919
0.014654866 -0.0042857151 -0.0047357944
0.015716814 -0.0031428572 -0.0040965909
0.015716814 -0.0031428572 -0.0052329549
0.015190898 -0.0059183678 -0.0053750006
0.013734516 -0.0057857125 -0.0072215912
0.014230087 -0.0057857125 -0.0081448872
0.013734515 -0.0052857152 -0.0081448872
0.014697347 -0.0042857146 -0.0081306826
-0.010271554 -0.005767345 -0.0081631495
-0.011256639 -0.0032857137 -0.008215908
-0.010761061 -0.003785715 -0.0082159089
-0.01472566 -0.0052857129 -0.002747159
-0.014678464 -0.0057619032 -0.0032443181
-0.014678461 -0.0057619028 -0.002747159
-0.014230089 -0.0057857144 -0.0037414783
-0.014678461 -0.0057619028 -0.0037414776
-0.01423009 -0.0057857139 -0.0057301158
-0.014678462 -0.0057619032 -0.0052329544
-0.014725659 -0.0052857129 -0.0037414772
-0.01472566 -0.0052857134 -0.0057301144
-0.015008851 -0.0042857146 -0.0057301135
-0.01500885 -0.0042857146 -0.006227273
-0.015008851 -0.0042857146 -0.0067244316
-0.01472566 -0.0052857143 -0.0052329535
-0.01563186 -0.0033142855 -0.0052329539
-0.01238938 -0.0045714285 0.00073295459
-0.011752216 -0.0057857125 -0.00026136357
-0.012247787 -0.0057857125 -0.00026136357
-0.012637168 -0.0041785715 0.0036093751
-0.0097699147 -0.0047857137 -0.00026136357
-0.010265485 -0.0052857134 -0.00026136357
-0.0097699147 -0.0052857143 -0.00026136357
-0.010265485 -0.0047857123 -0.00026136357
-0.0042477874 -0.0057857125 -0.0012556822
-0.0037522141 -0.0057857125 -0.0012556827
-0.0082831839 -0.0057857144 -0.00075852219
-0.0082831839 -0.005785713 -0.00026136357
-0.0092743365 -0.005785713 -0.00026136357
-0.0077168164 -0.005785713 -0.00026136357
-0.013734518 -0.0042857151 -0.00026136357
-0.014230089 -0.0042857137 -0.00026136357
-0.014678465 -0.0057619032 -0.0022500004
-0.0082883639 -0.0057595796 -0.0081916563
0.001760472 -0.0052666659 -0.0081874998
0.0022654866 -0.005785713 -0.0081448862
0.01323894 -0.005785713 -0.0072215907
0.012743359 -0.0057857125 -0.0072215912
0.015750131 -0.0057899151 -0.0077312845
0.011256639 -0.005785713 -0.0072215875
0.011752215 -0.0057857125 -0.0072215903
0.011256634 -0.0057857139 -0.0067244307
0.013734513 -0.005785713 -0.0037414785
0.014230093 -0.0057857144 -0.0037414783
0.013734518 -0.0057857125 -0.0042386362
0.014230093 -0.0057857144 -0.0047357962
0.01423009 -0.0057857125 -0.0052329539
0.013734516 -0.0057857125 -0.0052329549
0.014666664 -0.0047559533 -0.0042563914
-0.01423009 -0.0057857125 -0.00026136357
-0.013734511 -0.005785713 -0.0017528415
-0.013238938 -0.0057857139 -0.0017528418
-0.013238939 -0.005785713 -0.0012556827
-0.0017608351 -0.0057655657 -0.0081831291
-0.0012712579 -0.005782607 -0.0077280118
-0.0022705437 -0.0057704067 -0.0081753246
-0.0042477865 -0.0057857125 -0.0072215912
-0.0027553216 -0.0057876427 -0.008173679
-0.01323894 -0.005785713 -0.00026136357
-0.013238937 -0.0057857144 -0.00075852242
-0.013734511 -0.005785713 -0.00075852266
-0.012743358 -0.0057857125 -0.0012556822
-0.012743364 -0.005785713 -0.0017528415
-0.012743358 -0.0057857125 -0.0062272726
-0.0037522148 -0.0057857144 -0.006724433
-0.0042477865 -0.0057857125 -0.0062272726
-0.0037522141 -0.005785713 -0.0062272735
-0.003256636 -0.005785713 -0.0067244326
-0.010761058 -0.0057857125 -0.0022500004
-0.010265485 -0.005785713 -0.0022500004
-0.010265488 -0.0057857144 -0.0027471571
-0.01224779 -0.005785713 -0.006227273
-0.0047433614 -0.0057857144 -0.0057301149
-0.0042477865 -0.0057857125 -0.0057301149
-0.0052338811 -0.0057602026 -0.0081753256
-0.011256639 -0.0057857144 -0.0067244326
-0.011256639 -0.0057857125 -0.00026136357
-0.01125664 -0.0057857144 -0.00075852219
-0.011752215 -0.0057857125 -0.00075852266
-0.012310001 -0.0042597405 0.0031821635
-0.0097699147 -0.0057857125 -0.0022500004
-0.0097699156 -0.005785713 -0.002747159
-0.0092743356 -0.0057857144 -0.0027471576
-0.0082831839 -0.0057857125 -0.0072215921
-0.0067256601 -0.0057857139 -0.0067244321
-0.0062300875 -0.005785713 -0.0067244321
-0.0062300875 -0.0057857125 -0.0062272735
-0.0067256615 -0.0057857125 -0.006227273
-0.010265485 -0.005785713 -0.0012556827
-0.0097699147 -0.005785713 -0.00075852266
-0.0082831839 -0.005785713 -0.0022500004
-0.0072212387 -0.0057857125 -0.0072215912
-0.0072212406 -0.005785713 -0.0067244326
-0.0012743357 -0.005785713 -0.00075852266
-0.0012743361 -0.0057857125 -0.00026136357
-0.0017699114 -0.005785713 -0.00026136357
-0.003256636 -0.005785713 -0.00075852266
-0.0072212406 -0.0057857134 -0.0017528415
-0.0087787611 -0.0017857142 -0.00026136357
-0.0082831839 -0.0017857145 -0.00026136357
-0.0082831839 -0.002285714 -0.00026136357
-0.005734513 -0.0052857134 -0.00026136357
-0.0075752214 -0.0045714285 0.0022244318
-0.0087787602 0.00021428571 -0.008215908
-0.010767965 -0.0017839721 -0.0082505532
-0.010761061 0.0032857137 -0.0082159098
-0.011256638 0.0032857137 -0.008215908
-0.011752216 0.0032857137 -0.0082159098
-0.010265485 0.0037142863 -0.0082159089
-0.010265486 0.0032857137 -0.008215908
-0.0092743365 0.00021428568 -0.008215908
-0.0092743365 -0.00028571422 -0.0082159089
0.0067256633 0.0037142858 -0.008215908
0.0067256647 0.0032857137 -0.008215908
0.0072212392 0.0037142858 -0.0082159108
0.0072212378 0.0032857137 -0.0082159089
0.0077168164 0.0032857137 -0.008215908
0.0077168145 0.0037142853 -0.008215908
0.012247785 -0.0057857144 -0.0067244312
0.012247783 -0.005785713 -0.0072215889
0.012743359 -0.0057857125 -0.006227273
0.012247785 -0.0057857125 -0.006227273
0.0022654866 -0.0052653067 -0.0081753256
-0.0072212392 -0.0022857143 -0.0082869325
-0.0067256601 -0.0022857133 -0.0082869297
-0.006725661 -0.0017857149 -0.0082869288
-0.0072212419 -0.00078571419 -0.0082869316
-0.0077191018 -0.00079032272 -0.0082800584
-0.0072212387 -0.00028571425 -0.0082869334
-0.0077168164 -0.0012857137 -0.0082869316
-0.0067256633 -0.0047857123 -0.008215907
-0.0052389377 -0.0042857151 -0.0082159108
-0.0052389372 -0.0047857137 -0.008215908
-0.0072212392 -0.0042857151 -0.0082159098
-0.0082831839 0.0012142851 -0.008215908
-0.010265485 0.00021428568 -0.008215907
-0.010272938 -0.00029323305 -0.0082308603
0.0092743337 -0.0047857142 -0.0081448862
0.015716817 -0.0042857151 -0.0006875
0.014666664 -0.0047559529 -0.0032620737
0.014654866 -0.0052857152 -0.0022500004
0.014615534 -0.0057301577 -0.0017528406
0.014230091 -0.0057857139 -0.0017528415
0.015190898 -0.0059183678 -0.0006875
0.014631268 -0.0057380944 -0.0022500004
0.0022654862 0.005785713 -0.00075852266
0.0022654859 0.0057857125 -0.0012556822
0.0042477865 0.0057857125 -0.0012556822
0.0047433637 0.005785713 -0.0012556824
0.011752214 0.0052857143 -0.00026136357
-0.0017699114 0.0027857136 -0.00026136357
-0.0012743361 0.003285714 -0.00026136357
-0.0017699113 0.0032857137 -0.00026136357
-0.0022654864 0.0032857137 -0.00026136357
-0.0022654864 0.0027857134 -0.00026136357
-0.0017699113 0.0037142858 -0.00026136357
-0.0012743361 0.0037142858 -0.00026136357
0.0022654866 -0.0042857151 0.0027215919
0.0023362832 -0.0034285712 0.0027215909
0.0023362832 -0.0034285712 0.0022244318
0.00077876094 -0.00078571425 -0.00026136357
0.00021238934 -0.00028571425 -0.00026136357
0.0012743364 -0.00078571419 -0.00026136357
0.001274336 -0.00028571428 -0.00026136357
0.0017699117 -0.00028571428 -0.00026136357
0.0017699114 -0.00078571431 -0.00026136357
-0.0027610618 -0.002285714 -0.00026136357
-0.0017699113 -0.001285714 -0.00026136357
-0.0026194688 -0.0034285712 0.0022244318
-0.0022654866 -0.0017857142 -0.00026136357
-0.00028318574 -0.0012857142 -0.00026136357
-0.00028318577 -0.00028571425 -0.00026136357
-0.0062300875 -0.00078571431 -0.0082869316
-0.006230088 -0.001285714 -0.0082869325
-0.0067256619 -0.0012857137 -0.0082869316
-0.0067256605 -0.00078571442 -0.0082869297
-0.0057345149 -0.0012857137 -0.0082869316
-0.0052389367 -0.0017857143 -0.0082869316
-0.0052389372 -0.001285714 -0.0082869316
-0.0047433604 -0.00078571442 -0.0082869306
-0.008778763 0.005785713 -0.0081448862
-0.0062300875 0.005785713 -0.0077187493
-0.0072212419 0.005785713 -0.0077187479
0.0042477879 -0.0042857151 -0.0082159098
0.0037522125 -0.0042857137 -0.0082159089
0.0022685642 -0.00077639741 -0.0082776677
0.0017699117 -0.00078571454 -0.0082869297
0.0017572042 -0.001278388 -0.0082377614
0.0022654866 -0.0012857142 -0.0082159098
-0.0067256633 0.0057857125 -0.0081448853
-0.0062300875 0.005785713 -0.0081448872
-0.0062300889 0.0052857148 -0.0081448881
-0.0082831848 0.0057857125 -0.0081448862
-0.0072212392 0.005785713 -0.0081448862
-0.0047433637 -0.0052857134 -0.008215908
-0.0042477869 -0.0052857138 -0.0082159089
0.0082767485 -0.0047792206 -0.0081513431
0.0092743374 -0.0057857148 -0.0077187493
0.0087787611 -0.0057857125 -0.0072215903
0.0092743374 -0.005785713 -0.0072215907
0.0092743374 -0.0057857148 -0.0067244316
0.0077168159 -0.005785713 -0.0042386376
0.0082831848 -0.0057857144 -0.0047357953
0.0082831839 -0.005785713 -0.0042386386
0.013734516 0.00071428565 -0.0082159089
0.01423009 -0.0017857148 -0.008215908
0.015221242 -0.002285714 -0.0082159089
0.013734516 -0.0022857147 -0.0082159108
0.0067256587 0.00021428571 -0.0082869306
0.0067256638 -0.0012857141 -0.0082159089
0.014230087 0.00021428571 -0.00026136357
0.01557522 -0.00078571425 -0.0022499999
0.013734511 0.005785713 -0.0077187507
0.015716815 0.0057142838 -0.0067244321
0.015716815 0.0052857152 -0.0062272726
0.013734513 0.005785713 -0.0057301144
0.015713092 0.0057293214 -0.0057338513
0.015575222 -0.00028571431 -0.0032443181
0.01557522 -0.00028571428 -0.0037414769
0.01557522 0.0012857143 -0.0035284092
0.015575222 0.0012857143 -0.0032443181
0.015622417 0.002261905 -0.0022500004
0.016000001 0.0022142858 -0.0082159089
0.015631856 0.0033142853 -0.0062272716
0.015676364 0.003306122 -0.0057301135
0.014725664 0.005785713 -0.0017528415
0.016000001 0.0047857142 -0.0022499999
0.015703946 0.0037142856 -0.0017592979
0.015699118 0.0037142858 -0.0012556817
0.015716817 0.0037142858 -0.00075852289
0.014230088 -0.0042857151 -0.0081448862
0.0075752214 -0.0034285712 0.0017272728
0.0067256619 0.0042142835 -0.00026136357
0.006230088 0.0037142858 -0.00026136357
0.0067256661 0.0037142858 -0.00026136357
0.011256639 -0.0032857137 -0.00026136357
0.012261944 -0.0037999982 0.0012301137
0.01125664 -0.0027857136 -0.00026136357
0.012743362 -0.0037857136 0.0022244328
0.013026549 -0.0039285715 0.0022244318
0.013734516 -0.0017857142 -0.00026136357
0.014230089 -0.0012857139 -0.00026136357
0.013026549 -0.0039285715 0.0017272728
0.012743359 -0.003785714 0.0017272723
0.012743362 -0.0037857138 0.0012301132
0.014654865 -0.0057653044 -0.00074837683
0.014712788 -0.0057792189 -0.00027427683
0.015207078 -0.0057714269 -0.00033238623
0.015221237 -0.0052857152 -0.00033238623
0.015221239 -0.0047857142 -0.00033238623
0.015716817 -0.0047857151 -0.00033238623
0.015205251 -0.00427189 -0.00028427411
0.01472566 -0.0037857145 -0.00026136357
0.01472566 -0.0047857137 -0.00026136357
0.010265485 -0.0042857137 -0.00026136357
0.010265485 -0.0037857143 -0.00026136357
0.013734512 -0.0057857125 -0.00075852266
0.013734517 -0.0057857125 -0.00026136357
0.013238938 -0.005785713 -0.00026136357
0.01323894 -0.0052857134 -0.00026136357
0.013026548 -0.0041428572 0.00073295459
0.013026549 -0.0039285715 0.00073295459
0.013238939 -0.0047857123 -0.00026136357
0.012725662 -0.0042678579 0.00073295459
0.013734516 -0.0037857145 -0.00026136357
0.013734515 -0.0032857137 -0.00026136357
0.006230088 -0.00028571428 -0.00026136357
0.0067256647 -0.00028571425 -0.00026136357
0.0067256619 -0.00078571448 -0.00026136357
0.0062300884 -0.0012857142 -0.00026136357
0.0067256647 -0.001285714 -0.00026136357
0.0037522137 0.0012142853 -0.00026136357
0.0037522125 0.0017142856 -0.00026136357
0.0052389372 0.00021428571 -0.00026136357
0.0052389377 0.00071428559 -0.00026136357
0.0052389372 0.0012142854 -0.00026136357
0.0047433632 0.00071428553 -0.00026136357
0.0042477874 0.00071428559 -0.00026136357
0.0042477865 -0.0017857142 -0.00026136357
0.0047433623 -0.001285714 -0.00026136357
0.0047433632 -0.0017857145 -0.00026136357
0.0042477874 -0.0012857142 -0.00026136357
0.0037522137 -0.0017857145 -0.00026136357
0.0037522125 -0.0012857139 -0.00026136357
0.0037522137 -0.0027857136 -0.00026136357
0.0042477874 -0.0032857137 -0.00026136357
0.0042477874 -0.0027857134 -0.00026136357
0.0037522125 -0.0032857137 -0.00026136357
0.0042477874 -0.00028571425 -0.00026136357
0.0052389372 -0.0017857142 -0.00026136357
0.0026194688 -0.0034285712 0.0027215909
0.0062300875 0.0057857125 -0.00026136357
0.0077168169 0.0057857144 -0.00075852219
0.003256636 0.0022142855 -0.00026136357
0.0032566362 0.0027857134 -0.00026136357
0.0027610625 0.0027857136 -0.00026136357
0.0032566367 -0.00028571425 -0.00026136357
0.0032566371 0.00021428571 -0.00026136357
0.0037522118 -0.00028571425 -0.00026136357
0.0037522125 0.00071428559 -0.00026136357
0.0032566364 0.00071428559 -0.00026136357
0.0027610622 0.00021428568 -0.00026136357
0.0027610622 0.00071428553 -0.00026136357
0.0022654866 -0.00078571419 -0.00026136357
0.0027610618 -0.0012857139 -0.00026136357
0.0022654866 -0.0017857142 -0.00026136357
0.002761062 -0.0017857146 -0.00026136357
0.0052389381 -0.0012857141 -0.00026136357
0.0077168159 0.0042142835 -0.00026136357
0.0082831839 0.0042142835 -0.00026136357
0.010265488 0.0057857139 -0.0027471581
0.01076106 0.0057857125 -0.0032443181
0.010761059 0.0057857125 -0.002747159
0.011256638 0.005785713 -0.0032443181
0.012247791 0.0057857148 -0.0017528418
0.012743359 0.0057857125 -0.0032443181
0.01274336 0.0057857125 -0.002747159
0.0057345144 0.0037142858 -0.00026136357
0.0062300884 0.0032857137 -0.00026136357
0.0032566371 -0.0052857143 -0.00026136357
-0.0022654862 -0.0057857125 -0.0017528415
0.00021238934 -0.0057857139 -0.00075852219
0.00021238934 -0.005785713 -0.0012556827
-0.00028318571 -0.005785713 -0.00075852266
-0.0002690265 -0.0057428554 -0.001255682
0.0023504426 -0.0045714285 0.0026931819
0.0023362832 -0.0045714285 0.0022244323
-0.0023362832 -0.0045714285 0.0022244323
-0.0026773931 -0.004571429 0.0022179754
-0.0026902654 -0.0045714285 0.0027215909
0.002336283 -0.0045714285 0.00073295459
0.0026902652 -0.004571429 0.0012301137
0.0042477874 -0.0047857137 -0.00026136357
0.0042477869 -0.0052857152 -0.00026136357
0.0037522125 -0.0052857124 -0.00026136357
0.007504425 -0.0045714285 0.0022244318
0.0075044245 -0.0045714285 0.0017272728
0.0077168155 -0.0042857137 0.0017272723
0.012247787 -0.0037694797 -0.0082029942
0.01274336 -0.0032857137 -0.0082159098
0.012738478 -0.0037586209 -0.0081816223
0.012247787 -0.0047857142 -0.0081448862
0.010761063 -0.0032857137 -0.0082159108
0.010265485 -0.0027857134 -0.008215908
0.010761059 -0.0027857134 -0.0082159089
0.010265486 -0.0032857137 -0.008215908
0.01125664 -0.0037857138 -0.0082159061
0.0042477869 0.0017142856 -0.0082869334
0.0037522137 0.0017142864 -0.0082869334
0.004247786 0.0022142848 -0.0082869316
0.0092743365 -0.0057857125 -0.0081448862
0.010273814 -0.0042773108 -0.0082075531
0.0097699128 -0.0042678579 -0.0081981542
0.010757767 0.00023255812 -0.0082621565
0.0077168164 0.00071428559 -0.0082869297
0.0072252834 0.00071020389 -0.0082808444
0.0092743374 0.0012142857 -0.0082869316
0.0097699156 0.0012142853 -0.0082869288
0.0097699147 0.0017142856 -0.0082869306
0.0092743384 0.00071428559 -0.0082869316
0.012743359 0.0047857137 -0.0082159098
0.01274336 0.0052857143 -0.0082159089
0.014725661 0.0052857138 -0.0082159098
0.015203538 0.0041964273 -0.0081875008
0.01125192 0.0012166665 -0.008272728
0.01472566 0.0032857137 -0.0082159098
0.014725661 0.0037142858 -0.0082159098
0.0047433637 -0.0022857143 -0.00026136357
0.006230088 -0.0027857134 -0.00026136357
0.0057345149 -0.002285714 -0.00026136357
0.0067256615 -0.0017857148 -0.00026136357
0.0077168155 -0.002285714 -0.00026136357
0.0077168159 -0.0017857145 -0.00026136357
-0.013238938 0.0047857123 -0.00026136357
-0.013734517 0.0047857137 -0.00026136357
-0.013238938 0.0042142835 -0.00026136357
-0.015787611 0.0037142858 -0.0081448862
-0.015768304 0.0037272729 -0.0072215898
-0.015221236 0.0057142838 -0.0022500004
-0.01522124 -0.00028571428 -0.00026136357
-0.013238939 0.00021428568 -0.00026136357
-0.01323894 -0.00028571428 -0.00026136357
-0.015610618 -0.0013214286 -0.00026136357
-0.015575222 -0.0022857143 -0.0012556817
-0.015646018 -0.0017857142 -0.00026136357
-0.01522124 -0.0012857141 -0.0012556822
-0.015221239 -0.0017857142 -0.00026136357
-0.012743361 -0.0042857151 0.0027215919
-0.01564358 -0.0037684732 -0.00073648128
-0.015773451 -0.0037999994 -0.00026136357
-0.015575222 0.00028571428 -0.0012556817
-0.015008851 -0.0042857146 -0.0017528408
-0.01500885 -0.0042857146 -0.0012556817
-0.015662355 -0.0042527476 -0.00063286698
-0.014725661 -0.0042857151 -0.00026136357
-0.01472566 -0.0037857145 -0.00026136357
-0.015716817 0.0032857137 -0.001255682
-0.015716814 0.0027857136 -0.00075852266
-0.010761061 -0.0012857141 -0.00026136357
-0.015631862 -0.0033142853 -0.002747159
-0.01557522 -0.0027857143 -0.0022499999
-0.015575219 -0.0027857146 -0.0017528406
-0.015631858 -0.0033142855 -0.0022500004
-0.015575219 -0.0027857141 -0.0037414769
-0.012247789 0.005785713 -0.0012556827
-0.012743362 0.0057857125 -0.0017528415
-0.011752214 0.005785713 -0.00075852266
-0.013238936 0.0057857134 -0.0032443171
-0.015716814 0.005642856 -0.0052329535
-0.015716815 0.0056428555 -0.0077187507
-0.015757272 0.0052346936 -0.0081144487
-0.015787605 0.0042142831 -0.0077187498
-0.015787613 0.0042142859 -0.0081448862
-0.015787609 0.0047857123 -0.0052329539
-0.0072212406 0.005785713 -0.00075852266
-0.0097699147 0.0052857143 -0.00026136357
-0.0092743402 0.0047857123 -0.00026136357
-0.0087787611 0.0047857137 -0.00026136357
-0.0097699147 0.0042142849 -0.00026136357
-0.0092743393 0.0057857125 -0.00026136357
0.0037522134 0.0022142851 -0.0082869297
-0.0017699117 0.0057857144 -0.0027471585
-0.0017699114 0.0057857144 -0.0017528418
-0.0022654871 0.0057857125 -0.0022500004
-0.001769911 0.0057857125 -0.0022500004
0.0017699115 0.005785713 -0.0012556827
-0.0057345149 0.0057857139 -0.0037414783
-0.005734514 0.005785713 -0.0032443176
-0.0057345158 0.0057857144 -0.0047357972
-0.0067256605 0.0057857139 -0.0047357958
-0.006230088 0.0057857125 -0.0052329549
-0.005734513 0.005785713 -0.0052329544
-0.0052389377 0.0057857125 -0.0042386367
-0.005734513 0.005785713 -0.0042386386
-0.006230088 0.0057857125 -0.0047357953
-0.0052389372 0.005785713 -0.0047357953
-0.00474336 0.0057857139 -0.0047357976
-0.0027610629 0.0057857144 -0.0027471585
-0.0037522144 0.0057857139 -0.0027471581
-0.0042477865 0.005785713 -0.002747159
-0.0037522137 0.005785713 -0.0022500004
-0.0047433604 0.0057857139 -0.0037414783
0.0037522137 0.0047857123 -0.00026136357
