# .PCD v0.7 - Point Cloud Data file format
VERSION 0.7
FIELDS x y z
SIZE 4 4 4
TYPE F F F
COUNT 1 1 1
WIDTH 1215
HEIGHT 1
VIEWPOINT 0 0 0 1 0 0 0
POINTS 1215
DATA ascii
-0.097517848 -0.0075861299 -0.0017732596
-0.09811426 -0.007586298 -0.0017732773
-0.099307209 -0.0051586512 -0.0017731721
-0.10049999 -0.0063724616 -0.00058012921
-0.097517848 -0.0051587019 -0.0017731902
-0.09811426 -0.0033379158 -0.0011766595
-0.098114237 -0.0039447616 -0.0011765985
-0.09811426 -0.0045517548 -0.0011767582
-0.097517744 -0.0045518121 -0.0011767517
-0.096324928 -0.0045518079 -0.0011766767
-0.096921377 -0.0045518111 -0.0011766618
-0.096921317 -0.0045517376 -0.001773166
-0.097517811 -0.0039448123 -0.001773301
-0.097517818 -0.0051586023 -0.0011766297
-0.096324913 -0.0051585948 -0.0011766376
-0.096921273 -0.0039449153 -0.0011766986
-0.099307179 -0.0045516291 -0.00058028148
-0.098114192 -0.0057655722 -0.0017731795
-0.036084525 -0.0057655578 -0.0011766483
-0.036084671 -0.0051586446 -0.0011766301
-0.035488117 -0.0057654469 -0.0011767042
-0.034891687 -0.0051586595 -0.0011767913
0.00029819086 -0.0045517893 0.0024024206
-0.00029816706 -0.0045516603 0.0024023117
-0.00089467154 -0.0075861942 -0.0011766911
-0.0026840521 -0.0063724043 -0.0011766409
-0.0032804431 -0.0063724578 -0.0011766772
-0.0068590255 -0.004551806 -0.0011766199
-0.078431785 -0.0051586023 -0.0011767303
-0.074853055 0.005765507 -0.0011767792
-0.071274579 0.0045516416 -0.0005801036
-0.077238835 0.0045516919 -0.0011766395
-0.077835351 0.0045516631 -0.001176747
-0.077835232 0.003944865 -0.0011766348
-0.08499261 0.0051587052 -0.0011766371
-0.080221161 0.0033379409 -0.00058027171
-0.077238835 0.0027309349 -0.001176761
-0.077835262 0.0057655717 -0.001176795
-0.079624712 0.000303418 -0.0011766325
-0.079624556 -0.00030348776 -0.0011766222
-0.079028189 0.00030338787 -0.0011767447
-0.080221146 0.00030346352 -0.00058026612
-0.080221154 -0.0009102851 -0.0011767233
-0.079624631 -0.00091032102 -0.001176646
-0.076045915 -0.0015171417 -0.0011767577
-0.076642394 -0.0015171823 -0.0011767824
-0.07366021 0.0015172202 -0.0011767689
-0.073063865 0.00091029232 -0.0011767349
-0.084396169 0.0033379064 -0.0017732661
-0.084396102 0.0039448212 -0.001773112
-0.08379966 0.0039447504 -0.0017732717
-0.079624578 0.0021241298 -0.0071418118
-0.07962469 0.0033379258 -0.0017731343
-0.078431793 0.0039447346 -0.001176775
-0.084396206 0.00091032707 -0.0011767177
-0.083203234 0.00030352286 -0.0011767186
-0.076642334 -0.0021240411 -0.0011767908
-0.07604599 -0.0033379984 -0.00058020465
-0.075449653 -0.0039449227 -0.0011766008
-0.074853159 -0.0045518051 -0.0011767424
-0.071870938 -0.0045517725 -0.00058020279
-0.073063888 -0.0045516514 -0.0011767293
-0.072467282 -0.0027309828 -0.0011767359
-0.071870863 -0.0027309712 -0.0011765999
-0.071870983 -0.002124208 -0.0011766297
-0.073063865 -0.0039448133 -0.0011767284
-0.073063709 -0.0027310362 -0.0011767875
-0.072467327 -0.0033378329 -0.0011766916
-0.073063813 -0.0051585273 -0.0011766646
-0.072467454 -0.00091042212 -0.0071418062
-0.073063836 -0.00030337172 -0.0071417526
-0.072467409 -0.00030349506 -0.0071418872
-0.07187102 -0.00030346532 -0.007141903
-0.071871005 -0.00091036316 -0.0071418672
-0.07485304 -0.002124158 -0.0011766194
-0.073660307 -0.0027309908 -0.0011766567
-0.069485068 -0.0033378594 -0.001176768
-0.068292342 -0.0027310103 -0.0011767377
-0.068888776 -0.0027311121 -0.0011767223
-0.068888806 -0.0021241589 -0.0011766688
-0.068292275 -0.0021240474 -0.0011766832
-0.070678093 -0.0015173337 -0.00058024842
-0.070678018 -0.0021241801 -0.0005802135
-0.070678003 -0.0027310173 -0.00058017438
-0.069485106 -0.0039448477 -0.0011767577
-0.071274444 -0.0033378832 -0.00058011897
-0.06829235 -0.0015171595 -0.0011766478
-0.071274534 -0.0057654968 -0.00058011664
-0.070678018 -0.008193071 -0.0005800873
-0.068888813 -0.0088000577 -0.0011766567
-0.077835321 -0.0088000009 -0.0011766567
-0.074256703 -0.008193139 -0.0011767452
-0.074853159 -0.0081930095 -0.0011766925
-0.079624712 -0.0087999767 -0.0011766888
-0.080221169 -0.008799986 -0.0011766292
-0.079028197 -0.0087999972 -0.0011767084
-0.06113505 -0.00333796 -0.00058009708
-0.062327929 -0.0051586735 -0.00058022747
-0.062327933 -0.005765521 -0.00058014551
-0.06292434 -0.0039449027 -0.00058013201
-0.065906547 -0.00819303 -0.0011766087
-0.06590651 -0.0087999096 -0.0011767759
-0.065310001 -0.0087999087 -0.0011766292
-0.065309994 -0.0081931138 -0.0011767317
-0.067695789 -0.0081931921 -0.00117674
-0.06113502 -0.0088000549 -0.00058015157
-0.05994213 -0.006979398 -0.0011767233
-0.076045983 -0.0088000931 -0.011317516
-0.075449623 -0.0088000558 -0.011913996
-0.076642379 -0.008799945 -0.011317519
-0.073063709 0.00030339288 -0.0011766506
-0.072467297 0.00030342254 -0.0011767079
-0.072467431 -0.00030353758 -0.0011767102
-0.073660262 0.00030335292 -0.0011766232
-0.071870923 -0.0033379698 -0.0011766632
-0.070678063 0.00091040524 -0.00058027403
-0.070678033 0.0015171655 -0.00058016973
-0.068292245 0.0015172643 -0.0017732554
-0.068888754 0.0015171852 -0.0017733052
-0.062924281 -0.008799932 -0.013106972
-0.061731532 -0.0087999059 -0.013106944
-0.061134938 -0.0087999906 -0.013703471
-0.061134964 -0.0081930635 -0.013703434
-0.033102423 -0.0081932032 -0.0005801809
-0.033102423 -0.0087999078 -0.006545282
-0.032506019 -0.008799999 -0.0065452894
-0.03310246 -0.0087999906 -0.0071417931
-0.032506 -0.0087999422 -0.0071417438
-0.032505989 -0.0087999152 -0.00356266
-0.036681008 -0.0021240544 -0.0011767466
-0.036084533 -0.0027311244 -0.0011767065
-0.027138034 -0.0075861402 -0.0011766809
-0.024155864 -0.0069794073 -0.0005801837
-0.025348566 -0.006979363 -0.0011766041
-0.02534873 -0.0075861486 -0.0011766623
-0.027734408 -0.0087999357 -0.0011766721
-0.028330788 -0.0087999376 -0.0011767489
-0.027137924 -0.0088000419 -0.0011767559
-0.030120198 -0.0087999227 -0.0011767326
-0.030120157 -0.0087999962 -0.0017732843
-0.030716572 -0.0087999348 -0.001773118
-0.025945162 -0.0075862152 -0.0011767787
-0.025945039 -0.0069794012 -0.0011767927
-0.029523762 -0.0075861444 -0.0011767102
-0.026541637 -0.0081931632 -0.0011766017
-0.02415571 -0.008800094 -0.0041592671
-0.024155825 -0.0088000847 -0.0035627605
-0.022962861 -0.0088000987 -0.0035627317
-0.024752177 -0.0088000828 -0.0029663369
-0.023559341 -0.0087999543 -0.0035628127
-0.026541507 -0.0088000745 -0.0017732843
-0.028927321 -0.0088000745 -0.0017731674
-0.028927216 -0.0087999878 -0.001176775
-0.033102453 -0.0015173132 -0.00058019953
-0.032505892 0.00030347961 -0.00058008963
-0.033102326 0.0021241962 -0.00058010919
-0.033698749 0.0027309491 -0.00058009475
-0.0289273 0.0045516784 -0.0011766274
-0.02952368 0.0045517911 -0.0011766986
-0.028927393 0.0039449008 -0.0011767233
-0.029523807 0.0039448445 -0.0011767717
-0.030716691 -0.0081931837 -0.0011767447
-0.031313021 -0.0087999506 -0.0011767414
-0.033102449 -0.0039449092 -0.00058027124
-0.032505989 -0.0051586102 -0.00058028102
-0.024155864 -0.0088000596 -0.0017732712
-0.022962857 -0.0087999944 -0.002966186
-0.022366397 -0.0088000214 -0.0029663057
-0.02236639 -0.0087999068 -0.0035627922
-0.04920619 -0.0088000419 -0.0095278881
-0.048609894 -0.0088000689 -0.010124371
-0.048609782 -0.0088000717 -0.0095279394
-0.049206164 -0.0087999115 -0.010124424
-0.048609842 -0.0088000353 -0.0089314552
-0.05338129 -0.008800094 -0.0035626991
-0.052784905 -0.0088000307 -0.0023696995
-0.052784845 -0.0087999608 -0.0029662754
-0.050995536 -0.0087999655 -0.0029661544
-0.061731447 -0.0088000884 -0.0071417592
-0.06232797 -0.0088000987 -0.0059488872
-0.074853033 -0.0088000065 -0.010124478
-0.074256577 -0.0087999674 -0.010124442
-0.074853063 -0.008800081 -0.0095278677
-0.073660232 -0.0088000931 -0.0101244
-0.066503063 -0.0088000661 -0.0095278379
-0.06829235 -0.0088000959 -0.0077384426
-0.067695752 -0.0087999972 -0.0083349477
-0.068292297 -0.008799999 -0.0089313267
-0.067099497 -0.0088000866 -0.0089313686
-0.067695849 -0.0087999878 -0.0089314347
-0.03489162 -0.0087999534 -0.0095279673
-0.063520722 -0.0087999245 -0.0089313779
-0.062327791 -0.0088000773 -0.0023697997
-0.063520834 -0.0088000586 -0.0017731516
-0.062924251 -0.0088000875 -0.0029663309
-0.061134957 -0.0088000754 -0.0023697871
-0.061731461 -0.0088001005 -0.0017732177
-0.062327895 -0.0088000754 -0.0011766944
-0.064117223 -0.0088000968 -0.0011767689
-0.060538489 -0.0087999972 -0.0011766246
-0.059942152 -0.0088000735 -0.0017732983
-0.050399106 -0.0088000977 -0.011317357
-0.049206261 -0.00880004 -0.010720898
-0.050399132 -0.0088000204 -0.01191385
-0.053977806 -0.0088000819 -0.0053522377
-0.053381249 -0.0088000065 -0.0047558434
-0.053381227 -0.008800027 -0.0053523434
-0.052784774 -0.0075861244 -0.00058011524
-0.055170693 -0.0075861518 -0.0011767251
-0.045627654 -0.0088000372 -0.0077383379
-0.046223942 -0.0088000884 -0.0077383509
-0.045031179 -0.0087999487 -0.0071417447
-0.043838315 -0.0088000894 -0.0059487852
-0.046224117 -0.0087999282 -0.0083347624
-0.042049054 -0.0088000698 -0.0059488788
-0.042049043 -0.0088000707 -0.0065453434
-0.045031201 -0.0087999115 -0.011317475
-0.047416855 -0.0087999171 -0.0077382955
-0.04741684 -0.0087998994 -0.0071419068
0.042645443 -0.0051586688 -0.00058024749
0.048609775 0.0015171433 -0.0011766613
0.049206212 0.0021241105 -0.0011766157
0.048609775 0.0021241067 -0.0011767345
0.049206179 0.0015173161 -0.001176706
0.037873965 -0.0063723396 -0.00058026891
0.036084559 -0.0063724616 -0.0011766301
0.037873827 -0.0057656066 -0.00058024656
0.037873972 -0.0075862617 -0.0005801674
0.03668103 -0.0075863008 -0.0011766227
0.036084518 -0.0057655172 -0.0011767587
0.034295171 -0.0057655685 -0.00058009708
0.019384233 0.0088000614 -0.0077383462
0.018787859 0.0088000838 -0.0089313472
0.019980732 0.0088000745 -0.0071418304
0.01938422 0.0087999152 -0.0071418034
0.018787781 0.0088000987 -0.0065452736
0.019980753 0.0088000968 -0.00654522
0.017594887 0.0088000577 -0.0047557731
0.018191369 0.0088000027 -0.0053522843
0.019384263 0.0088000763 -0.0059487461
0.019384269 0.0088000158 -0.0065453728
0.019980771 0.0087999795 -0.0059487196
0.011034145 0.0088000493 -0.0059488136
0.01043777 0.008799999 -0.0059488816
0.021173567 0.0088000633 -0.0065453988
0.03190944 0.0088000474 -0.010124494
0.03071652 0.0087999785 -0.010124418
0.033698823 0.0088000307 -0.0077383583
0.033102401 0.00880004 -0.007141782
0.03131308 0.0088000502 -0.0035627158
0.029523775 0.0088000353 -0.0041592652
0.030120268 0.0088000232 -0.0047558364
0.028330879 0.0087999692 -0.0023696874
0.027734352 0.00880008 -0.0023696693
0.029523682 0.0087999552 -0.0023697759
0.045031227 0.0088000474 -0.0029662279
0.045031086 0.0088000009 -0.003562734
0.044434655 0.0087999953 -0.0029662265
0.045031134 0.0088000856 -0.0023696939
0.043241907 0.0088000195 -0.0023696274
0.044434667 0.008799931 -0.001176659
0.042049017 0.008800081 -0.0035627382
0.068292268 0.0088000912 -0.0059488625
0.065906473 0.0088000717 -0.0053523406
0.065906465 0.0087999497 -0.0077384259
0.065310061 0.0087999664 -0.0071417922
0.064713709 0.0087999012 -0.0071418928
0.061135106 0.0087999348 -0.0071417643
0.064713649 0.008800013 -0.009527972
0.065310121 0.0088000186 -0.0101244
0.065310165 0.0088000651 -0.0095278844
0.065906569 0.0087999851 -0.010124376
0.06471356 0.0088000037 -0.008931377
0.068292379 0.0087999767 -0.01012437
0.070678137 0.0088000819 -0.011317506
0.068888687 0.0087999441 -0.011913959
0.040259719 0.0088000176 -0.0089313984
0.042645346 0.0087999701 -0.012510454
0.042645376 0.0087999376 -0.011913924
0.045031231 0.0088000819 -0.0089313509
0.046820384 0.0088000931 -0.0083348099
0.046224073 0.0088000828 -0.007738275
0.037873849 0.0088000176 -0.0059488509
0.051591918 0.0087999683 -0.0035628378
0.050995518 0.0087999301 -0.0035626912
0.051591989 0.0087999878 -0.0029661576
0.050995607 0.0087999431 -0.0029661814
0.045031179 0.0081931669 -0.001176618
0.045627672 0.0088000111 -0.0011767452
0.046224128 0.0087999208 -0.0011767833
0.046820559 0.0087999236 -0.0011766399
0.04920632 0.0087999748 -0.0011767633
0.048609767 0.0087999748 -0.0011767847
0.049802586 0.0087999143 -0.0017731213
0.048609842 0.0087999953 -0.0017731478
0.048013449 0.0088000409 -0.0011766329
0.050399132 0.0088000325 -0.001773186
0.050995607 0.0087999357 -0.001773153
0.043241765 0.0088000614 -0.0089313686
0.048013359 0.0087999366 -0.010124377
0.048609812 0.0087999525 -0.010124503
0.047416929 0.0087999897 -0.010124371
0.046820477 0.008799932 -0.013107068
0.046820406 0.0081931623 -0.013107042
0.048013419 0.008799904 -0.01131751
0.048609849 0.0087999469 -0.01191387
0.057556298 0.008800026 -0.012510519
0.058152832 0.0087999096 -0.012510419
0.032505997 0.0087999208 -0.0029662792
0.033102281 0.0087999282 -0.0029663364
0.032505848 0.0087999422 -0.0023697698
0.040259741 0.0088000521 -0.0023696455
0.040259678 0.0088000074 -0.0017732806
0.040259622 0.0087999944 -0.0029661534
0.040856089 0.0087999916 -0.001773221
0.040259741 0.0087999376 -0.0011766362
0.029523697 0.0088000586 -0.01131746
0.02952381 0.0088000381 -0.011913938
0.029523687 0.0088000065 -0.012510471
0.030120241 0.0087999878 -0.013107028
0.030120157 0.0087999003 -0.012510434
0.024752153 0.00880008 -0.005352302
0.030120162 0.00880008 -0.008334904
0.030716626 0.0087999208 -0.0059488476
0.030120227 0.0087999767 -0.0059487065
0.029523678 0.0088000372 -0.0059487862
0.029523835 0.0088000158 -0.0053522345
0.030120123 0.0088000279 -0.0071418406
0.029523766 0.0087999841 -0.0065453509
0.030716682 0.0087999711 -0.0071418812
0.026541609 0.0087999264 -0.011913883
0.026541553 0.0088000605 -0.012510423
0.025945127 0.008800081 -0.013107061
0.036681011 0.0087999608 -0.0059488807
0.036084589 0.0087999953 -0.0071418127
0.035488188 0.0087999515 -0.0071419226
0.036084604 0.0087999366 -0.0065453607
0.033102416 0.0087999236 -0.011913978
0.01938431 0.0081930356 -0.0011766008
0.019384228 0.0075861849 -0.001176686
0.014016355 0.0045516551 -0.00058012502
0.014612669 0.0039448808 -0.00058012595
0.014612763 0.0045517236 -0.00058014318
0.015209126 0.0015171469 -0.00058009941
0.014612782 0.0015172196 -0.00058017857
0.015209286 0.0021240495 -0.0005801199
0.016402142 0.0015171762 -0.0011767824
0.016998606 0.00091024616 -0.0011767154
0.017595051 0.0015172248 -0.0011767894
0.017594976 0.00091032026 -0.0011767759
0.014016336 0.0015171815 -0.00058019534
0.013419877 0.0021240537 -0.00058014411
0.013419922 0.0015173339 -0.00058023166
0.014016303 0.002124181 -0.00058021769
0.01938419 0.0033379726 -0.0011767354
0.018787874 0.0027311293 -0.0011766581
0.018787831 0.0033380105 -0.0011767857
0.019384194 0.0027309409 -0.0011767354
0.019980779 0.0027309628 -0.0011766446
0.019980654 0.003338004 -0.0011767005
0.019980639 0.0088000502 -0.0029661492
0.019980691 0.0087999869 -0.0035627531
0.014016337 -0.0027310173 -0.00058026938
0.014016268 -0.0021241761 -0.0005800901
0.014612724 -0.002730987 -0.00058022188
0.014612776 0.00030335286 -0.00058019208
0.014612747 -0.00030350138 -0.00058011012
0.014612773 -0.0033379516 -0.00058018975
0.014612803 -0.003944837 -0.00058026891
0.014016286 -0.0039447509 -0.00058017531
0.056363471 0.00880008 -0.0089314217
0.055767059 0.0088000884 -0.010721001
0.055170562 0.0088000996 -0.0089313397
0.055170618 0.0088000856 -0.0095279794
0.062924378 0.00091043179 -0.00058013061
0.062327959 0.00091044017 -0.00058022793
0.06232794 0.0088000456 -0.0047557573
0.097517766 0.0039447583 -0.013106966
0.098114237 0.0039448487 -0.013106892
0.097517751 0.0045517427 -0.01310695
0.096324906 0.0045518177 -0.013106925
0.096921332 0.0045516919 -0.013106975
0.096921295 0.0069792666 -0.0065453909
0.096324913 0.006979215 -0.0065453993
0.096324995 0.0075861141 -0.006545342
0.095132113 0.0045517795 -0.013107052
0.094535537 0.0045516449 -0.013106883
0.095728576 0.0069794003 -0.0065453495
0.095728442 0.0075862752 -0.0065452848
0.095728539 0.0081931613 -0.005948829
0.089764155 0.0063724061 -0.0065452317
0.089167729 0.0069792266 -0.006545417
0.089764148 0.0069793733 -0.0065452582
0.089764103 0.0045516756 -0.0071419221
0.089167662 0.0045516491 -0.0071419324
0.088571191 0.0087999115 -0.0083348956
-0.09513212 -0.0063724625 -0.01370342
-0.095132127 -0.0057655345 -0.013703411
-0.094535701 -0.0057654278 -0.013703408
-0.095728502 -0.0069792508 -0.013703527
-0.096921407 -0.0063724658 -0.013703512
-0.082010321 -0.0088000633 -0.013107032
-0.083203286 -0.0088000605 -0.012510506
-0.082606919 -0.0088000325 -0.013106963
-0.080817491 -0.0088000409 -0.013107009
-0.08797469 -0.0088000586 -0.013703426
-0.08916764 -0.008800013 -0.013703447
-0.08797469 -0.0081930142 -0.013703533
-0.087378278 -0.0081931213 -0.013703393
-0.087378368 -0.0075862599 -0.013703465
-0.079028152 -0.0087999413 -0.013107042
-0.082606919 -0.0081931027 -0.013703519
-0.082606904 -0.0088000344 -0.013703499
-0.082606837 -0.0075862086 -0.013703462
-0.081413947 -0.0081930486 -0.013703418
-0.08081755 -0.007586299 -0.013703451
-0.079624675 -0.0087999692 -0.013107036
-0.076642387 -0.0081931353 -0.013703555
-0.076642469 -0.0087999636 -0.013703544
-0.077835381 -0.0081930207 -0.013703423
-0.077238835 -0.008193153 -0.013703411
-0.082010306 -0.0021241091 -0.013703451
-0.082010292 -0.0015173038 -0.013703436
-0.080817424 0.00091036549 -0.013703559
-0.080817424 -0.0021241603 -0.013703439
-0.080221042 -0.0021242374 -0.013703481
-0.081414022 -0.0033379013 -0.013703573
-0.080817446 -0.0033378811 -0.013703544
-0.081413865 -0.0039448026 -0.013703463
-0.08081755 -0.0027311139 -0.013703436
-0.08379969 -0.0045516482 -0.013703535
-0.08260683 -0.0063724653 -0.013703529
-0.082010448 -0.0045517785 -0.013703404
-0.081413992 -0.0045517068 -0.013703451
-0.082010448 -0.0039449073 -0.013703419
-0.073660187 0.00030353334 -0.013703525
-0.074853159 0.00091034482 -0.013703575
-0.0748531 0.00030335583 -0.013703516
-0.07723888 -0.0015172813 -0.013703473
-0.077835366 -0.001517305 -0.013703408
-0.081413999 -0.00030338287 -0.013703385
-0.080817409 -0.00030344905 -0.013703504
-0.077835299 -0.00091031683 -0.013703433
-0.080817565 -0.0015172441 -0.013703458
-0.067695841 -0.0081930617 -0.013703568
-0.068888746 -0.008800081 -0.013703536
-0.068292238 -0.0081930542 -0.01370356
-0.069485113 -0.0088000093 -0.013703552
-0.075449511 -0.0075861244 -0.013703485
-0.074853085 -0.0088000232 -0.013703568
-0.074853078 -0.0081931753 -0.013703436
-0.07485313 -0.0087999543 -0.013106948
0.099903561 0.0015172035 -0.012510527
0.099903472 0.00212412 -0.012510537
0.099903494 0.0033378922 -0.012510373
0.099903651 0.0027309975 -0.012510397
0.099307172 0.0039449171 -0.013703438
0.098710768 0.00091042672 -0.0077382703
0.090360463 -0.0069792955 -0.013703551
0.090957008 -0.0069792843 -0.013703522
0.091553397 -0.0069793011 -0.013703412
0.089167751 -0.0081931055 -0.013703557
0.089167632 -0.0075861914 -0.013703544
0.093939073 -0.0069793011 -0.013703416
0.0939392 -0.0075862138 -0.01370351
0.093939267 -0.0081931725 -0.013703396
0.089167707 -0.0027310331 -0.01370352
0.087974846 -0.0033379332 -0.013703573
0.087974809 -0.002730953 -0.013703561
0.088571176 -0.0033379775 -0.013703505
0.08857125 -0.0015172956 -0.013703566
0.087974787 0.0003034051 -0.013703584
0.087378323 -0.00030339934 -0.013703573
0.096921273 -0.0021241943 -0.0077382843
-0.053381387 0.0051585725 -0.013703557
-0.052784927 0.0033378946 -0.01370354
-0.051592011 0.0027309698 -0.013703457
-0.05457421 -0.00091035553 -0.013703572
-0.054574091 -0.00030341162 -0.013703472
-0.053977724 -0.0015172577 -0.013703515
-0.055170529 -0.00030348907 -0.013703413
-0.055170566 -0.00091029465 -0.013703486
-0.054574087 -0.0021240942 -0.013703518
-0.055170596 -0.0021241677 -0.013703436
-0.061135098 -0.00030346849 -0.013703536
-0.061135057 0.00030339934 -0.013703521
-0.06053862 -0.00030337882 -0.013703536
-0.062327832 0.00091036555 -0.013703546
-0.064713553 -0.0039447746 -0.013703581
-0.065906495 -0.0045518028 -0.013703586
-0.065310173 -0.0033379542 -0.013703572
-0.064713739 -0.0057655387 -0.013703525
-0.059345748 -0.0021242015 -0.013703464
-0.059942219 -0.0021241552 -0.013703413
-0.059942126 0.0039448268 -0.013107067
-0.059942108 0.0033378969 -0.013106993
-0.059345596 0.0039448244 -0.013106955
-0.078431673 -0.00030336154 -0.013703561
-0.078431793 0.00091037067 -0.013703559
-0.079624727 0.0033378939 -0.013703538
-0.078431733 0.0039447364 -0.013107005
-0.077835217 0.0045518172 -0.013107073
-0.076642364 0.0039448678 -0.01310698
-0.076642424 0.0045518065 -0.013106948
-0.077238813 0.0039448766 -0.01310696
-0.050399024 -0.0021240427 -0.013703404
-0.049802713 -0.0015171417 -0.013703467
-0.049206138 -0.00091025193 -0.01370349
-0.049206153 -0.0015172359 -0.01370343
-0.049802702 -0.00091042701 -0.013703432
-0.050399181 -0.0015172393 -0.013703398
-0.04980265 0.0081931101 -0.013106992
-0.049802631 0.0087999115 -0.012510448
-0.043241765 0.0063724862 -0.013703423
-0.043241907 0.0069793947 -0.013703462
-0.04324175 0.0051586847 -0.013703467
-0.049206167 0.0021242192 -0.013703492
-0.048609789 0.00091033184 -0.013703391
-0.047416821 0.00030345051 -0.013703572
-0.042645331 0.0045517092 -0.013703438
-0.04204892 0.0039449115 -0.013703436
-0.037277389 -0.0075861705 -0.013703519
-0.049802769 0.0087999664 -0.0083349179
-0.051591989 0.0088000288 -0.010124461
-0.052188344 0.0087999748 -0.0095278984
-0.052784819 0.0088000046 -0.010720825
-0.050399039 0.0015172127 -0.013703441
-0.049802609 0.00030334949 -0.013703447
-0.045627601 0.0088000074 -0.011913892
-0.046224121 0.0087999431 -0.011914035
-0.047417007 0.008799959 -0.011317425
-0.046224006 0.0087999869 -0.012510503
-0.046820443 0.0087999953 -0.011914032
-0.046820499 0.0087999422 -0.012510548
-0.058749218 0.0088000344 -0.011317463
-0.058749203 0.0088000223 -0.011913901
-0.057556387 0.0033379933 -0.0029662116
-0.056959912 0.0033378911 -0.0029662396
-0.05695992 0.0033379332 -0.0035626763
-0.058749277 0.0087999664 -0.0059487084
-0.06232794 0.0015172717 -0.013703536
-0.063520685 0.0021242094 -0.013703539
-0.061731484 0.0063723554 -0.013703554
-0.041452438 -0.0015173362 -0.013703506
-0.040856082 -0.0027310047 -0.013703584
-0.040855993 -0.0015171452 -0.013703502
-0.040855996 -0.0021241191 -0.013703502
-0.049206175 -0.0057654222 -0.013703581
-0.050399166 -0.0051585422 -0.013703577
-0.049802739 -0.003944858 -0.013703577
-0.048609737 -0.0051585552 -0.01370346
-0.04920616 -0.0051586628 -0.013703413
-0.048609883 -0.004551637 -0.013703448
-0.05099557 -0.0039448189 -0.01370356
-0.051591899 -0.004551793 -0.013703508
-0.05099554 -0.0045517324 -0.013703447
-0.051592074 -0.0033380219 -0.013703498
-0.051591955 -0.0069793859 -0.013703553
-0.051592071 -0.0063723843 -0.013703397
-0.050995465 -0.0063724923 -0.013703408
-0.050995462 -0.0051586553 -0.013703484
-0.049206298 -0.0039449031 -0.013703521
-0.048013274 -0.0021241382 -0.013703555
-0.046820536 -0.0027309502 -0.013703533
-0.048609819 -0.0021241743 -0.013703411
-0.0712744 0.0045518023 -0.013703532
-0.07067804 0.0045517874 -0.013703395
-0.070678003 0.0033378953 -0.013703553
-0.070677973 0.0039449106 -0.013703397
-0.070678137 0.0021240667 -0.013703462
-0.071274459 0.0027309586 -0.013703418
-0.071870975 0.0027309668 -0.013703473
-0.071870878 0.0033380124 -0.013703453
-0.071870908 0.0021242241 -0.013703409
-0.071274512 0.0039449008 -0.013703427
-0.067099489 -0.00091037154 -0.013703465
-0.051591903 0.0045516794 -0.013703511
-0.050995484 0.0045518079 -0.013703446
-0.051592059 0.0057654451 -0.013703497
-0.051592067 0.0069793127 -0.013703456
-0.046224009 -0.00030349946 -0.013703583
-0.045031209 -0.0009102652 -0.013703568
-0.044434741 -0.00030353302 -0.013703559
-0.043838348 0.00091029104 -0.013703514
-0.053977832 0.0075861607 -0.013107069
-0.053977683 0.0069793458 -0.013106961
-0.034295309 -0.00030353508 -0.013703488
-0.033698812 -0.00030349725 -0.01370351
-0.033698861 -0.00091033307 -0.01370346
-0.036084551 0.0009104216 -0.013703562
-0.034891732 -0.0081930468 -0.013703517
-0.034295239 -0.0087999376 -0.013703544
-0.033698771 -0.0075861551 -0.01370354
-0.034891631 -0.0075861258 -0.013703552
-0.039663248 -0.0069792666 -0.013703543
-0.039066739 -0.0063723885 -0.013703456
-0.038470361 -0.0069792685 -0.013703511
-0.038470265 -0.0063723228 -0.013703473
-0.037873894 -0.0057654846 -0.013703557
-0.082606785 0.0039448231 -0.01310705
-0.082606815 0.0075862231 -0.013106897
-0.082606748 0.0088000614 -0.013106997
-0.082606807 0.008799999 -0.012510511
-0.088571191 0.0051585725 -0.013106982
-0.087974831 0.0057654819 -0.013106953
-0.074256629 0.0069793719 -0.013106981
0.093342759 0.0063724788 -0.013106931
0.097517841 -0.0069793677 -0.013703419
0.099903472 -0.0069792117 -0.013106982
0.096324965 -0.0069792233 -0.013703479
0.076642483 0.0088000642 -0.013106944
0.076642439 0.008800081 -0.011317337
0.07962466 0.0087999655 -0.012510391
0.081414044 0.0081931902 -0.013107067
0.079028279 0.0088000605 -0.010720923
0.079028286 0.0088000093 -0.01131736
0.071274571 0.0087999543 -0.012510402
0.065310068 0.0087999599 -0.011913927
0.067099482 0.0088000447 -0.011317451
0.067695789 0.0087999506 -0.011317369
0.067099467 0.0088000791 -0.010124411
0.067695826 0.0087999087 -0.010124496
0.068888754 0.0088000176 -0.013106989
0.087974735 0.0088000493 -0.011317411
0.087974735 0.0087999888 -0.011913972
0.08737842 0.0087999562 -0.011914017
0.087378353 0.0087999562 -0.011317363
0.091553375 0.0081930384 -0.013107036
0.093342707 0.0081931669 -0.013106955
0.092149824 0.0081932014 -0.013106927
0.096921444 0.0057655205 -0.013106982
-0.089764163 0.0087999292 -0.0065452335
-0.09036053 0.0087999562 -0.0065452605
-0.090360619 0.0088000111 -0.0095279422
-0.089764133 0.0088000018 -0.0095277969
-0.089167736 0.0088000316 -0.0083349552
-0.087378383 0.0088000558 -0.0077383565
-0.087378435 0.008800053 -0.0083348472
-0.086781874 0.0088000633 -0.0077382806
-0.087974772 0.008799958 -0.0077383602
-0.086781934 0.0088000903 -0.0071418975
-0.086185455 0.0087999552 -0.0065452885
-0.087378412 0.008799959 -0.0065454189
-0.087974809 0.0063724397 -0.006545403
-0.085588999 0.0057655107 -0.01310705
-0.08618556 0.0063724299 -0.013106905
-0.085588947 0.0063724671 -0.013106922
-0.084396049 0.0088000074 -0.012510553
-0.084396139 0.0088000437 -0.013106978
-0.083799772 0.008800067 -0.013106955
-0.083799653 0.008800027 -0.012510482
-0.089167595 0.0087999431 -0.011913899
-0.089167617 0.0088000428 -0.01072094
-0.086781822 0.0087999655 -0.011317339
0.029523673 0.0081930785 -0.01310706
0.030120198 0.0081931697 -0.013107002
0.029523706 0.0075862776 -0.013106938
0.028927354 0.0075861942 -0.013107039
0.030120097 0.007586143 -0.013107063
0.028927224 0.0088000484 -0.012510469
0.020577164 0.0088000074 -0.012510395
0.019384371 0.0075862869 -0.013106875
0.019980798 0.0075862133 -0.013106959
0.01938428 0.0069793961 -0.013106998
0.021173604 0.0088000456 -0.012510542
0.013419961 0.0069793565 -0.013703482
0.010437672 0.0081931241 -0.013106875
0.012823369 0.0087999394 -0.011913926
0.012823385 0.0087999171 -0.010124419
0.086185485 0.0075862869 -0.013106906
0.086185455 0.0081931362 -0.013106918
0.085589007 0.0075861635 -0.01310703
0.087378323 0.0063724639 -0.013106968
0.086781874 0.0063723745 -0.013106922
0.08737839 0.0088000353 -0.012510376
0.086781822 0.0075862329 -0.013106909
0.083799787 0.0069792964 -0.013107035
0.084396221 0.0063724597 -0.01310695
0.08379963 0.0063723279 -0.013106877
-0.017594939 0.008799958 -0.011317391
-0.010437674 0.0081930216 -0.01310697
-0.022962963 0.005765589 -0.013703534
-0.024155833 0.0045516887 -0.013703413
-0.023559421 0.0045517907 -0.013703533
-0.034295153 0.0045517092 -0.013703506
-0.030120147 0.0057655098 -0.013106982
-0.030120222 0.0051587038 -0.013107013
-0.027734326 0.0063724602 -0.013107056
-0.027137974 0.0063724909 -0.013106966
-0.026541483 0.0057655615 -0.013107
-0.024752153 0.0057654926 -0.013703514
-0.024155859 0.0051585422 -0.013703407
-0.028927375 0.0069793044 -0.013106914
-0.039663106 0.0063723535 -0.013107055
-0.042048883 0.0081931492 -0.013106877
-0.041452441 0.008799986 -0.011913883
-0.045031201 -0.00030339565 -0.01370347
-0.045627549 0.00030344594 -0.013703469
-0.046820492 -0.00030347987 -0.013703567
-0.04682057 0.00030347909 -0.013703519
-0.038470425 0.0021241512 -0.013106987
-0.037873968 0.002124198 -0.013106974
-0.041452575 -0.00030346785 -0.013703558
-0.040855989 -0.00030347903 -0.013703573
-0.018787844 0.0087999087 -0.011317385
-0.01819131 0.0057654623 -0.013106981
-0.018787779 0.0069792857 -0.013106899
-0.039066851 0.0039447285 -0.013107051
-0.039066672 0.0045516598 -0.013107037
-0.038470317 0.0039448766 -0.013106914
-0.039663121 0.0033379903 -0.013106912
-0.039663229 0.0039448347 -0.013106916
-0.039066672 0.0033379204 -0.013106957
-0.039066777 0.0021240886 -0.013106947
-0.039066844 0.0027310448 -0.013106981
-0.039066836 0.0051586512 -0.013107016
-0.038470343 0.005158633 -0.013106882
-0.039663129 0.0045518028 -0.013106934
-0.040259555 0.0039448757 -0.013107009
-0.037277482 0.0051585329 -0.013106969
-0.03668109 0.0051586181 -0.013106952
-0.038470298 0.0045517148 -0.013106899
-0.037873939 0.0045517664 -0.013106894
-0.037873834 0.0039447378 -0.013106894
-0.037277535 0.0039448319 -0.013107049
-0.036681019 0.0033378904 -0.013106948
-0.036681052 0.0027309987 -0.013106897
-0.03727752 0.0033379917 -0.013107065
-0.036084637 0.0033378496 -0.013107051
-0.037277527 0.0021241391 -0.013107003
-0.037277445 0.0027309989 -0.013106953
-0.034891784 0.0021242071 -0.013703564
-0.034295164 0.0021241158 -0.01370341
-0.034295283 0.0015172069 -0.013703391
-0.033698794 0.0021241463 -0.013703458
-0.036084488 0.0015171813 -0.013703413
-0.0360846 0.0027309784 -0.013106894
-0.037873786 0.0069792592 -0.013106931
-0.038470421 0.0069792802 -0.01310689
0.062327817 0.0033379383 -0.013703451
0.058749225 0.0087999469 -0.012510369
0.052188333 0.0088000661 -0.012510552
0.05218837 0.0087999403 -0.011913864
0.052784853 0.008800027 -0.012510384
0.053381369 0.0088000139 -0.012510514
0.051591892 0.0087999832 -0.011913849
0.052188478 0.0087999804 -0.011317383
0.045627635 0.0088000437 -0.011913905
0.046820555 0.0087999562 -0.011317513
0.046224013 0.0087999497 -0.012510395
0.047416933 0.0088000149 -0.012510445
0.055767003 0.0027310695 -0.013703559
0.055170614 0.00333794 -0.013703406
0.056363557 0.0027309454 -0.013703558
0.052784793 0.0057655759 -0.013703503
0.05338132 0.0057655987 -0.013703482
0.053381234 0.0051586623 -0.013703404
0.052784842 0.005158613 -0.013703477
0.05338126 0.0039449064 -0.013703529
0.054574162 0.0081930663 -0.013106944
0.053977698 0.0081931669 -0.013106953
0.053977806 0.0075861826 -0.013106985
0.05457418 0.0075861141 -0.013106896
0.056363501 0.0088000633 -0.011913947
0.056959908 0.0088000502 -0.013107035
0.056363482 0.0088000363 -0.013107005
0.055170588 0.0081931055 -0.013106987
0.055767078 0.0081931064 -0.013106931
0.056363575 0.0081931958 -0.013106884
0.062327955 0.0087999552 -0.011914013
0.059345629 0.0075861374 -0.013107
0.059345637 0.0081930906 -0.013107033
0.059942096 0.0075862734 -0.013106901
0.059942201 0.0069793044 -0.013107054
0.059345704 0.0087999329 -0.010720871
0.080220997 0.0051585524 -0.013703452
0.079028234 0.0051585953 -0.013106897
0.078431778 0.0051586865 -0.013106885
0.07843174 0.0027310241 -0.013106983
0.091553316 0.008799945 -0.011317464
0.090957016 0.0088000465 -0.011913871
0.09155336 0.0087999022 -0.012510451
0.089764096 0.0088000111 -0.011317511
0.1005 0.0063724974 -0.011317489
-0.0056662047 0.0081930934 -0.013107
-0.010437696 0.0088000763 -0.01131749
-0.010437673 0.0087999599 -0.011913927
-0.0080520064 0.0087999143 -0.010124397
-0.006859093 0.0087999552 -0.010124461
-0.0074554915 0.0087999273 -0.010721013
-0.0080519198 0.0057654446 -0.013106959
-0.0086484179 0.0057655135 -0.013107052
-0.0086483574 0.0051586595 -0.013106971
-0.0068590837 0.0045516412 -0.013703518
-0.0092447512 0.0051586218 -0.013106955
-0.0092447698 0.004551691 -0.013107064
0.095728554 0.0087999133 -0.0095278518
0.093939126 0.0087999916 -0.0095279487
0.093342632 0.0088 -0.0083349468
0.09274625 0.0087999767 -0.0083349617
0.093342699 0.0087999366 -0.011913864
0.046223942 -0.0051585659 -0.00117672
0.046223983 -0.004551772 -0.0011767601
0.047417 -0.0045516836 1.6359147e-05
0.045627639 -0.0045517245 -0.0011767233
0.052784789 0.00030348188 -0.00058019301
0.052188519 0.0003034012 -0.000580261
0.052188512 0.00091029837 -0.00058026612
0.056363571 0.0015171582 -0.0011766772
0.055766985 0.0021241503 -0.0011766292
0.057556357 0.00091028644 -0.001176748
0.056959935 0.00091027952 -0.0011766837
0.057556462 0.0015172422 -0.001176754
0.051592082 0.00030340831 -0.0005801334
0.049206305 0.00091035385 -0.0011766236
0.04860976 0.00091037492 -0.0011767196
0.045627676 -0.0087999906 -0.013106883
0.046224117 -0.0087999972 -0.01072083
0.045627583 -0.0088000959 -0.010124364
0.045627568 -0.008799931 -0.01072084
0.046224091 -0.0087999329 -0.010124393
0.046820443 -0.0088000512 -0.0089314664
0.045627668 -0.0088000651 -0.0083347978
0.055767097 -0.0027310855 -0.0011766413
0.056959856 -0.0039448352 0.0012093675
0.056960009 -0.0033378373 -0.00058014039
0.058152821 -0.0057654772 -0.0011767838
0.057556413 -0.005158708 -0.00058022421
0.058152914 -0.0063724811 -0.0011767121
0.057556413 -0.0045518242 0.0024024178
0.056959979 -0.004551651 0.002402307
0.049206238 0.0069792373 -0.0011766902
0.062327921 0.0087999841 -0.0089312941
0.060538519 0.0087999869 -0.0095278509
0.061135046 0.0087999618 -0.0095279496
0.061731365 0.0088000242 -0.008931417
0.061731484 0.0087999357 -0.0083349422
0.05994213 0.0087999115 -0.0089313164
0.02057717 -0.0088000167 -0.0059488714
0.019980723 -0.0088000307 -0.0071418374
0.019980753 -0.0088000391 -0.0053522768
0.029523646 -0.0088000726 -0.0017731842
0.028330861 -0.0088000661 -0.0047557075
0.027734496 -0.0088000791 -0.004755809
0.02833081 -0.0088000279 -0.0041593611
0.028330831 -0.008800081 -0.0059488304
0.027138021 -0.008800081 -0.0065452317
0.030120188 -0.0088000493 -0.005352227
0.028330933 -0.008800053 -0.003562687
0.031313147 -0.0088000624 -0.0047558267
0.030716531 -0.0088000996 -0.0059489035
0.030716529 -0.0087999525 -0.0047558639
0.03071666 -0.0087999012 -0.0053523211
0.019384313 -0.0087999627 -0.0053523919
0.019980749 -0.0088000856 -0.0041593155
0.019980673 -0.0088000372 -0.0047556795
0.019384304 -0.0087999376 -0.0047557373
0.019384339 -0.0087999869 -0.0041591842
0.090360627 -0.0075861616 -0.00058009895
0.09095706 -0.0069793053 -0.00058026612
0.090360552 -0.0069792927 -0.00058027357
0.093939073 0.00091031264 -0.0011767908
0.093342751 0.00091039453 -0.0011766469
0.093939178 0.00030344733 -0.0011767573
0.089764141 -0.0015172102 -0.00058015855
0.09036053 -0.001517195 -0.00058017951
0.09036053 -0.0021241067 -0.00058008311
0.090360463 -0.00091031747 -0.00058011757
0.089167751 -0.0015173306 -0.0005800887
0.089167662 -0.0021241861 -0.00058013387
0.093939148 0.0021241566 -0.0011766162
0.093342789 0.0021241645 -0.0011767833
0.093342707 0.0015172685 -0.0011766846
0.093342707 -0.0088000437 -0.010124409
0.096921422 -0.0087999059 -0.0017732652
0.096324965 -0.0088000512 -0.0041593639
0.092746191 -0.008193166 -0.0041591851
0.094535671 -0.0088000651 -0.0071417606
0.094535679 -0.0088000763 -0.0077383663
0.096921295 -0.0088000577 -0.0089313313
0.096921384 -0.008799931 -0.0083348174
0.097517848 -0.0081930263 -0.0083347736
0.097517774 -0.0088000176 -0.0083348276
0.095728576 -0.0087999031 -0.0047558565
0.092746273 -0.0088000596 -0.0017732955
0.092746258 -0.0088000838 -0.0029662261
0.090360455 -0.0087999795 -0.0071417452
0.090360604 -0.0087999487 -0.0077383257
0.081414007 -0.0087999105 -0.0011767643
0.069485247 -0.008193017 -0.0011767847
0.064713702 -0.0088000596 -0.004755727
0.06590651 -0.0088000651 -0.005948727
0.066502981 -0.008800067 -0.0053522517
0.064117201 -0.008800094 -0.0059488844
0.067099348 -0.0088000922 -0.0077384268
0.068292253 -0.0088000949 -0.0065453378
0.068292268 -0.0088000977 -0.008334781
0.065310061 -0.0088000791 -0.0089314282
0.066502877 -0.00880008 -0.0095278891
0.06590648 -0.0088000847 -0.010124366
0.064713679 -0.0088000325 -0.0083348118
0.058749355 -0.0087999934 -0.0095278136
0.089167625 -0.008800067 -0.0077383397
0.088571131 -0.0088000875 -0.0089314273
0.088571146 -0.0088000027 -0.0077384352
0.088571243 -0.0088000987 -0.0071418751
0.071870893 -0.00880008 -0.0011767377
0.071274497 -0.0088000596 -0.0011767279
0.071870923 -0.0088000055 -0.00058026286
0.073063813 -0.0088000465 -0.0011766409
0.07366021 -0.0088000651 -0.0011767363
0.073660277 -0.008193153 -0.0011766101
0.086185411 -0.0088000773 -0.0011767289
0.083203204 -0.0088000651 -0.0011767372
0.084396191 -0.0088000568 -0.0011767456
0.08379969 -0.0088000968 -0.001773281
0.082010455 -0.0088000633 -0.0011766925
0.082606815 -0.0087999329 -0.0011766767
0.081413925 -0.0087999087 -0.0017732815
0.083799794 -0.0081930263 -0.0011766325
0.091553465 -0.0087999227 -0.001176748
0.090957008 -0.0081930608 -0.00058011664
0.087378353 -0.0088000922 -0.0011766478
0.087378256 -0.0087999571 -0.0017731716
0.086781926 -0.0088000149 -0.0017732428
0.090360478 -0.0087999394 -0.001176659
0.09036053 -0.0088000484 -0.0017732722
0.076045901 -0.0087999329 -0.0011767335
0.079028115 -0.0088000428 -0.0017732014
0.079624645 -0.0087999832 -0.0017732666
0.080817476 -0.0088000782 -0.0029662345
0.068888806 -0.0088000447 -0.0077384156
0.06948512 -0.0088000912 -0.006545308
0.068888724 -0.0088000624 -0.0083348397
0.070678033 -0.0088000614 -0.007141781
0.070678003 -0.0088000838 -0.0053523015
0.073063791 -0.008800081 -0.0035627051
0.072467268 -0.0088000996 -0.005352376
0.073660143 -0.0088000698 -0.004755849
0.07306388 -0.0088000093 -0.0053523807
0.073063724 -0.0087999292 -0.0047558378
0.073660322 -0.0088000922 -0.0059487955
0.07485304 -0.0088000866 -0.0047557093
0.067099467 -0.0088000344 -0.0029662102
0.068292238 -0.0088000083 -0.0035626935
0.066503048 -0.0088000987 -0.0035627354
0.06948512 -0.0088000447 -0.0059488127
0.058152765 -0.0088000158 -0.013106875
0.058749314 -0.0088000977 -0.012510519
0.058749296 -0.0087999972 -0.013107043
0.055767097 -0.008800094 -0.012510552
0.056363523 -0.0088000698 -0.010720849
0.058749318 -0.0088000875 -0.010124398
0.058152754 -0.0088001005 -0.0083348444
0.059345596 -0.0087999227 -0.010124454
0.059942059 -0.0088000074 -0.010720998
0.054574154 -0.0088000763 -0.0065453276
0.054574084 -0.0088000828 -0.0077383658
0.055767041 -0.0088000828 -0.007738336
0.030120278 -0.0088000577 -0.010720828
0.024752254 -0.0088000512 -0.0095279766
0.025348611 -0.0088000419 -0.0089314673
0.027137989 -0.0087999953 -0.011913879
0.026541479 -0.0088000279 -0.011317468
0.024155749 -0.0088000474 -0.010124378
0.025945129 -0.0088000027 -0.0023697997
0.026541613 -0.0087999543 -0.0023696744
0.029523687 -0.0088000046 -0.0029662214
0.029523792 -0.0088000568 -0.0023697973
0.03012011 -0.008799932 -0.0041593313
0.030120132 -0.0088000828 -0.0023697047
0.031313129 -0.0088000875 -0.0035627089
0.039663203 -0.0081931865 -0.0011767675
0.037873909 -0.0045518028 0.0035953918
0.038470395 -0.0045517259 0.0035954085
0.033698726 -0.0051585953 -0.00058009755
0.034295194 -0.005158599 -0.00058019115
0.038470428 -0.0057655838 -0.00058009708
0.030716566 -0.0088000046 -0.0041591898
0.029523678 -0.0087999962 -0.0047556898
0.031313043 -0.0087999888 -0.0041591842
0.029523794 -0.0087999962 -0.0059488239
0.030120136 -0.0087999171 -0.0059488141
0.03787386 -0.0045517473 0.0041920072
0.033102445 -0.0033378638 -0.00058011198
0.032505888 -0.0033380054 -0.00058009522
0.033102449 -0.0039447476 -0.00058009708
0.020577068 -0.0087999832 -0.0023696725
0.02415581 -0.0069792415 -0.00058022328
0.024752283 -0.0063725137 -0.00058022514
0.024155762 -0.0063723568 -0.00058009708
0.023559334 -0.0057654539 -0.0005801511
0.024155861 -0.0057656174 -0.00058023166
0.026541514 -0.0081931101 -0.0011765966
0.058749277 -0.0081930067 -0.001176774
0.056959912 -0.0057654786 -0.00058019627
0.065906487 -0.0087999254 -0.0053522149
0.065906599 -0.0088000204 -0.0047557168
0.064117283 -0.006979343 -0.0011766008
0.064713672 -0.0069792895 -0.00117672
0.06173142 -0.0088000149 -0.0077382601
0.062327988 -0.008800027 -0.0071417708
0.050399084 -0.008799904 -0.0011766204
0.051592048 -0.0081930859 -0.00058014551
0.051592056 -0.008800094 -0.0005802121
0.055767026 -0.0063723559 -0.0011766916
0.055767015 -0.0069794091 -0.001176788
0.052188333 -0.0081930393 -0.00058017578
0.052784849 -0.0081930095 -0.00058027823
0.02654152 -0.0087999962 -0.0011766306
0.032505941 -0.0088000549 -0.0011766562
0.034295276 -0.0088000922 -0.0011766991
0.03310236 -0.0088000139 -0.00058017764
0.036084618 -0.0088000093 -0.0011766162
0.03190944 -0.0088000884 -0.0029661879
0.032505985 -0.0027309421 -0.00058011804
0.041452609 -0.0087999208 -0.0011767643
0.061731547 -0.0057654507 -0.00058012269
0.062327817 -0.0051586879 -0.00058017485
0.061731525 -0.0051585347 -0.00058024516
0.06173142 -0.0045517888 -0.00058010593
0.062327944 -0.0045516659 -0.00058020186
0.061731536 -0.0039448803 -0.00058022095
0.048013337 -0.0088000773 -0.0023697228
0.047416877 -0.0088000894 -0.0035627764
0.048609801 -0.0088000102 -0.0029662806
0.04801327 -0.0088000717 -0.0041592857
0.051592059 0.0057655275 -0.0005800901
0.050399031 0.0057654679 -0.0011767708
0.055767108 0.0087999953 -0.0041591926
0.055170689 0.0087999729 -0.0041591674
0.055170719 0.0088000987 -0.0047558248
0.055170711 0.0088000549 -0.0035627228
0.055767141 0.0087999972 -0.003562788
0.050399125 0.0039448244 -0.0011766828
0.048013285 0.0081931185 -0.0011766567
0.050995562 0.0087999003 -0.002369795
0.059942096 -0.0088000894 -0.0017731553
0.061135098 -0.0088000875 -0.002369761
0.063520692 -0.0087999888 -0.0017732233
0.064117275 -0.0087999552 -0.0017732275
0.064117275 -0.0088000819 -0.0023698159
0.063520834 -0.0088000912 -0.002369693
0.062924281 -0.0088000447 -0.0017732196
0.062924244 -0.0087999497 -0.0023698071
0.06411726 -0.0057654507 -0.0011766986
0.059942171 -0.0081931511 -0.0011766809
0.092746206 -0.0075861258 -0.0029662182
0.089764006 0.00091026805 -0.00058012642
0.0903605 0.00030346334 -0.00058026006
0.089764066 0.00030334972 -0.00058027962
0.089167677 0.00091030961 -0.00058015995
0.089167617 0.00030346663 -0.00058012875
0.089167722 0.0021241591 -0.00058011711
0.089764081 0.003337966 -0.00058020744
0.086781912 0.0039447607 -0.0011766157
0.086185478 0.0039447462 -0.0011767051
0.086781934 0.0033379118 -0.0011766055
0.083799638 -0.002731055 -0.0011766269
0.084396176 -0.0027311223 -0.0011766353
0.08379975 -0.0039448244 -0.0017732261
0.08379966 -0.006372503 -0.0011767852
0.08379969 -0.0057654977 -0.0011767885
0.083203316 -0.0051586763 -0.0011766143
0.083203241 -0.0057654376 -0.0011767084
0.083799735 -0.0051585496 -0.001176652
0.084396057 -0.0069793668 -0.0011766516
0.090957053 -0.0039447774 -0.00058014225
0.090957068 -0.0033379314 -0.00058011943
0.067099355 -0.0088000167 -0.010124415
0.066502884 -0.0087999804 -0.010124418
0.066503048 -0.0087999701 -0.013703393
0.056959968 -0.00030346168 -0.013703392
0.053381212 -0.0045518051 -0.013703421
0.053381216 -0.0039447788 -0.013703462
0.052784935 -0.0045517632 -0.013703579
0.053977661 -0.0039448035 -0.013703508
0.053977735 -0.0045516663 -0.013703388
0.097517729 -0.0081931436 -0.0023696949
0.097517826 -0.0051585771 -0.0017732233
0.095132016 -0.0045517311 1.6410369e-05
0.095132098 -0.0069793779 -0.0083348239
0.09513212 -0.0075862156 -0.0083347904
0.095728509 -0.0075862715 -0.0083348071
0.09572842 -0.008193085 -0.0083349105
0.095132016 -0.0081930077 -0.0083347969
0.094535522 -0.0087999655 -0.0011767512
0.094535537 -0.0087999441 -0.0017732731
0.095132053 -0.0087999869 -0.00117668
0.09513209 -0.0075861774 -0.00058024283
0.096324861 -0.0075862864 -0.0011766907
0.095131956 -0.0069793998 -0.00058014179
-0.027734362 -0.0063724448 -0.013703587
-0.028330883 -0.006979249 -0.013703549
-0.034295205 -0.0088000875 -0.010720829
-0.024752215 -0.0088000931 -0.013106922
-0.024155796 -0.0088000745 -0.013703418
-0.03250603 -0.008799958 -0.0095278183
-0.033102285 -0.0087999301 -0.0089313583
-0.03310243 -0.0087999981 -0.0095279729
-0.024752166 0.00091043703 -0.00058013666
-0.024752226 0.00030351707 -0.00058024982
-0.025945056 0.00091028627 -0.0011766404
-0.026541512 0.00091040228 -0.0011766264
-0.026541561 0.00030349416 -0.0011766138
-0.023559384 0.0015172183 -0.00058008358
-0.022962987 0.00091034366 -0.00058014179
-0.023559393 0.00091042271 -0.00058026752
-0.024155883 0.00030335438 -0.0005802731
-0.021770123 -0.007586203 -0.001176774
-0.021770038 -0.0081931297 -0.0011767475
-0.022962991 -0.0015172254 -0.00058023538
-0.023559431 -0.001517167 -0.00058025029
-0.023559434 -0.00091028516 -0.00058013806
-0.011034045 0.0021241927 -0.0011767624
-0.015209223 0.0033378734 -0.000580261
-0.037873924 -0.008799999 -0.007141904
-0.038470361 -0.0087999497 -0.0077383295
-0.038470272 -0.008799932 -0.0071418136
-0.036084503 -0.0045517767 -0.0011766539
-0.036680914 -0.0051586041 -0.0011767503
-0.040259656 -0.0088000176 -0.0047557806
-0.036680978 -0.0069793193 -0.0011766236
-0.034891702 -0.0033378606 -0.0011767582
-0.033102307 -0.0088000437 -0.0059488933
-0.035488162 0.0027309936 -0.0011766427
-0.034891695 0.0027309824 -0.001176666
-0.034891676 0.0033378541 -0.001176706
0.071274415 0.0051586358 -0.013703443
0.082010321 0.0088000186 -0.010721004
0.073660217 0.0088000679 -0.011914032
0.080221042 0.0088000679 -0.01072099
0.079624563 0.0088000912 -0.0095279245
0.082010314 0.0088000847 -0.0083348723
0.082010351 0.0088000596 -0.0089313108
0.082606733 0.0088000409 -0.0077384189
0.081413969 0.0088000624 -0.0071417475
0.08260677 0.0088000502 -0.0071419007
0.081413858 0.0088000596 -0.0095279329
0.083203293 0.0088000884 -0.0095278267
0.082606807 0.0063723694 -0.013106883
0.085588977 0.0088000167 -0.011317447
0.085589103 0.0087999981 -0.011913862
0.084992506 0.0081931343 -0.01310705
0.084396206 0.0075861411 -0.013107018
0.084992521 0.0075862543 -0.013107016
0.07723888 0.006979363 -0.013106931
0.07366021 0.0075861309 -0.013106983
0.074256718 0.0069793961 -0.013106972
0.074256688 0.0063723736 -0.013107002
0.073660202 0.0063724415 -0.013107063
0.073063746 0.0045517376 -0.013107026
0.073660173 0.0045517073 -0.013106912
0.073660329 0.005158647 -0.013106916
0.020577075 0.0087999888 -0.0071419221
0.020577237 0.0087999487 -0.0065453677
0.019980799 0.0087999096 -0.0083349049
0.016402066 0.0057654791 -0.013107013
0.016998587 0.006372503 -0.013107011
0.016402027 0.0063724164 -0.013106944
0.016998472 0.0069793947 -0.013106916
0.017594943 0.0069792494 -0.013106946
0.011630642 0.0088000298 -0.012510378
0.010437756 0.0088000419 -0.012510421
0.016998524 0.0087999133 -0.010124358
0.01640204 0.0087999273 -0.010721011
0.01640215 0.0087999357 -0.0041592587
0.040856171 0.0087999823 -0.013106964
0.040856089 0.0081930459 -0.013107
0.040856171 0.0075862072 -0.013106987
0.043241844 0.0087999497 -0.0077383202
0.042049043 0.0088000502 -0.0095278947
0.042049024 0.0087999403 -0.0089313546
0.042645387 0.0088000046 -0.0095278574
0.042645331 0.0088000391 -0.011317477
0.044434763 0.0087999655 -0.012510376
0.07604602 -0.0081931809 -0.013703558
0.077238962 -0.0081931027 -0.013703549
0.068292357 -0.0075861309 -0.013703578
0.068888754 -0.0087999208 -0.0137035
0.068292268 -0.00091034221 -0.013703561
0.068888813 -0.0021241582 -0.013703531
0.067099318 -0.0021241163 -0.013703585
0.067695938 -0.0015171793 -0.013703545
0.067099318 -0.0003033836 -0.013703534
0.067695826 -0.00091040967 -0.013703503
0.068292253 0.0021240516 -0.013703562
0.067695849 0.0021242308 -0.013703493
0.065310031 0.0015172375 -0.013703572
0.065310061 0.00091025408 -0.013703477
0.064713575 0.00091037818 -0.013703512
0.064117156 0.001517324 -0.013703477
0.072467268 0.0015171709 -0.013703559
0.071870923 0.0033378636 -0.01370357
0.074256673 -0.0087999851 -0.01370354
0.088571131 0.00030349806 -0.013703547
0.08797472 0.0009104248 -0.01370356
0.088571206 0.00091032783 -0.013703485
0.090957038 0.0033378955 -0.013703502
0.089764014 0.0033379982 -0.01370354
0.089764096 0.0027309728 -0.01370354
0.089764148 0.0021240863 -0.013703466
0.090360627 0.0027310788 -0.013703402
0.089764021 0.0039448496 -0.013703508
0.0903605 0.0039448077 -0.013703397
0.066502936 0.00030339233 -0.013703512
0.018787805 0.0021241447 -0.013703483
0.018787738 0.0027309447 -0.013703486
0.019384313 0.0015172734 -0.013703586
0.018191375 0.0027309589 -0.013703536
0.018191438 0.0057655042 -0.013106911
0.017594922 0.005158647 -0.013107007
0.018191407 0.0051585566 -0.013106925
0.018787932 0.0063723996 -0.013107046
0.018191438 0.0063724923 -0.013107031
