# .PCD v0.7 - Point Cloud Data file format
VERSION 0.7
FIELDS x y z
SIZE 4 4 4
TYPE F F F
COUNT 1 1 1
WIDTH 1179
HEIGHT 1
VIEWPOINT 0 0 0 1 0 0 0
POINTS 1179
DATA ascii
0.0011923074 -0.0057818182 -0.007293859
-0.00075874082 -0.0056727277 -0.0057587721
-0.00032517486 -0.0056727268 -0.0061973687
-0.00075874059 -0.0057818182 -0.0081710536
-0.00032517494 -0.0057818177 -0.0081710517
-0.00032517491 -0.0057818177 -0.0077324575
0.015283216 -0.0057818186 -0.0077324566
0.015716782 -0.0057818177 -0.0077324566
0.010297202 -0.0057818186 -0.0053201756
0.010297203 -0.0057818186 -0.0057587721
0.013223777 -0.0057818191 -0.0042236829
0.012681817 -0.0057818182 -0.0042236843
0.012681816 -0.0057818186 -0.0047719306
0.013223774 -0.0057818172 -0.0047719306
0.0097552435 -0.0057818182 -0.0061973687
0.0092132855 -0.0057818186 -0.0061973697
0.0082377633 -0.0057818177 -0.0053201746
0.0061783213 -0.0057818186 -0.0018114038
0.0061783213 -0.0057818186 -0.0022500001
0.0067202803 -0.0057818177 -0.0018114028
0.0061783222 -0.0057818186 -0.0026885967
0.00075874117 -0.0055636368 -0.0042236848
-0.0092132865 -0.0057818182 -0.0042236843
-0.0047692303 -0.0057818186 -0.00729386
-0.0053111897 -0.0057818191 -0.0067456146
-0.0057447548 -0.0057818186 -0.0061973687
-0.0053111888 -0.0057818182 -0.0061973692
-0.0047692307 -0.0057818182 -0.0077324575
-0.0042272727 -0.0057818186 -0.007732457
-0.0053111892 -0.0057818177 -0.0057587721
-0.0053111888 -0.0057818191 -0.0047719302
-0.0057447548 -0.0057818186 -0.0053201756
-0.0057447548 -0.0057818177 -0.0047719311
-0.007695803 -0.0057818177 -0.0061973683
-0.0097552463 -0.0057818177 -0.0072938586
-0.0097552463 -0.0057818177 -0.0067456141
-0.010297203 -0.0057818177 -0.0061973687
-0.010297204 -0.0057818182 -0.0067456132
-0.022762239 -0.0057818191 -0.0061973697
-0.021786714 -0.0057818186 -0.0061973687
-0.02373776 -0.0057818191 -0.0018114035
-0.027206294 -0.0057818182 -0.0037850873
-0.027748248 -0.0057818172 -0.0032368428
-0.018751746 -0.0057818186 -0.00027631596
-0.019185318 -0.0057818191 -0.00071491208
-0.017776223 -0.0057818196 -0.0018114033
-0.019185318 -0.0057818177 -0.00027631596
-0.01831818 -0.0057818191 -0.0032368416
-0.019185314 -0.0057818182 -0.0012631582
-0.018751744 -0.0057818186 -0.0012631589
-0.01831818 -0.0057818186 -0.00071491231
-0.019727269 -0.0057818168 -0.0022499994
-0.0207028 -0.0057818191 -0.0067456141
-0.021244757 -0.0057818191 -0.0072938595
-0.019185318 -0.0057818186 -0.0037850868
-0.019185314 -0.0057818177 -0.0032368426
-0.0027097904 -0.0057818182 -0.0061973692
-0.0032517472 -0.0057818191 -0.005320176
-0.0037937057 -0.0057818186 -0.0061973683
-0.0032517475 -0.0057818172 -0.0061973687
-0.0027097906 -0.0057818182 -0.0057587712
-0.0022762239 -0.0057818182 -0.0057587712
-0.0017342661 -0.005738182 -0.0057807006
-0.0022762245 -0.0057818186 -0.0061973687
-0.0022762232 -0.0057818186 -0.005320176
-0.0017342663 -0.0056727272 -0.0053201756
-0.0032517484 -0.0057818172 -0.0047719302
-0.0027097901 -0.0057818182 -0.0047719302
-0.0047692307 -0.0057818186 -0.0026885965
-0.0047692303 -0.0057818186 -0.0042236848
-0.0053111888 -0.0057818186 -0.0037850873
-0.0047692307 -0.0057818191 -0.0018114031
-0.0042272732 -0.0057818182 -0.0012631579
-0.0042272727 -0.0057818177 -0.0018114035
-0.0057447557 -0.0057818191 -0.0018114028
0.0057447553 -0.0057818177 -0.0047719306
0.0053111892 -0.0057818182 -0.0053201746
0.0042272722 -0.0057818186 -0.0077324566
0.0037937064 -0.0057818182 -0.0077324556
0.0027097904 -0.0057818191 -0.0061973687
0.0037937055 -0.0057818182 -0.0061973687
0.0032517482 -0.0057818172 -0.0061973683
0.0032517486 -0.0057818182 -0.0057587717
0.0027097901 -0.0057818177 -0.0057587717
0.0053111892 -0.005738182 -0.0081491228
0.0057447557 -0.0057818186 -0.0072938586
0.0061783213 -0.0057818186 -0.0072938586
0.0057447557 -0.0057818186 -0.0067456136
0.0067202807 -0.0057818182 -0.00729386
0.0072622374 -0.0057818182 -0.0072938586
0.0072622378 -0.0057818182 -0.0077324566
0.007695803 -0.0057818186 -0.007732457
0.0076958034 -0.0057818186 -0.0072938586
0.0067202784 -0.0057818168 -0.006745615
0.0072622378 -0.0057818177 -0.0067456141
0.0067202798 -0.0057818182 -0.0061973697
0.0072622374 -0.0057818186 -0.0061973687
0.0017342654 -0.0057818177 -0.0077324579
0.0022762234 -0.0057818177 -0.00071491208
0.0017342655 -0.0057818177 -0.00071491208
0.0022762239 -0.0057818177 -0.0012631575
0.0022762236 -0.0057818186 -0.0018114035
0.0011923072 -0.0057818182 -0.0012631577
0.0037937057 -0.0057818182 -0.00027631596
0.0042272732 -0.0057818177 -0.00071491254
0.0042272722 -0.0057818182 -0.00027631596
0.0037937057 -0.0057818177 -0.00071491208
0.0047692303 -0.0057818177 -0.0018114038
0.0047692303 -0.0057818172 -0.0022499999
0.00075874117 -0.005236364 -0.0081710527
0.0072622374 -0.0057818182 -0.0081710536
0.0022762241 0.0027272722 -0.0081710527
-0.0017342661 0.0007636362 -0.0082807019
-0.0022762243 0.0021818187 -0.0081710536
-0.0022762234 0.0017454552 -0.0081710527
-0.0027097899 0.002181818 -0.0081710517
0.0022762236 -0.0027272722 -0.00027631642
-0.0011923083 0.00021818138 -0.00027631642
0.0023846147 -0.0033818176 0.0027938597
0.0032517489 -0.0032727267 -0.00027631549
0.0032517472 -0.0027272729 -0.00027631642
0.0037937069 -0.0021818185 -0.00027631642
0.00075874093 -0.0057818172 -0.0012631575
0.00075874117 -0.0057381815 -0.0017894742
0.0023846151 -0.0033818181 0.0012587723
-0.00075874175 0.0027272734 -0.0081710527
-0.0007587414 0.0021818187 -0.0081710517
-0.00032517506 0.0027272729 -0.0081710536
-0.0027097904 0.0027272725 -0.0081710517
-0.0017342655 0.0017454544 -0.0081710517
-0.0017342662 0.0021818185 -0.0081710517
-0.0027097899 0.0042545456 -0.0081710527
-0.0022762239 0.0037090909 -0.0081710527
-0.0017175903 0.0013006997 -0.0081963558
-0.0022762239 0.0013090911 -0.0081710527
-0.0027097908 0.0047999993 -0.0081710527
0.0011923079 0.0048000002 -0.0081710527
0.0002167832 0.004254546 -0.0081710536
0.0017342656 -0.00021818175 -0.0082807019
0.0011923073 -0.00021818164 -0.0082807019
0.0017342655 -0.00076363701 -0.0082807019
0.0017175904 -0.0013006992 -0.0081963558
0.0027097906 0.0013090906 -0.0082807019
0.0027097901 0.00076363666 -0.0082807001
0.0067202798 0.0013090913 -0.0082807019
0.0053111888 0.0017454552 -0.0082807019
0.0061783218 0.0021818175 -0.0082807019
0.0067202807 0.0021818185 -0.008280701
0.0067202803 0.0017454552 -0.0082807001
0.0067202812 0.00021818183 -0.0082807019
0.0067202784 0.00076363591 -0.0082807019
0.0072622369 0.00076363672 -0.0082807019
0.0042272722 0.0052363644 -0.0081710527
-0.00075874128 0.0032727276 -0.0081710536
-0.00032517483 0.0017454551 -0.0082807038
-0.0017342652 0.0037090904 -0.0081710527
-0.0011923074 0.0032727264 -0.0081710536
-0.0017342661 0.0032727267 -0.0081710527
-0.0017342655 0.0027272722 -0.0081710536
-0.00075874117 0.0042545451 -0.0081710517
-0.0011923079 0.004254546 -0.0081710517
0.00075874163 0.00021818125 -0.0082807019
0.00021678297 -0.00021818171 -0.0082807019
0.00021678268 0.00021818221 -0.0082807001
-0.0017342654 0.0042545456 -0.0081710517
-0.012681819 0.0037090913 -0.0081710536
-0.012681819 0.0032727269 -0.0081710536
-0.014741259 0.0021818178 -0.0081710517
-0.00075874175 0.0048000002 -0.0081710517
0.02373776 -0.0032727276 -0.0081710517
0.024279719 -0.0037090909 -0.0081710527
0.024279719 -0.0032727274 -0.0081710536
0.022762239 -0.0047999993 -0.0081710527
0.02568881 -0.002181818 -0.0081710517
0.022220282 -0.0057818186 -0.0077324566
0.024279717 -0.0027272727 -0.0081710517
0.024821678 -0.002727272 -0.0081710517
0.025255246 -0.0037090906 -0.0081710517
0.025688812 -0.0032727271 -0.0081710536
0.02482168 -0.0032727274 -0.0081710517
0.026230773 -0.0042545451 -0.0081710517
0.024821678 -0.0057818182 -0.0080614025
0.025255246 -0.0057818186 -0.0080614025
0.025233567 -0.0052145445 -0.0081052631
0.022762237 -0.0032727276 -0.0081710517
0.021786714 -0.0032727276 -0.0081710527
0.022220282 -0.0017454544 -0.0081710527
0.027206291 -0.0047999993 -0.0081710527
0.02829021 -0.0047999998 -0.0081710517
0.02829021 -0.0042545451 -0.0081710527
0.0032517484 0.0017454545 -0.0082807019
0.0042272727 0.0021818187 -0.0082807019
0.0022762243 0.0013090913 -0.0082807019
0.0072622378 -0.0057818191 -0.0053201751
0.0061783204 -0.0057818177 -0.0047719306
0.0067202779 -0.0057818172 -0.0047719302
0.0097552435 -0.0057818177 -0.0018114035
0.0097552426 -0.0057818177 -0.0022499999
0.0022762245 -0.0037090913 -0.0081710527
0.0017342663 -0.0037090911 -0.0081710517
0.0017342651 -0.004254546 -0.0081710517
0.0022762243 -0.0032727276 -0.0081710536
0.0027097899 -0.0037090911 -0.0081710536
0.0017342661 -0.0032727274 -0.0081710536
0.0022762241 -0.0017454539 -0.0081710527
0.0061783218 -0.0057818177 -0.0053201751
0.0092132865 -0.0057818182 -0.0057587717
0.0097552435 -0.0057818172 -0.0057587717
0.012248252 -0.0057818182 -0.0042236843
0.0082377624 0.0057818186 -0.0057587717
0.007695803 0.0057818182 -0.0053201751
-0.018751746 -0.0057818191 -0.0077324566
-0.019185318 -0.0057818177 -0.0081710527
-0.019727271 -0.0057818177 -0.0081710517
-0.01831818 -0.0057818182 -0.0072938586
-0.018751744 -0.0057818191 -0.0067456141
-0.018751746 -0.0057818177 -0.0081710517
-0.021244759 -0.0057818186 -0.0077324575
-0.021244757 -0.0057818168 -0.0081710517
-0.020702796 -0.0057818182 -0.0081710517
-0.027748255 -0.0057818182 -0.0081710517
-0.027206294 -0.0057818182 -0.0081710527
-0.027206292 -0.0048000007 -0.0081710536
-0.021786712 -0.0047999998 -0.0081710536
-0.022220282 -0.0048000002 -0.0081710517
-0.020702796 -0.005236364 -0.0081710527
-0.02026923 -0.0057818182 -0.0081710517
-0.022762239 -0.0057818182 -0.007293859
-0.023304196 -0.0057818177 -0.007732457
-0.023304196 -0.0057818182 -0.0067456132
-0.02373776 -0.0057818182 -0.0072938595
-0.02373776 -0.0057818186 -0.0061973687
-0.02373776 -0.0057818177 -0.0067456127
-0.024279715 -0.0057818177 -0.0067456136
-0.020702796 -0.00076363637 -0.0081710517
-0.029265733 -0.0037090913 -0.0081710527
-0.030241255 -0.0048000007 -0.0077324556
-0.030241253 -0.0042545456 -0.0077324556
-0.030241255 -0.005236364 -0.0061973687
-0.030241255 -0.0057818163 -0.0067456132
-0.030241255 -0.005236364 -0.0057587712
-0.030241253 -0.005236364 -0.0067456132
-0.030241255 -0.0047999998 -0.0061973697
-0.027748255 -0.0027272725 -0.0081710536
-0.02829021 -0.0037090911 -0.0081710527
-0.028723776 -0.0032727274 -0.0081710517
-0.029265733 -0.0032727274 -0.0081710527
-0.026230773 -0.00076363661 -0.0081710536
-0.025688812 -0.0013090913 -0.0081710517
-0.026230769 -0.0013090911 -0.0081710517
-0.025255242 -0.00076363608 -0.0081710536
-0.02568881 -0.0057818182 -0.0077324556
-0.025688812 -0.0057818172 -0.0081710527
-0.026772728 -0.0057818177 -0.0081710517
-0.026230767 -0.0052363649 -0.0081710517
-0.026772726 -0.0032727271 -0.0081710536
-0.027206294 -0.0032727267 -0.0081710527
-0.026230773 -0.0037090909 -0.0081710517
-0.026230767 -0.0032727264 -0.0081710536
-0.024806192 -0.0027116886 -0.0082180444
-0.026772728 -0.0027272727 -0.0081710527
-0.027748255 -0.0032727271 -0.0081710536
-0.02482168 0.0017454545 -0.0081710517
-0.024279719 0.001745455 -0.0081710536
-0.024279719 0.0013090912 -0.0081710517
-0.026772726 0.0032727276 -0.0081710536
-0.026230775 0.0027272736 -0.0081710536
-0.026230773 0.0032727274 -0.0081710527
-0.025688812 0.0017454543 -0.0081710527
-0.026772728 0.00076363567 -0.0081710527
-0.027206294 0.0021818182 -0.0081710517
-0.027206294 0.0027272722 -0.0081710536
-0.023753244 -0.00074805232 -0.0082180453
-0.02482168 -0.0017454542 -0.0081710527
-0.025255246 -0.001745455 -0.0081710536
-0.024289142 -0.0027367589 -0.0082425643
-0.025688812 -0.0017454539 -0.0081710517
-0.028723776 0.002727272 -0.0081710536
-0.029807689 0.0027272732 -0.0081710517
-0.030241255 0.0021818175 -0.0081710536
-0.028723776 0.004254546 -0.0081710527
-0.029265733 0.0037090904 -0.0081710527
-0.02829021 0.0032727278 -0.0081710536
-0.02829021 0.0037090904 -0.0081710527
-0.027748255 0.003709092 -0.0081710536
-0.027748255 0.0032727271 -0.0081710517
-0.027206294 0.005236364 -0.0081710517
-0.027748255 0.0057818191 -0.0077324566
-0.027206294 0.0057818186 -0.0077324575
-0.026772728 0.0057818191 -0.0077324566
-0.02026923 0.0037090906 -0.0081710517
-0.019185318 0.0042545451 -0.0081710517
-0.018751748 0.0037090916 -0.0081710517
-0.018751746 0.004254546 -0.0081710517
-0.021244757 -0.0057818182 -0.0053201751
-0.0207028 -0.0057818186 -0.0047719302
-0.022762239 -0.0057818172 -0.0067456146
-0.022220282 -0.0057818172 -0.0067456132
-0.025255242 -0.0057818182 -0.0077324561
-0.01831818 -0.0057818182 -0.0067456132
-0.015716784 -0.0057818182 -0.0057587717
-0.015283217 -0.0057818182 -0.0061973692
-0.016258743 -0.0057818191 -0.0057587707
-0.014741259 -0.0057818186 -0.0053201746
-0.015283216 -0.0057818182 -0.0053201751
-0.016258743 -0.0057818182 -0.0042236838
-0.0168007 -0.0057818186 -0.0047719311
-0.014741263 -0.0057818177 -0.0047719306
-0.015283216 -0.0057818177 -0.0047719302
-0.014199302 -0.0057818177 -0.0053201746
-0.013765737 -0.0057818186 -0.0053201756
-0.014199301 -0.0057818191 -0.0037850873
-0.013765736 -0.0057818182 -0.0057587721
-0.014199301 -0.0057818182 -0.0047719311
-0.013765736 -0.0057818186 -0.0042236843
-0.015283215 -0.0057818177 -0.0057587707
-0.014199301 -0.0057818182 -0.0077324566
-0.017234266 -0.0032727276 -0.0081710517
-0.021244761 -0.0057818163 -0.0032368428
-0.019185318 -0.0057818177 -0.0042236838
-0.022762239 -0.0057818177 -0.0042236843
-0.022762239 -0.0057818177 -0.0047719306
-0.022762239 -0.005236364 -0.00027631642
-0.025255242 -0.0057818186 -0.0072938586
-0.0053111888 0.0057818182 -0.0022500001
-0.0053111888 0.0057818182 -0.003785087
-0.0057447553 0.0057818182 -0.0032368423
-0.0057447548 0.0057818177 -0.0026885967
-0.0061783204 0.0057818172 -0.0032368426
-0.007695803 0.0057818177 -0.0018114028
-0.0076958039 0.0057818182 -0.0022499994
-0.0072622378 0.0057818177 -0.0012631579
-0.0076958039 0.0057818186 -0.0026885967
-0.0032517484 -0.0021818178 -0.0081710536
-0.0032517489 -0.0027272725 -0.0081710517
-0.003280652 -0.0017527275 -0.0082368422
-0.0012043506 -0.0057090903 -0.0057709543
-0.0017342662 -0.0057818182 -0.0077324566
-0.0012021619 -0.0057619843 -0.0073038274
-0.00075874105 -0.0057381815 -0.0073157893
-0.00075874175 -0.0027272725 -0.0081710527
-0.00032517541 -0.0027272727 -0.0081710517
-0.0011923076 -0.0027272727 -0.0081710517
-0.000325175 -0.0021818182 -0.0081710536
-0.0007587407 -0.0021818178 -0.0081710517
-0.0011923077 -0.0032727264 -0.0081710527
-0.0053266734 -0.0027116884 -0.0082180444
-0.0047692303 -0.0027157892 -0.0081883632
-0.0053111892 -0.0037090913 -0.0081710517
-0.0047692307 -0.0037090902 -0.0081710527
-0.0053111892 -0.0032727276 -0.0081710517
0.012681817 0.0057818186 -0.00071491278
0.012248252 0.0057818186 -0.00027631642
0.012681817 0.0057818182 -0.00027631596
0.013223777 0.0057818186 -0.00027631642
0.013223778 0.0057818177 -0.00071491208
0.024279719 0.0048000002 -0.00027631549
0.024279717 0.0042545446 -0.00027631596
0.02373776 0.0057818191 -0.00027631549
0.030241255 0.0052363644 -0.00027631549
0.019727273 0.0037090916 -0.00027631549
0.02026923 0.0037090906 -0.00027631596
0.020269232 0.0042545456 -0.00027631596
0.020702796 0.0048000007 -0.00027631642
0.02026923 0.0048000002 -0.00027631596
0.0168007 0.0013090905 -0.00027631549
0.0168007 0.0017454542 -0.00027631596
0.029807689 0.0057818177 -0.00071491278
0.0053111892 0.0057818182 -0.00027631642
0.0057447553 0.0052363635 -0.00027631549
0.0057447553 0.0057818182 -0.00071491161
0.00075874117 0.0057818182 -0.00027631549
0.0032517475 0.0057818182 -0.00027631596
0.0037937067 0.0052363644 -0.00027631549
0.0032517484 0.0052363649 -0.00027631642
0.0061783209 0.0057818182 -0.00027631642
0.012681819 0.0052363635 -0.00027631549
0.014741258 0.0052363644 -0.00027631549
0.014199301 0.0052363644 -0.00027631642
0.015283215 0.0057818182 -0.00027631596
0.014741259 0.0057818186 -0.00027631549
0.015283216 0.0052363644 -0.00027631549
0.015716782 0.0057818182 -0.00027631596
0.0032517482 0.0057818182 -0.0012631575
0.003793706 0.0057818182 -0.00071491301
0.017776223 0.0057818186 -0.0037850877
0.017234266 0.0057818191 -0.0053201756
0.021244757 0.0057818182 -0.003785087
0.022762239 0.0052363644 -0.00027631596
0.023304196 0.0052363635 -0.00027631596
0.023304196 0.0047999998 -0.00027631642
0.028723776 0.0048000002 -0.00027631596
0.02829021 0.0047999998 -0.00027631642
0.02829021 0.004254546 -0.00027631596
0.02829021 0.0052363635 -0.00027631596
0.030739859 -0.0022036368 -0.00027631549
0.030674824 -0.00076363614 -0.00027631642
0.030674828 -0.0013090913 -0.00071491185
0.030674828 -0.0002181812 -0.00027631642
0.028723776 0.0057818186 -0.0037850877
0.028290208 0.0057818196 -0.0032368428
0.02829021 0.0057818182 -0.0037850875
0.02829021 0.0057818182 -0.0042236834
0.029807691 0.0057818182 -0.0032368421
0.025688807 0.0057818186 -0.0026885974
0.026230769 0.0057818177 -0.0022500004
0.025688812 0.0057818182 -0.0022500004
0.026230775 0.0057818182 -0.0026885965
0.026230775 0.0057818177 -0.0053201756
0.026230764 0.0057818163 -0.0047719297
0.030674826 0.0048000007 -0.0042236848
0.030674828 0.0048000007 -0.0037850873
0.0076958039 0.0057818177 -0.0067456141
0.0057447553 0.0057818186 -0.0053201751
0.0061783213 0.0057818182 -0.0047719302
0.0061783218 0.0057818177 -0.0053201756
0.0057447548 0.0057818182 -0.0057587726
-0.0076958039 0.0048000002 -0.00027631642
-0.010297203 0.0052363644 -0.00027631549
-0.0097552454 0.0048000002 -0.00027631549
-0.0092132855 0.0048000007 -0.00027631642
0.0022762234 0.0057818172 -0.002688597
0.0022762232 0.0057818172 -0.0032368426
-0.0017342662 0.0057818177 -0.0026885967
-0.0022762239 0.0057818177 -0.0026885963
0.030241253 -0.0027272725 -0.0022500006
0.030241253 -0.0027272732 -0.0026885967
0.030566433 0.00076363614 -0.001811404
0.02763986 -0.0037454541 0.0031959056
0.027216148 -0.0042347107 0.0027838917
0.027717283 -0.0041922065 0.0022456143
0.027206296 -0.004254546 0.0022456138
0.02482168 -0.005236364 -0.00027631642
0.025255246 -0.0052363635 -0.00027631642
0.030132867 -0.0042545451 -0.0080614034
0.030132867 -0.0048000002 -0.0057587717
0.030132867 -0.0052363635 -0.0077324566
0.030205125 -0.0036727272 -0.0077324566
0.030132867 -0.0048000002 -0.0077324556
0.028687647 -0.0021818178 -0.0081345029
0.029265735 -0.001709091 -0.0081345029
0.030132866 -0.0048000002 -0.0067456136
0.030241257 -0.0027272727 -0.0080614015
0.029807692 -0.0027272732 -0.0080614025
0.029807692 -0.0037090906 -0.0080614034
0.030241255 0.0017454546 -0.00027631549
0.030566433 0.0013090905 -0.00027631642
0.030566433 0.0017454551 -0.00027631642
0.030653149 0.00072000053 -0.00027631642
0.029265735 -0.0057818177 -0.0042236838
0.022762239 -0.0057818191 -0.0061973697
0.022220282 -0.0057818191 -0.0057587717
0.022220282 -0.0057818182 -0.0061973687
0.022762239 -0.0057818182 -0.0057587712
0.022220282 -0.0057818177 -0.0067456132
0.025688807 -0.0057818191 -0.0067456136
0.026230775 -0.0057818196 -0.0072938595
0.025255242 -0.0057818177 -0.0072938595
0.02525524 -0.0057818177 -0.0067456141
0.025688812 -0.0057818186 -0.0077324566
0.024821676 -0.0057818182 -0.0067456141
0.024821678 -0.0057818186 -0.0053201756
0.025255242 -0.0057818186 -0.0042236843
0.02373776 -0.0057818186 -0.0047719311
0.025688812 -0.0057818186 -0.0053201751
0.026230773 -0.0057818196 -0.0077324561
0.026772728 -0.0057818172 -0.0077324566
0.028723776 -0.0057818186 -0.0077324566
0.028290208 -0.0057818177 -0.0047719311
0.027206294 -0.0057818186 -0.0042236834
0.026772728 -0.0057818186 -0.0042236843
0.023753244 -0.0057506491 -0.0080927312
0.022762239 -0.0057818182 -0.0080614025
0.030132864 -0.0042545456 -0.0047719297
0.030132866 -0.0042545451 -0.0042236834
0.028723776 -0.0057818186 -0.00071491254
0.028290208 -0.0057818186 -0.0067456141
0.029807691 -0.0057818172 -0.0032368423
0.026230771 -0.0057818182 -0.002688597
0.028290208 -0.0057818182 -0.0032368423
0.026230773 -0.0057818177 -0.0018114033
0.025688812 -0.0057818177 -0.0018114038
0.026772728 -0.0057818177 -0.0037850877
0.030674826 -0.0017454546 -0.00071491278
0.030783214 -0.002727272 -0.00027631549
0.030674828 -0.0017454546 -0.00027631549
0.030783216 -0.0032727264 -0.00027631596
0.030241255 -0.0032727271 -0.00027631596
0.027704898 -0.0037309092 0.0027938588
0.030219575 -0.0042109098 -0.00027631549
0.022220282 -0.0037090913 0.0012587719
0.021244759 -0.0027272727 -0.00027631596
0.021244755 -0.0032727271 -0.00027631549
0.020702796 -0.0027272725 -0.00027631596
0.027206294 -0.0042545451 0.00082017528
0.027206294 -0.0042545451 0.0012587714
0.027206294 -0.0042545456 0.001697368
0.027206296 -0.0057818177 -0.00027631549
0.027748255 -0.005236364 -0.00027631596
0.027206292 -0.0052363635 -0.00027631549
0.026772726 -0.0052363644 -0.00027631596
0.02829021 -0.0052363644 -0.00027631549
0.02829021 -0.0048000007 -0.00027631549
0.0082377633 0.0027272729 -0.00027631596
0.007695803 0.0027272725 -0.00027631596
0.0022762239 -0.00021818191 -0.00027631549
0.0022762243 0.00021818194 -0.00027631642
0.0027097899 0.00021818194 -0.00027631596
0.0027097911 -0.00021818181 -0.00027631642
-0.0011923071 -0.0027272729 -0.00027631549
-0.0017342658 -0.0032727271 -0.00027631642
-0.0017342651 -0.0027272729 -0.00027631642
-0.0007587407 -0.0027272722 -0.00027631642
-0.00075874152 -0.0042545456 -0.00027631596
0.00021678314 -0.0037090911 -0.00027631596
0.0026943062 -0.0037246752 0.0032167919
0.0061783218 -0.0037090906 -0.00027631549
0.0057447553 -0.0037090906 -0.00027631549
0.0057447548 -0.0032727267 -0.00027631549
0.0061783227 -0.0032727278 -0.00027631596
0.0057447557 -0.0042545451 -0.00027631549
0.0061783222 -0.0027272727 -0.00027631549
0.0057447553 -0.0027272729 -0.00027631596
0.0067202803 -0.0027272729 -0.00027631549
0.0067202803 -0.0032727267 -0.00027631549
0.0072622374 -0.0027272722 -0.00027631642
0.0002167827 -0.005727272 -0.0017565785
0.0022762236 -0.0042545456 0.00082017528
0.0017342658 -0.0047999998 -0.00027631549
0.0007587407 -0.004254546 -0.00027631596
0.0011923078 -0.004254546 -0.00027631642
0.001192307 -0.0037090904 -0.00027631596
0.00021678326 -0.0042545456 -0.00027631642
0.030674828 0.0037090911 -0.0072938595
0.030674823 0.0037090906 -0.0067456136
0.030674828 0.0037090911 -0.0061973692
0.030674823 0.004254546 -0.0061973687
0.030674824 0.0027272725 -0.0057587726
0.030674828 0.0032727278 -0.0053201756
0.030674823 0.0027272727 -0.0053201756
0.030674826 0.0032727276 -0.0057587721
0.030566433 0.0013090916 -0.0053201756
0.030566433 0.00076363696 -0.0053201756
0.030566433 0.0013090912 -0.0057587721
0.030566433 0.0017454545 -0.0053201756
0.030566433 0.0021818185 -0.0053201756
0.030566433 0.002181818 -0.0057587721
0.029265733 0.0047999998 -0.0081710517
0.029265735 0.0042545456 -0.00027631549
0.029807691 0.0037090909 -0.00027631549
0.029807689 0.0042545451 -0.00027631642
0.029265733 0.0037090902 -0.00027631642
0.028723776 0.0037090904 -0.00027631596
-0.02026923 0.0017454539 -0.00027631549
-0.021786714 0.0057818182 -0.00027631596
-0.021786714 0.0057818177 -0.00071491278
-0.021786714 0.004254546 -0.00027631549
-0.025688812 0.0057818182 -0.00071491278
-0.021786716 0.0021818182 -0.00027631549
-0.02373776 -0.0047999998 -0.00027631549
-0.022220282 -0.0042545451 0.0016973689
-0.019727269 -0.0057818186 -0.00071491231
-0.021244761 -0.0057818177 -0.0012631582
-0.021786714 -0.0057818186 -0.00071491254
-0.02026923 -0.0057818182 -0.0018114031
-0.010730769 -0.0052363644 -0.00027631642
-0.011814685 -0.0057818182 -0.0022499999
-0.011272728 -0.0057818177 -0.0026885967
-0.011814684 -0.0057818186 -0.0032368433
-0.013765736 -0.0057818191 -0.0012631575
-0.014741258 -0.0057818191 -0.0018114035
-0.012248253 -0.0057818191 -0.0018114033
-0.01073077 -0.0057818177 -0.0012631584
-0.010297205 -0.0057818172 -0.0012631582
-0.012248253 -0.0057818182 -0.00071491231
-0.012681816 -0.0057818182 -0.00071491231
-0.029265733 -0.0052363644 -0.00027631549
-0.0097552463 -0.0057818172 -0.0012631579
-0.0067202803 -0.0057818191 -0.0026885965
-0.0061783209 -0.0057818182 -0.0037850873
-0.0075874128 -0.0046909088 0.00268421
-0.0076958039 -0.0042545451 0.001697368
-0.0075874124 -0.0046909093 0.001697368
-0.0076958048 -0.0037090913 0.0012587714
0.025255242 0.0057818186 -0.00071491161
0.025688807 0.0057818191 -0.0012631589
0.02525524 0.0057818191 -0.0012631582
0.024821678 0.0057818186 -0.0018114038
0.024279717 0.0057818186 -0.00071491231
0.02373776 0.0057818186 -0.0012631575
0.024279715 0.0057818177 -0.0012631582
0.024821676 0.0057818172 -0.0012631582
-0.026772728 0.0057818186 -0.00071491185
-0.030620631 -0.00070909038 -0.0037850873
-0.030566433 -0.0013090916 -0.0037850873
-0.030566433 -0.0013090903 -0.0032368419
-0.026230769 0.0021818178 -0.00027631596
-0.026772726 0.001745454 -0.00027631642
-0.022220282 0.00021818212 -0.00027631596
-0.024279715 -0.0017454542 -0.00027631549
-0.02373776 -0.0013090913 -0.00027631642
-0.023304196 -0.00021818159 -0.00027631596
-0.022762239 -0.00021818151 -0.00027631642
-0.023304196 -0.00076363661 -0.00027631596
-0.0168007 0.0057818186 -0.007293859
-0.020269236 0.0057818172 -0.0032368428
-0.0207028 0.0057818182 -0.0032368423
-0.021244759 0.0057818186 -0.0042236843
-0.021244761 0.0057818172 -0.0047719306
-0.021786714 0.0057818186 -0.0042236834
-0.0207028 0.0057818172 -0.0047719302
-0.022220282 0.0057818177 -0.0042236843
0.030241253 0.0057818186 -0.0022500004
0.030241253 0.0057818177 -0.0026885965
0.029807689 0.0057818177 -0.002688597
0.014199301 0.0032727267 -0.00027631642
0.014199302 0.0037090906 -0.00027631596
0.012681819 0.0032727276 -0.00027631642
0.012248252 0.0042545451 -0.00027631596
0.012248252 0.0048000007 -0.00027631549
0.010730769 0.0037090911 -0.00027631596
0.011272728 0.0032727267 -0.00027631642
0.022638362 -0.0037246749 0.0032167924
0.022545455 -0.0033818183 0.0027938602
0.021244757 -0.00021818235 -0.00027631596
0.021786712 0.00021818181 -0.00027631642
0.021244755 0.00021818164 -0.00027631596
0.022220282 -0.0037090906 0.0027938592
0.022241961 -0.0042109094 0.0027938592
0.025688812 0.0021818182 -0.00027631549
0.025688812 0.0017454549 -0.00027631642
0.025688812 0.0027272722 -0.00027631549
0.025688812 0.0013090911 -0.00027631596
0.026230771 0.00076363579 -0.00027631549
0.025255242 0.0027272722 -0.00027631596
0.024821678 0.0027272732 -0.00027631642
0.02482168 0.0032727269 -0.00027631596
0.014199302 0.0057818182 -0.00027631549
0.013765736 0.0057818182 -0.00027631549
0.013765736 0.0057818172 -0.00071491231
0.010297203 0.0057818172 -0.00071491185
0.0092132865 0.0032727269 -0.00027631549
0.0087797195 0.0037090909 -0.00027631596
0.0082377633 0.0032727274 -0.00027631549
0.0076958039 0.0032727278 -0.00027631642
0.0082377642 0.0037090906 -0.00027631596
0.010297203 0.004254546 -0.00027631642
0.0097552454 0.0052363644 -0.00027631596
0.010297203 0.0052363644 -0.00027631596
0.0087797195 0.0057818182 -0.00071491254
0.0082377624 0.0057818191 -0.00027631596
0.0072622374 0.0057818182 -0.0012631575
-0.020269236 0.0057818172 -0.0012631582
-0.021244761 0.0057818172 -0.0012631589
-0.0168007 -0.0027272729 -0.00027631642
-0.017342657 -0.0033818183 0.0001622811
-0.016258745 -0.0017454552 -0.00027631642
-0.0168007 -0.0021818182 -0.00027631549
-0.017559441 -0.0033818183 0.0012587723
-0.017559441 -0.0033818181 0.0016973689
-0.018751748 -0.0021818187 -0.00027631549
-0.019185316 -0.0021818185 -0.00027631596
-0.019185318 -0.0027272732 -0.00027631596
-0.017559441 -0.0033818174 0.0022456138
-0.01831818 -0.00076363591 -0.00027631549
-0.016258743 0.00076363626 -0.00027631596
-0.017234266 0.0013090903 -0.00027631596
-0.017234266 0.00076363655 -0.00027631642
-0.017776223 0.0013090912 -0.00027631549
-0.017234266 0.00021818149 -0.00027631549
-0.015716784 -0.0013090912 -0.00027631642
-0.014199303 0.0042545451 -0.00027631549
-0.014199303 0.0047999998 -0.00027631596
-0.013765736 0.0047999998 -0.00027631642
-0.014741259 0.0047999998 -0.00027631596
-0.015716784 0.0052363635 -0.00027631596
-0.014199301 0.0057818182 -0.00071491231
-0.014741258 0.0037090909 -0.00027631642
-0.028723776 -0.0057818182 -0.0032368426
-0.028723776 -0.0042545456 -0.00027631642
-0.02829021 -0.0048000002 -0.00027631596
-0.0168007 -0.0052363644 -0.00027631549
-0.019727271 0.00076363614 -0.0081710517
-0.020269232 0.00076363637 -0.0081710536
-0.020702796 0.001745455 -0.0081710517
-0.021244755 0.002181818 -0.0081710536
-0.020702796 0.0032727267 -0.0081710517
-0.021244757 0.0027272729 -0.0081710536
-0.019185318 0.0057818177 -0.0077324556
-0.016258743 0.002181818 -0.0081710517
0.00021678364 0.0057818182 -0.00071491208
0.001734265 0.0042545451 -0.00027631549
0.0011923072 0.0047999998 -0.00027631549
0.001192308 0.0042545456 -0.00027631596
0.00021678337 0.0048000002 -0.00027631642
0.0011923081 0.0037090916 -0.00027631642
0.0053111892 0.0057818186 -0.0018114033
0.0047692312 0.0057818182 -0.0018114028
0.0057447553 0.0057818177 -0.001811404
0.0053111892 0.0057818182 -0.00071491208
0.0047692303 0.0057818172 -0.0012631577
0.0053111892 0.0057818172 -0.0012631584
0.0042272732 0.0007636362 -0.00027631596
0.0047692307 0.0013090908 -0.00027631549
0.0047692298 0.00076363643 -0.00027631642
0.003793706 0.0007636369 -0.00027631642
0.003793706 0.001309091 -0.00027631642
0.017234266 -0.0037090918 0.0022456148
0.012681818 -0.00021818123 -0.00027631549
0.012248253 -0.00021818213 -0.00027631596
0.012681819 0.00021818194 -0.00027631549
0.012248253 0.00021818203 -0.00027631596
0.010297204 0.0057818186 -0.0047719306
0.010730769 0.0057818182 -0.0042236834
0.01073077 0.0057818191 -0.0053201746
0.010730769 0.0057818182 -0.0047719311
0.010730769 0.0057818191 -0.0037850873
0.010297203 0.0057818191 -0.0037850882
0.0092132855 0.0057818191 -0.0032368428
0.0092132865 0.0057818191 -0.0037850882
0.0097552435 0.0057818177 -0.0037850877
0.0097552435 0.0057818191 -0.0077324566
0.0097552435 0.0057818182 -0.0081710536
0.0092132865 0.0057818177 -0.0081710517
0.029265733 0.0032727264 -0.0081710517
0.028723776 0.0037090913 -0.0081710517
0.029265733 0.0037090906 -0.0081710517
0.028723776 0.0021818185 -0.0081710517
0.030566433 0.0021818178 -0.0067456132
0.030566433 0.0017454545 -0.0061973687
0.030566433 0.0013090908 -0.0061973687
0.027748255 -0.0057818182 -0.001811404
-0.0168007 -0.0042545451 -0.0081710527
-0.017234266 -0.0042545451 -0.0081710517
-0.017234266 -0.0037090909 -0.0081710536
0.021786718 -0.0057818186 -0.0061973687
0.0032517479 -0.0052363644 -0.0081710527
0.0037937055 -0.0047999998 -0.0081710536
0.0032517482 -0.0057818182 -0.0077324566
-0.012681817 -0.0057818182 -0.0072938595
-0.0027097899 -0.0042545451 -0.0081710517
-0.0027097911 -0.0037090909 -0.0081710536
0.013765736 -0.0057818182 -0.0077324566
0.01471958 -0.0057600001 -0.0080833323
0.012248253 -0.0057818186 -0.0077324556
0.0092132865 -0.0057818182 -0.0077324566
0.010730769 -0.0057818182 -0.0077324575
0.019185314 -0.0052363635 -0.0080614034
0.011272729 -0.0057818182 -0.0067456127
0.011272728 -0.0057818177 -0.0061973692
-0.0092132865 -0.005236364 -0.0081710517
-0.030241255 -0.0037090902 -0.0081710527
-0.030241253 -0.0042545451 -0.0081710517
0.00021678268 0.0057818182 -0.007293859
0.00075874117 0.0057818172 -0.0067456132
-0.00032517535 0.0057818177 -0.0067456141
0.0027097904 0.0057818182 -0.0072938595
0.0027097908 0.0057818182 -0.0077324566
0.0017342662 0.0057818186 -0.0077324566
0.0037937067 0.0057818172 -0.0047719316
-0.017776223 0.0057818177 -0.006745615
-0.01831818 0.0057818186 -0.0061973687
-0.0168007 0.0032727264 -0.0081710527
-0.017234266 0.0032727269 -0.0081710517
-0.015283218 0.0032727274 -0.0081710527
-0.0168007 0.0048000007 -0.0081710517
-0.01779593 0.005742148 -0.0081012752
-0.0032517486 -0.0037090906 -0.0081710527
-0.0037937062 -0.0037090906 -0.0081710536
-0.0053111888 -0.00076363678 -0.0082807019
-0.0027097899 -0.00076363643 -0.0082807038
-0.003793706 -0.0057818191 -0.0081710517
-0.0072622374 -0.0013090906 -0.0082807019
-0.0072622369 -0.0017454546 -0.0082807019
-0.0067202803 -0.00021818191 -0.0082807001
-0.0067202803 0.0042545451 -0.0081710536
-0.0072622383 -0.00021818207 -0.0082807019
-0.0097552463 0.0052363644 -0.0081710517
-0.0061783222 -0.0013090906 -0.0082807019
-0.0076958048 -0.0052363635 -0.0081710536
-0.0042272732 -0.004254546 -0.0081710527
-0.0057447548 -0.001745454 -0.0082807019
-0.0047692303 -0.0013090915 -0.0082807038
-0.011272728 0.0057818172 -0.007293859
-0.012248252 -0.00076363666 -0.008280701
-0.01073077 0.0042545456 -0.0081710536
-0.010297203 0.0042545451 -0.0081710527
-0.010730769 0.005236364 -0.0081710517
-0.010297203 0.0052363635 -0.0081710517
-0.010297202 0.0047999993 -0.0081710527
-0.0097552454 0.0037090899 -0.0081710517
0.02373776 0.0037090906 -0.0081710517
0.023304196 0.004254546 -0.0081710536
0.02373776 0.004254546 -0.0081710517
0.023304196 0.0037090904 -0.0081710527
0.027748255 0.0021818175 -0.0081710536
0.02482168 0.0037090911 -0.0081710517
0.025255246 0.0037090911 -0.0081710517
0.02482168 0.0032727276 -0.0081710527
0.025255246 0.0032727269 -0.0081710517
-0.018318182 -0.0013090912 -0.0081710517
-0.016794324 -0.00075080257 -0.0082678031
-0.02026923 0.0057818186 -0.0077324566
-0.02026923 0.0057818177 -0.0072938586
-0.017776223 0.00021818164 -0.0081710527
-0.018751748 0.0017454539 -0.0081710517
-0.017776223 0.0027272729 -0.0081710536
-0.018751746 0.002727272 -0.0081710517
-0.017776223 0.0047999993 -0.0081710517
-0.017776223 0.004254546 -0.0081710536
-0.017234266 0.004254546 -0.0081710527
-0.018318182 0.0013090902 -0.0081710517
-0.017234266 0.0021818178 -0.0081710517
-0.016258745 0.00076363567 -0.0081710517
-0.013765736 0.0027272729 -0.0081710517
-0.013223777 0.0027272732 -0.0081710536
-0.013765736 0.0032727276 -0.0081710517
-0.0067202807 0.0052363649 -0.0081710527
-0.0053111888 0.0057818186 -0.0077324566
-0.010297203 -0.0048000007 -0.0081710527
-0.010297203 -0.0042545456 -0.0081710517
-0.011272728 -0.005236364 -0.0081710536
-0.011814685 -0.0017454544 -0.0082807019
-0.012248252 -0.0013090906 -0.0082807019
-0.012248252 -0.0017454543 -0.0082807019
-0.0076958044 -0.0032727276 -0.0081710527
-0.0076958039 -0.0037090906 -0.0081710527
-0.010730769 -0.0017454549 -0.0082807019
-0.010297203 -0.0017454549 -0.0082807019
-0.010297203 -0.002181818 -0.0082807019
-0.010720915 -0.0021719004 -0.0082607651
-0.0082377642 0.00076363643 -0.0081710517
-0.017234266 -0.0057818186 -0.0061973697
0.0027097894 0.0047999998 -0.0081710517
0.0022762239 0.004254546 -0.0081710536
0.0042272727 0.0013090912 -0.0082807019
0.0053111892 0.0013090906 -0.0082807019
0.0047692303 0.0013090904 -0.0082807019
0.0027097904 0.0032727274 -0.0081710517
0.0042272736 0.00021818242 -0.0082807019
0.0037937067 0.00021818136 -0.0082807019
0.0047692298 0.00076363637 -0.008280701
0.0042272727 0.00076363672 -0.0082807019
0.0053111897 0.00076363643 -0.008280701
-0.017776223 -0.0047999993 -0.0081710527
-0.018751748 -0.0032727278 -0.0081710527
-0.018318182 -0.0032727271 -0.0081710517
-0.018318182 -0.0037090911 -0.0081710517
0.029807689 0.004254546 -0.0081710536
0.030674826 0.0048000007 -0.0061973687
0.030674824 0.0027272727 -0.0047719306
0.030566433 0.00021818158 -0.006745615
0.030241255 -0.0021818175 -0.0072938595
0.030241255 -0.0017454551 -0.0072938604
0.030241255 -0.001745454 -0.0042236838
0.030241253 -0.0013090912 -0.0047719302
0.030241255 -0.0013090911 -0.0042236843
0.030241253 -0.0027272725 -0.0057587707
0.030566433 0.0007636369 -0.0061973687
0.027206294 -0.0027272732 -0.00027631549
0.026772728 -0.0027272732 -0.00027631549
0.026772728 -0.0057818182 -0.0022500006
0.030602565 -0.00076363678 -0.0017748545
0.030132866 -0.0042545451 -0.002688597
-0.02373776 -0.0037090911 -0.00027631642
-0.024279719 -0.0032727269 -0.00027631596
-0.024279715 -0.0047999998 -0.00027631596
-0.022762239 -0.00076363661 -0.00027631642
-0.023304196 -0.0013090905 -0.00027631549
-0.025255246 -0.001745455 -0.00027631596
-0.025688812 -0.0017454539 -0.00027631596
-0.025688812 -0.0013090903 -0.00027631549
-0.025255246 0.0002181819 -0.00027631549
-0.02568881 -0.00076363701 -0.00027631549
-0.026230769 -0.0013090902 -0.00027631642
-0.026230773 -0.00076363573 -0.00027631596
-0.026230767 -0.0002181821 -0.00027631549
-0.025255246 -0.0047999998 -0.00027631642
-0.02373776 -0.00076363666 -0.00027631596
-0.024279717 0.00076363614 -0.00027631642
-0.02482168 0.0013090902 -0.00027631596
-0.02373776 0.00021818165 -0.00027631596
-0.02829021 -0.00076363626 -0.00027631596
-0.029265735 -0.0007636369 -0.00027631642
-0.030674828 -0.0017454544 -0.00071491185
-0.030566433 -0.0017454547 -0.0012631584
-0.028723776 -0.0037090909 -0.00027631549
-0.029265733 -0.0032727264 -0.00027631549
-0.030241253 -0.0027272732 -0.00027631549
-0.027748255 0.0002181817 -0.00027631549
-0.02829021 0.00021818132 -0.00027631549
-0.028723776 0.00021818235 -0.00027631642
-0.026772728 -0.0057818182 -0.00071491208
-0.026230771 -0.0057818177 -0.00071491254
-0.025688812 -0.0032727276 -0.00027631549
-0.025255246 -0.0037090913 -0.00027631596
-0.030566433 -0.0027272725 -0.0018114028
-0.030241255 -0.0047999998 -0.002688596
-0.030241255 -0.004254546 -0.0032368421
-0.030241253 -0.0047999998 -0.0032368428
-0.030241253 -0.0052363644 -0.0032368423
-0.022220282 0.001745455 -0.0081710517
-0.021786716 0.0017454543 -0.0081710527
-0.022220282 0.0013090905 -0.0081710517
-0.021786714 0.0021818178 -0.0081710517
-0.023304196 0.0013090909 -0.0081710517
-0.022762239 0.0017454547 -0.0081710536
-0.023304196 0.0017454543 -0.0081710527
-0.02373776 0.0013090911 -0.0081710517
-0.023304196 0.0021818182 -0.0081710536
-0.023304196 0.0027272722 -0.0081710517
-0.026772726 -0.0017454547 -0.0081710527
-0.028723776 0.00021818189 -0.0081710517
-0.028723776 0.001745455 -0.0081710527
-0.029265733 0.0017454543 -0.0081710517
-0.026772726 -0.0013090912 -0.0081710517
-0.027206294 0.00021818135 -0.0081710517
-0.026772726 -0.00021818171 -0.0081710517
-0.029807691 -0.00021818154 -0.0081710536
-0.026230766 0.0057818172 -0.0047719297
-0.030783216 0.0047999998 -0.00071491278
-0.028723776 0.005236364 -0.00027631549
-0.02829021 0.0037090904 -0.00027631642
-0.02829021 0.004254546 -0.00027631642
-0.028723776 0.0037090909 -0.00027631642
-0.029807689 0.0042545465 -0.00027631642
-0.028723776 0.0032727278 -0.00027631642
-0.029265733 0.0032727269 -0.00027631596
-0.029265733 0.0037090916 -0.00027631596
-0.030241255 0.0032727274 -0.00027631596
-0.028723776 0.0013090915 -0.00027631642
-0.029807691 0.00021818205 -0.00027631596
-0.029265733 0.0013090908 -0.00027631642
-0.029265735 0.00076363585 -0.00027631596
-0.030674828 0.00021818244 -0.00071491278
-0.030674823 0.00021818216 -0.0012631584
-0.030674826 0.0017454544 -0.00027631596
-0.030241255 0.0017454551 -0.00027631642
-0.030241255 0.0021818187 -0.00027631549
-0.029807689 0.0027272727 -0.00027631596
-0.029807691 0.002181818 -0.00027631596
-0.030566433 -0.0032727274 -0.0022500004
-0.026230769 -0.0021818175 -0.00027631596
-0.027748255 -0.0017454549 -0.00027631549
-0.02829021 -0.0017454545 -0.00027631596
-0.030566433 -0.001309091 -0.0018114038
-0.030566433 -0.0017454543 -0.0026885965
-0.030783216 0.0027272722 -0.0018114033
-0.030739859 0.0022036359 -0.0018114033
-0.030674826 0.00021818143 -0.0026885965
-0.030674824 0.00076363696 -0.003236843
-0.030739857 0.0022036361 -0.003236843
-0.026772724 -0.00021818235 -0.00027631549
-0.027206294 -0.00021818152 -0.00027631549
-0.026772728 -0.0007636369 -0.00027631549
-0.030739862 0.0022036363 -0.0042236848
-0.030674826 0.0017454551 -0.0072938595
-0.030674826 0.0017454546 -0.0061973678
-0.030566433 -0.0021272732 -0.0047171046
-0.030783216 0.0037090913 -0.0053201746
-0.030674828 0.0013090908 -0.0057587721
-0.030783216 0.004254546 -0.0022500004
-0.02829021 0.0021818185 -0.00027631596
-0.030783216 0.0037090902 -0.0037850875
-0.030783216 0.0047999993 -0.0042236834
-0.030783216 0.004254546 -0.0026885965
-0.030783214 0.0032727278 -0.0032368426
-0.030783216 0.0037090911 -0.0032368421
-0.030783216 0.0037090906 -0.0026885972
-0.030783216 0.0032727269 -0.0022500004
-0.030783216 0.0032727274 -0.0018114026
-0.029807691 0.0017454549 -0.0081710517
-0.030241255 0.001745454 -0.0081710527
-0.030739859 0.0017454549 -0.0081491228
-0.030783216 0.005236364 -0.0061973687
-0.022762239 0.0021818182 -0.0081710517
-0.030241255 -0.005236364 -0.0053201751
-0.030241253 -0.0057818177 -0.0053201751
-0.029807691 -0.0057818182 -0.0047719297
-0.030241255 -0.0048000002 -0.0057587726
-0.030241255 -0.0048000007 -0.0053201756
-0.030241253 -0.004254546 -0.0057587717
-0.030566433 -0.0027272729 -0.0061973683
-0.030566433 -0.0037090913 -0.0067456141
-0.030566433 -0.0032727267 -0.0067456132
-0.030566433 -0.0032727274 -0.007293859
-0.029807689 -0.0027272727 -0.0081710536
-0.029807691 -0.0021818187 -0.0081710517
-0.030638697 -0.0021818178 -0.0082076024
-0.029807691 -0.0013090905 -0.0081710517
-0.029265733 -0.0017454545 -0.0081710527
-0.030566433 -0.0037090909 -0.0077324556
-0.030566433 -0.0032727278 -0.0077324556
-0.030566433 -0.0027272727 -0.0072938604
-0.030638698 -0.0027272734 -0.0082076024
-0.030566433 -0.0021818182 -0.0057587712
-0.030241253 -0.0042545451 -0.0061973687
0.003793706 0.0057818172 -0.0037850882
0.0032517482 0.0057818177 -0.0072938595
0.0022762241 0.0057818182 -0.0061973692
0.0022762236 0.0057818182 -0.0067456132
0.0032517477 0.0057818177 -0.0053201746
-0.00032517451 0.0057818177 -0.0053201756
0.00021678329 0.0057818168 -0.0047719302
0.00075874163 0.0057818177 -0.0061973687
0.0011923073 0.0057818182 -0.0053201756
-0.0017342658 0.0057818168 -0.0032368423
-0.0032517482 0.0057818186 -0.0026885967
-0.0027097906 0.0057818172 -0.0022499999
-0.0032517482 0.0057818182 -0.0057587717
-0.0027097908 0.0057818177 -0.0042236848
-0.0017342661 0.0057818172 -0.0047719306
-0.0032517477 0.0057818182 -0.0018114026
-0.0027097904 0.0057818182 -0.0053201751
0.00021678378 0.0017454547 -0.00027631596
-0.00032517483 0.0017454543 -0.00027631642
-0.00032517436 0.0013090906 -0.00027631642
0.0032517468 0.0057818172 -0.0032368437
0.0017342656 0.0057818177 -0.0067456122
0.0017342651 0.0057818172 -0.0037850877
-0.0076958044 0.005236364 -0.0081710517
-0.0076958044 0.0047999998 -0.0081710517
-0.0053111892 0.0027272722 -0.0081710527
-0.0042272732 0.0032727278 -0.0081710517
-0.0072622378 0.0027272725 -0.0081710517
-0.0076958039 0.0032727271 -0.0081710517
-0.0076958039 0.0013090909 -0.0081710536
-0.0067202793 0.0013090903 -0.0081710517
-0.0067202798 0.00076363632 -0.0081710527
-0.0057447557 0.00021818193 -0.0081710536
-0.0047485852 0.00074285717 -0.0082180444
-0.0047692312 0.0013090905 -0.0081710527
-0.0047692307 0.0017454545 -0.0081710527
-0.0061783222 0.0057818182 -0.0057587717
-0.0067202803 0.0057818177 -0.0072938595
-0.0067202793 0.0057818186 -0.0042236843
-0.0092132865 0.0057818186 -0.0077324575
-0.0092132865 0.0057381815 -0.0081491228
-0.0097552445 0.0057818168 -0.007293859
-0.0087797195 0.0057818191 -0.0077324575
-0.0082666688 0.0057527279 -0.008149121
-0.0022762234 0.0027272734 -0.0081710517
-0.0022762241 0.00073636341 -0.0082532894
-0.0022762243 0.00021818143 -0.0082807019
-0.0047692303 0.0048000002 -0.0081710527
-0.0087797204 -0.002181818 -0.0082807019
-0.0087797204 -0.001745454 -0.0082807019
-0.0092132855 -0.0021818187 -0.0082807019
-0.0092132865 -0.0017454545 -0.0082807019
-0.0092132865 0.00021818161 -0.0081710517
-0.013223778 0.0021818182 -0.0081710517
-0.012248253 0.0013090905 -0.0081710517
0.011814685 0.001745455 -0.00027631549
0.013006993 -0.0038181816 0.0022456134
0.012356644 -0.0033818178 0.0022456143
0.013006993 -0.0038181813 0.0016973685
0.013223778 -0.0027272722 -0.00027631596
0.013765736 -0.0027272727 -0.00027631642
0.013765736 -0.0021818178 -0.00027631549
0.013765736 -0.0032727271 -0.00027631596
0.0087797195 0.0017454549 -0.00027631642
0.014199301 -0.0013090909 -0.00027631596
0.014741259 -0.00076363626 -0.00027631642
0.014199302 -0.0007636369 -0.00027631642
0.014741259 -0.0013090913 -0.00027631596
0.013765736 -0.0007636369 -0.00027631642
0.015283217 -0.00021818155 -0.00027631549
0.014741258 -0.00021818244 -0.00027631596
0.013006993 -0.0037454548 0.0027573095
0.014741258 -0.0017454542 -0.00027631549
0.014741259 -0.0021818182 -0.00027631596
0.015283216 -0.0021818187 -0.00027631596
0.014741259 0.0027272727 -0.00027631642
0.014741258 0.0032727274 -0.00027631642
0.015283217 0.0032727278 -0.00027631549
0.013765736 0.0002181813 -0.00027631596
0.014199302 0.00021818209 -0.00027631596
0.012681819 0.0013090909 -0.00027631549
-0.0067202807 -0.0032727274 -0.00027631596
-0.0097552463 -0.0037090911 -0.00027631596
-0.0097552454 -0.0042545451 -0.00027631642
-0.0097552454 -0.0032727274 -0.00027631642
-0.0092132874 -0.0032727276 -0.00027631642
-0.0097552435 -0.0027272722 -0.00027631596
-0.0092132874 -0.0027272729 -0.00027631642
-0.0075874124 -0.0033818183 0.0012587723
-0.0075874119 -0.0033818188 0.001697368
-0.012248252 -0.0037090906 0.001697368
-0.011814686 -0.0052363635 -0.00027631642
-0.011814685 -0.0047999998 -0.00027631642
-0.013765736 -0.0052363635 -0.00027631642
0.026772728 -0.0057818177 -0.00071491231
0.026230771 -0.0057818172 -0.00071491254
0.024821676 -0.0057818177 -0.0012631579
0.02373776 -0.0057818182 -0.0012631577
0.022735141 -0.0042272732 0.0016973685
0.022718882 -0.003730909 0.0016973685
0.022718882 -0.0037309094 0.0012587723
0.022718882 -0.0037309094 0.0022456134
0.022735141 -0.0042272732 0.0022456138
0.024821678 -0.0057818191 -0.002688596
0.024279717 -0.0057818182 -0.0018114033
0.023304196 -0.0057818191 -0.0032368426
0.020269232 -0.0057818191 -0.0057587717
0.013765736 0.004254546 -0.00027631642
0.013765736 0.0048000002 -0.00027631642
0.0168007 0.005236364 -0.00027631596
0.0168007 0.0057818177 -0.00027631642
0.016258745 0.0052363644 -0.00027631596
0.016258743 0.0027272725 -0.00027631596
0.0168007 0.0027272732 -0.00027631642
0.016258745 0.0032727271 -0.00027631596
0.015716784 0.0032727276 -0.00027631596
0.0168007 0.0021818187 -0.00027631642
0.016258743 0.0021818178 -0.00027631596
0.01831818 0.0027272727 -0.00027631596
0.017776223 0.0021818182 -0.00027631596
0.017776223 0.0027272734 -0.00027631596
0.017776223 0.0032727267 -0.00027631549
0.017776223 0.001745454 -0.00027631642
0.018318182 0.0017454544 -0.00027631549
0.014741263 0.0057818172 -0.0012631582
0.017234266 -0.0057818182 -0.007293859
0.017234266 -0.0057818186 -0.0067456141
0.017776223 -0.0057818182 -0.0072938595
0.017776223 -0.0057818168 -0.0067456132
0.0168007 -0.0057818186 -0.0057587717
0.015716782 -0.0057818191 -0.0061973692
0.016258745 -0.0057818182 -0.0053201765
0.021786716 -0.0057818186 -0.0047719306
0.019185312 -0.0057818186 -0.0032368423
0.019727273 -0.0057818186 -0.0037850873
0.018751746 -0.0057818186 -0.003785088
0.019185318 -0.0057818182 -0.0042236843
0.01831818 -0.0057818172 -0.00027631642
0.017776223 -0.0057818177 -0.00027631596
0.017714284 -0.0042233765 0.00082017574
0.017776223 -0.0052363649 -0.00027631549
0.017732866 -0.003730909 0.0022456134
0.017732866 -0.003730909 0.001697368
0.017714284 -0.004223376 0.0022456134
0.019185318 -0.0027272722 -0.00027631596
0.019727275 -0.0032727278 -0.00027631549
0.02026923 -0.0027272722 -0.00027631596
-0.029807691 -0.0057818182 -0.0032368421
-0.030241253 -0.0057818177 -0.0037850877
-0.029265735 -0.0057818186 -0.0042236843
-0.029265745 -0.0057818182 -0.0047719306
-0.029807689 -0.0057818177 -0.0042236843
-0.030241255 -0.0042545451 -0.0012631579
-0.029807691 -0.0037090913 -0.00027631549
-0.022220282 -0.0037090904 0.00082017574
-0.026230767 -0.0047999993 -0.00027631642
0.0087797185 0.0013090916 -0.0082807019
0.0072622374 -0.0037090906 0.0022456134
0.0072622378 -0.0042545456 0.0016973689
0.0072622374 -0.004254546 0.0012587723
0.0072622374 -0.0037090911 0.001697368
0.0057447548 -0.0057818186 -0.00027631549
0.0057447557 -0.005236364 -0.00027631549
0.0061783209 -0.0057818177 -0.00027631549
0.0053111883 -0.0057818186 -0.00027631596
0.0082377633 -0.0052363649 -0.00027631596
0.0080209803 -0.0040363637 0.0027938597
0.0061783222 -0.0052363635 -0.00027631596
0.0072622378 -0.0057818177 -0.0018114031
0.0076958034 -0.0057818172 -0.0032368428
0.0076958039 -0.0057818182 -0.0037850884
0.0087797195 -0.0057818186 -0.0012631577
0.010297204 -0.0057818177 -0.0047719297
0.01073077 -0.0057818182 -0.0047719302
0.010297203 -0.0057818186 -0.0042236838
0.0092132865 -0.0057818177 -0.0022500001
0.0092132865 -0.0057818172 -0.0026885974
0.0087797195 -0.0057818177 -0.0022499999
0.0092132846 -0.0057818177 -0.0032368419
0.0087797195 -0.0057818177 -0.0032368428
0.012356644 -0.0033818181 0.00082017574
0.012681817 -0.0027272722 -0.00027631596
