# .PCD v0.7 - Point Cloud Data file format
VERSION 0.7
FIELDS x y z
SIZE 4 4 4
TYPE F F F
COUNT 1 1 1
WIDTH 1196
HEIGHT 1
VIEWPOINT 0 0 0 1 0 0 0
POINTS 1196
DATA ascii
-0.0071764714 -0.0071850959 0.0076464755
-0.0071764714 -0.0088341348 0.0076464745
-0.003764706 -0.010718751 0.0076464745
-0.0043529416 -0.010718751 0.0076464755
0.0002352947 -0.011543269 0.0026971367
0.00082352944 -0.01154327 0.0031685014
0.0017647061 -0.011661058 0.0026971377
0.00082352891 -0.011543268 0.0026971377
0.0012941175 -0.011543269 0.0022257711
0.00023529469 -0.011543269 0.0031685014
-0.00035294061 -0.011543268 0.0031685024
-0.00035294067 -0.011543268 0.0037577092
0.0012941181 -0.011543269 0.0037577101
0.0012941181 -0.011543269 0.0026971367
0.0027058821 -0.005771636 0.0079999994
0.0031764712 -0.0057716356 0.0079999994
0.0071764705 -0.0071850959 0.0076464755
0.0071764695 -0.0076562501 0.0076464755
0.0067058825 -0.0071850955 0.0076464755
0.006705882 -0.0067139426 0.0076464764
0.0067058816 -0.0076562501 0.0076464764
0.0062352931 -0.0053004809 0.0076464764
0.006235294 -0.0057716342 0.0076464755
0.0067058825 -0.0057716346 0.0076464755
0.0076470589 -0.0053004818 0.0076464755
0.0071764705 -0.0048293262 0.0076464755
0.0031764703 -0.0062427889 0.0079999994
0.00082352915 -0.0057716351 0.0079999994
0.0022352939 -0.0053004809 0.0079999994
0.0080000004 -0.0093052899 0.0061145374
0.0048235292 -0.010718751 0.0076464755
0.0071764714 -0.0088341357 0.0076464755
0.0067058825 -0.0088341348 0.0076464745
0.0042352942 -0.011189903 0.0076464755
0.0062352931 -0.0093052881 0.0076464764
0.0027058823 -0.011661059 0.0067037451
0.0022352939 -0.011661057 0.0067037451
0.003176471 -0.011661057 0.0076464755
0.0027058825 -0.011661058 0.0076464755
-0.0052941171 -0.012014423 0.0067037432
0.00082352984 -0.0070673088 -0.016157489
0.0036470583 -0.012014424 0.0026971367
0.0042352937 -0.012014423 0.0026971358
0.0036470583 -0.012014423 0.0037577092
0.0036470583 -0.012014423 0.0031685024
0.0042352942 -0.012014423 0.0043469169
0.0048235287 -0.012014423 0.0057610129
0.0052941181 -0.012014423 0.0048182816
0.001294117 -0.011543269 0.0052896473
0.0008235292 -0.01154327 0.0057610129
0.0017647058 -0.011661057 0.005761012
0.00082352909 -0.011189905 0.0076464755
0.0012941182 -0.010718751 0.0076464755
0.00082352903 -0.010247597 0.0076464755
0.0002352935 -0.010247597 0.0076464745
-0.003235294 -0.012073318 0.0072340309
-0.0032941182 -0.012014423 0.0062323795
-0.0043529412 -0.011189905 0.0076464755
-0.0048235292 -0.011661057 0.0076464755
-0.0037647057 -0.01209295 0.0072143902
-0.0043764701 -0.012061538 0.0071986779
-0.0043529416 -0.012014423 0.0067037451
-0.0057254899 -0.01115064 0.0076464755
-0.0057647061 -0.012014423 0.0031685014
-0.0057647056 -0.012014423 0.0026971377
-0.0057647065 -0.011661057 0.0031685014
-0.0057647056 -0.012014423 0.0037577092
-0.0057647051 -0.011661058 0.0037577092
-0.0076470585 -0.009305289 0.0057610129
-0.0056470586 -0.011661059 0.0062323785
-0.0076470585 -0.010247597 0.0067037451
-0.0075294119 -0.0067139417 0.0067037442
-0.0077058817 -0.0071850959 0.0072340299
-0.0075294119 -0.0071850959 0.0062323785
-0.0075294119 -0.0071850959 0.0067037442
-0.00070588238 -0.0014134618 -0.035247795
-0.00070588267 -0.0014134618 -0.035719164
-0.0016470595 -0.0018846152 -0.035247795
-0.001764706 -0.003180288 -0.044675112
-0.00035294151 -0.0042403839 -0.045028631
-0.00035294151 -0.0036514432 -0.045028634
-0.0017647055 -0.0053004809 -0.044675112
-0.0022184874 -0.005754808 -0.044658277
-0.00082352984 0.0082451925 0.0065859039
-0.00082352897 0.0088341339 0.0065859021
-0.00035294084 0.0088341348 0.006585903
-0.0012941175 0.0076562501 0.006585903
-0.0008235288 0.0076562501 0.006585903
-0.0008235299 0.005653847 0.0048182816
-0.0003529414 0.0056538461 0.004346916
-0.0003529418 0.0056538461 0.0048182826
-0.0017647061 0.0076562501 0.006585903
-0.0022352943 0.0082451925 0.0065859039
-0.0017647061 0.0082451925 0.006585903
-0.0012941172 0.0042403843 0.0076464745
-0.0012941173 0.0048293266 0.0076464755
-0.0025882348 -0.002826923 -0.022756606
-0.0021176466 -0.0023557688 -0.023227975
-0.0021176466 -0.0023557688 -0.021813877
-0.0021176471 -0.002355769 -0.021342512
-0.0025882353 -0.0028269226 -0.021813877
-0.0021176476 -0.0023557697 -0.022285242
-0.0025882351 -0.002826923 -0.01969273
-0.0021176478 -0.002355769 -0.020753305
-0.0016470588 -0.0018846148 -0.024759911
-0.0016470583 -0.0018846153 -0.024170704
-0.0021176476 -0.0023557688 -0.024170704
-0.0027058823 -0.0042403843 -0.020164099
-0.002588236 -0.003180288 -0.020164097
-0.0027058825 -0.0042403839 -0.020753302
-0.0027058818 -0.0036514425 -0.021342512
-0.0027058828 -0.0042403843 -0.024170704
-0.0027058823 -0.0048293266 -0.023227975
-0.0026666671 -0.0052612182 -0.020164097
-0.0025882358 -0.0056538461 -0.01969273
-0.0025882355 -0.0056538461 -0.020164097
-0.0021176478 -0.0061250003 -0.01969273
-0.0026666669 -0.0052612182 -0.038311675
-0.002705883 -0.0048293266 -0.038311675
-0.0026666662 -0.0052612172 -0.03878304
-0.0017647056 -0.002709134 -0.044675112
-0.0030588238 -0.0075384621 -0.0048447144
-0.0027058825 -0.0042403853 -0.019692734
-0.0027058825 -0.0042403853 -0.019221365
-0.0025882348 -0.0028269233 -0.018750001
-0.0027058816 -0.0036514415 -0.018749999
-0.0043529402 -0.0042403848 -0.0076729087
-0.0037647064 -0.0042403839 -0.0076729078
-0.0037647064 -0.0048293271 -0.0076729078
-0.0027058816 -0.012014423 0.00069383252
-0.0022352943 -0.010600962 0.00034030853
-0.0031372556 -0.010208335 0.00034030806
-0.003058824 -0.0075384611 -0.0036662996
-0.0057647061 -0.011189904 0.00081167417
-0.0062117651 -0.011166346 0.00088237831
-0.006235294 -0.011661057 0.00092951581
-0.00762353 -0.010648077 0.00083524222
-0.007647058 -0.010247597 0.0017544054
-0.0075294124 -0.011189904 0.00092951488
-0.0076470589 -0.010247597 0.0022257711
-0.0026666669 -0.0052612182 -0.021813875
-0.0026666671 -0.0052612186 -0.02134251
-0.0025882353 -0.0056538465 -0.021342512
-0.0062352945 -0.010247597 0.00081167417
0.00023529356 -0.011543269 0.002225772
0.003294118 -0.012014423 0.0031685024
0.0036470597 -0.012014423 0.0022257711
0.0021176464 -0.0061250003 -0.011679515
0.0027058816 -0.0048293266 -0.01215088
0.0025882348 -0.005653847 -0.0093226871
0.0025882358 -0.0053004804 -0.009322688
0.0025882358 -0.0053004809 -0.0097940518
0.0025882353 -0.0053004813 -0.010265417
0.0021176469 -0.0062035252 -0.024131425
0.0025882353 -0.0056538456 -0.024170704
0.0021176473 -0.0062427879 -0.024759911
-0.0025882351 -0.0056538451 -0.024759911
-0.0026666664 -0.0052612186 -0.024759911
-0.0025882358 -0.0056538456 -0.024170704
0.0021176469 -0.0062035248 -0.023738617
0.0027058821 -0.0042403843 -0.012740087
0.0025882346 -0.0053004804 -0.01380066
0.0027058825 -0.0036514425 -0.010265419
0.0027058825 -0.0036514422 -0.0097940527
0.0027058821 -0.0036514425 -0.010736782
0.0025882348 -0.003180288 -0.010265418
0.002705883 -0.0042403848 -0.010736783
0.0036470597 0.0082451915 0.006585903
0.0042352946 0.0080096154 0.006585903
0.001764706 0.012132212 0.0063502197
0.0017647056 0.011661058 0.0063502188
0.0022352936 0.011661058 0.0063502197
0.002705883 0.011661057 0.0063502188
0.0027058816 0.012132212 0.0063502197
0.0012941174 0.011661058 0.0063502197
0.0012941181 0.011189904 0.0063502188
0.0017647054 0.011189903 0.0063502197
0.0022352946 0.010247596 0.0063502206
0.0022352934 0.010718749 0.0063502188
0.0017647065 0.010247596 0.0063502197
-0.00035294087 0.0056538461 0.0052896473
-0.00082352979 0.0056538461 0.0052896482
0.0027058823 0.010247597 0.0063502197
0.0036470585 0.009305289 0.0063502197
0.0036470592 0.0097764423 0.0063502197
0.0042352946 0.0097764423 0.0063502197
0.0012941181 0.0093052881 0.0065859039
0.0017647053 0.0097764423 0.006585903
0.0017647065 0.0093052881 0.0065859039
0.0021176471 0.009305289 0.006585903
0.0008235295 0.0082451925 0.0063502206
0.0008235292 0.0076562501 0.0063502206
0.0012941171 0.0076562501 0.0063502197
0.00023529449 0.0088341348 0.0063502206
0.00023529388 0.0082451915 0.0063502206
0.00028235337 0.010695192 0.0065859021
0.0012941174 0.0093052881 0.0063502197
0.00082352979 0.009305289 0.0063502197
0.0022352946 0.0057716351 0.004346916
0.0027058823 0.0057716342 0.004346916
0.0032941171 0.005418269 0.0039933915
0.0031764705 0.011189905 0.0063502197
0.0042352946 0.0056538461 0.0048182816
0.0036470583 0.0057716332 0.004346916
0.0041764714 0.0057127411 0.004346916
0.0036470583 0.0056538461 0.0048182816
0.0042352942 0.009305289 0.0063502197
0.0076470589 0.0042403843 0.0067037442
0.0080000004 0.0030624995 0.0067037442
0.0076470585 0.0036514418 0.0071751107
0.0075294124 0.0051826909 0.0057610129
0.0076470589 0.0048293257 0.0057610129
0.0076470585 0.0027091352 0.0076464755
0.0071764705 -0.0067139436 0.00081167324
0.006235294 -0.0097764423 0.0008116737
0.0051764706 -0.0087948712 0.00037958845
0.0057647061 -0.0097764432 0.00081167417
0.0057647056 -0.0093052881 0.0008116737
0.0047058817 -0.0048293271 -0.0013094717
0.0047058817 -0.0048293271 -0.00072026486
0.0041882349 -0.0027091345 -0.0018044054
0.0041882358 -0.0027326923 -0.0013094712
0.0047058817 -0.0036514425 -0.0013094712
0.0042352937 -0.009305289 0.00034030853
0.0041344543 -0.0097259609 0.00035714218
0.0036470587 -0.009305289 0.0003403076
0.0042352942 -0.0088341348 0.0003403076
0.0041882354 -0.005771636 -0.0036898681
0.00717647 -0.0093052899 0.00081167417
0.0067058816 -0.009305289 0.0008116737
0.0080000004 0.0008245192 0.0039933925
0.0080000013 0.000471154 0.0039933915
0.006235294 -0.0027091342 0.0003403076
0.0057647061 -0.0027091347 0.0003403076
0.0062352931 -0.0031802889 0.00034030806
0.0076078433 -0.0017668267 0.00085095456
0.0075294119 -0.003180288 0.00092951488
0.0076470585 -0.001766827 0.0012830403
0.0075294115 -0.002669872 0.00085095502
0.0047058817 -0.003651442 -0.007083701
0.0047058822 -0.0042875004 -0.0076964763
0.0057647061 -0.0053004809 0.00034030853
0.006235294 -0.0057716351 0.00034030853
0.0041176467 -0.0062427875 -0.0057874443
0.0027058818 -0.003651442 -0.012740087
0.0021176469 -0.0062035257 -0.016196769
0.0025882346 -0.0056538456 -0.014743393
0.0027058821 -0.0036514425 -0.014743393
0.0027058823 -0.0042403853 -0.01474339
0.0027058825 -0.0036514422 -0.01521476
0.0027058816 -0.0042403843 -0.015214758
0.0027058825 -0.0048293266 -0.01521476
0.0025882358 -0.0056538465 -0.015686123
0.0025882355 -0.0053004809 -0.015214758
0.0027058828 -0.0048293266 -0.018750001
0.0027058828 -0.0042403843 -0.019221367
0.0027058825 -0.0048293266 -0.019221365
0.0025882358 -0.0056538461 -0.018750003
0.0025882353 -0.0056538456 -0.018278634
0.0025882353 -0.0056538461 -0.022285242
0.0021176473 -0.0062427884 -0.017335903
0.0016470592 -0.0065961536 -0.017335903
0.0016470591 -0.0065961536 -0.017807269
0.0021176466 -0.0062035257 -0.017846549
0.0021176478 -0.0062427884 -0.020164097
0.0025882355 -0.0056538461 -0.020164097
0.0025882358 -0.0056538461 -0.020753304
0.0016470584 -0.0065961545 -0.020164099
0.0016470592 -0.0065961536 -0.020753304
0.0025882348 -0.0056538465 -0.01969273
0.0016470589 -0.0065961536 -0.01969273
0.007647058 -0.010247596 0.0012830398
0.007647058 -0.010247597 0.0008116737
0.0076470589 -0.010247597 0.0017544054
0.0071764695 -0.010247597 0.0008116737
0.0076470589 -0.0082451943 0.0012830398
0.0076470589 -0.0082451934 0.0017544054
0.0076470589 -0.0076562501 0.0017544054
0.007647058 -0.0093052881 0.0026971358
0.007647058 -0.0093052881 0.0022257711
0.0076470594 -0.0082451934 0.0022257692
0.007647058 -0.0076562501 0.0026971367
0.0076470589 -0.0082451925 0.0026971358
0.0076470585 -0.0076562501 0.0022257711
0.0025882351 -0.0056538456 -0.025349118
0.0021176478 -0.0062427889 -0.026291851
0.0025882355 -0.0056538451 -0.025820484
0.0027058825 -0.0048293266 -0.025820486
0.0025882355 -0.0053004804 -0.02534912
0.0031372549 0.012092949 0.0063502197
0.0026666669 -0.0032195512 -0.01521476
0.0027058828 -0.0048293271 -0.021342512
0.0025882351 -0.0053004813 -0.020753304
0.0027058821 -0.0048293262 -0.020753304
0.0021176471 -0.0062427893 -0.044203743
0.0016470592 -0.0065961545 -0.035719164
0.0025882353 -0.0056538465 -0.037840307
0.0021176466 -0.0062427889 -0.038311675
0.0027058828 -0.0048293262 -0.0372511
0.0041176477 -0.0027091342 -0.0048447149
0.0041568633 -0.0027222214 -0.0053029871
0.0040784311 -0.0022379812 -0.0052767997
0.0047058822 -0.0036514422 -0.007790749
0.0047058817 -0.0032980777 -0.0077907499
0.0042352942 -0.0036514422 -0.0076729083
0.002705883 -0.0036514425 -0.011679515
0.0027058823 -0.003651442 -0.014272025
0.0027058828 -0.0042403848 -0.022285243
0.002705883 -0.0042403843 -0.021813875
0.0027058828 -0.0042403853 -0.025349116
0.0027058821 -0.0042403848 -0.025820488
0.002705883 -0.0042403848 -0.026291849
0.0027058828 -0.0048293262 -0.026291849
0.007647058 -0.0012956727 0.00081167417
0.0027058823 -0.0042403839 -0.024170704
0.002705883 -0.0048293262 -0.026763216
0.002705883 -0.0042403848 -0.037251107
0.0027058818 -0.0042403843 -0.037840307
0.0027058825 -0.0036514418 -0.037251104
0.0027058818 -0.0036514429 -0.036661893
0.0027058825 -0.0036514427 -0.037840307
0.0062352936 0.0027091338 0.00081167324
0.006705882 0.0022379814 0.00081167324
0.0062184883 0.0022211543 0.00082850829
0.0025882353 -0.003180288 -0.010736784
0.0025882353 -0.002826923 -0.016157489
0.0026666666 -0.0032195514 -0.016746694
0.0026666664 -0.0032195519 -0.016157489
-0.00070588232 -0.0014134615 -0.017335903
-0.00035294058 -0.0014134618 -0.016746694
-0.00035294087 -0.0014134613 -0.017335903
0.0012941175 -0.011072115 0.0003403076
-0.0012871969 -0.0082313344 -0.0042555062
-0.00035294163 -0.011543269 0.0017544054
-0.00035294102 -0.01154327 0.0012830398
-0.0022352941 -0.012014424 0.00069383252
-0.0022352941 -0.011661057 0.00081167324
-0.0017647053 -0.010718751 0.00034030853
-0.0022352943 -0.0080881417 -0.0058267261
-0.0037176467 -0.0097528854 0.0003403076
-0.0037647064 -0.0093052881 0.00034030806
-0.0043529416 -0.010718751 0.00081167324
-0.0043529412 -0.011189904 0.00081167417
-0.0048235292 -0.011189904 0.0008116737
-0.0027058825 -0.0048293266 -0.037840307
-0.00082352891 -0.0070673078 -0.043732375
-0.0012941178 -0.0067139426 -0.043732375
-0.00035294151 -0.0070673078 -0.044203743
-0.0012941182 -0.0067139426 -0.043261014
-0.00082352903 -0.0070673083 -0.043261014
-0.006117647 -0.011072115 0.0037577101
-0.0061176466 -0.011072115 0.0031685024
-0.007058823 -0.010600962 0.0048182826
-0.0067058816 -0.010600963 0.0052896473
-0.006705883 -0.010600962 0.0048182826
-0.007058823 -0.010600963 0.004346916
-0.006705882 -0.010600962 0.004346916
-0.0077647055 -0.0071850964 0.00078810612
-0.007647058 -0.0088341339 0.0017544054
-0.00762353 -0.0082923081 0.0037577092
-0.0076470585 -0.0088341339 0.0031685014
-0.0027058828 -0.0042403848 -0.027705945
-0.0027058823 -0.0048293266 -0.027705947
-0.0027058821 -0.0048293266 -0.027234584
-0.0027058823 -0.0048293266 -0.028177314
-0.0027058821 -0.0042403843 -0.028648676
-0.0027058828 -0.0048293271 -0.029237887
-0.0027058821 -0.0048293271 -0.028648674
-0.0027058825 -0.0042403843 -0.029237887
-0.0075294124 -0.0071850959 0.0012830398
-0.0062352931 -0.0057716346 0.00034030853
-0.0042823534 -0.0057480764 -0.0027000001
-0.004336135 -0.0052836542 -0.002706734
-0.004282353 -0.0052769231 -0.0022286347
-0.0043529412 -0.0082451925 0.00034030853
-0.0043529407 -0.0088341348 0.00034030853
-0.0037647062 -0.0082451934 0.00034030806
-0.0030588235 -0.0080096154 -0.00024889922
-0.0048235287 0.005653847 0.0043469151
-0.0051764711 0.0047115386 0.0039933906
-0.0048235296 0.0056538461 0.0048182816
-0.0036577536 -0.0066818185 -0.0042983582
-0.0043361341 -0.0052836547 -0.001797671
-0.0030588242 -0.0075384611 -0.0076729078
-0.003176471 -0.0062427875 -0.0076729078
-0.0031764705 -0.0057716351 -0.0076729073
-0.0076470589 -0.0076562492 0.0012830393
-0.003058824 -0.0075384611 -0.006730176
-0.0048235292 -0.010718751 0.00081167324
-0.0052941171 -0.0097764423 0.00081167324
-0.0048235296 -0.010247597 0.00081167324
-0.0048235287 -0.0097764423 0.00081167324
-0.006705882 -0.011189904 0.00092951581
-0.0061176475 -0.0075384621 0.00045814924
-0.0035294113 -0.0070673078 -0.0031949338
-0.006705882 -0.0097764423 0.00081167417
-0.0070588235 -0.010600962 0.0026971367
-0.007058823 -0.010600963 0.0022257711
-0.0076470585 -0.0097764432 0.0022257711
-0.007647058 -0.0093052881 0.004346916
-0.0075294124 -0.0062427879 0.002107929
-0.0075294115 -0.0067139426 0.0048182816
-0.0071764714 -0.0053004809 0.0043469169
-0.0075294119 -0.0067139422 0.004346916
-0.0075294124 -0.0067139436 0.0037577082
-0.0076078433 -0.0076562501 0.0053289295
-0.0076078437 -0.0076562501 0.0058002933
-0.0075294115 -0.0067139422 0.0057610138
-0.0075294115 -0.0071850959 0.0057610129
-0.0076470589 -0.0076562501 0.0062323785
-0.0076470585 -0.0076562511 0.0067037442
-0.0076470585 -0.0082451915 0.0062323795
-0.0076363636 -0.0082666082 0.0057717259
-0.0075294115 -0.0062427879 0.0058788531
-0.0070588239 -0.0048293266 0.004346916
-0.0070588221 -0.0042403848 0.0037577082
-0.0070588225 -0.0048293266 0.0037577082
-0.0071764714 -0.0022379812 0.0031685014
-0.0071764714 -0.0022379803 0.0026971367
-0.0071372553 -0.0048293266 0.0021864898
-0.0071764705 -0.0048293262 0.0017544054
-0.007058823 -0.0048293271 0.0026971377
-0.0071764705 -0.0053004804 0.0026971367
-0.0071764709 -0.0053004813 0.0017544064
-0.0071176463 -0.0042992784 0.0017544045
-0.0071764705 -0.0053004809 0.002225772
-0.0075294119 -0.0058894227 0.0012830398
-0.0043529412 -0.0036514422 -0.004844714
-0.0076470589 -0.0082451925 0.0067037451
-0.0076470589 -0.0088341348 0.0067037451
-0.0071764705 -0.0012956727 0.00081167324
-0.0071764714 -0.00082451943 0.00081167324
-0.0077433158 0.0013063818 0.00080096116
-0.0077176462 0.0013192308 0.0012830393
-0.0071764714 0.001295673 0.0008116737
-0.0076470585 0.0008245192 0.0031685014
-0.0076078428 -0.00031410228 0.0026971358
-0.0075294119 -0.00082451967 0.0022257701
-0.0076470589 0.00023557642 0.0022257701
-0.0036764706 -0.0017962742 -0.0071720812
-0.0067058825 -0.0042403853 0.00034030853
-0.0070588239 -0.003651442 0.0022257711
-0.007058823 -0.0036514427 0.0017544054
-0.0070588239 -0.0048293266 0.0052896482
-0.0075294119 -0.0058894237 0.0067037432
-0.0075294119 -0.0062427884 0.0067037442
-0.0076638651 -0.0067307698 0.0072256126
-0.0076470589 0.002237981 0.0067037442
-0.0077176476 0.0027326925 0.0062323795
-0.0076470585 0.0022379805 0.0062323785
-0.0075630257 0.0026923076 0.0037913783
-0.0076470589 0.0022379814 0.0037577082
-0.0076470594 0.002237981 0.0031685033
-0.0075294124 0.0027091347 0.0031685014
-0.0076470589 0.00223798 0.004346916
-0.0076742093 0.0017577668 0.0037395791
-0.0076470585 0.0017668263 0.004346916
-0.0076470585 0.002237981 0.0017544054
-0.0076470594 0.002237981 0.002225772
-0.0071764709 -0.0027091354 0.0026971358
-0.0071764709 -0.0022379803 0.0022257701
-0.00717647 -0.0027091349 0.002225772
-0.00717647 -0.0027091342 0.0017544045
-0.0075294124 -0.0036514422 0.00081167417
-0.0075294124 -0.0028269228 0.00069383206
-0.0075294119 0.00023557665 0.0057610138
-0.0075294119 -0.0016490384 0.0022257711
-0.0075294119 -0.0016490384 0.0017544064
-0.0075294124 -0.0016490382 0.0012830403
-0.0075294119 -0.0012956739 0.0017544054
-0.0075294124 -0.0012956737 0.0012830398
-0.006117647 -0.0013349361 0.00037958892
-0.0071764709 0.0017668267 0.00081167324
-0.0075294119 0.0027091347 0.0022257711
-0.0071372557 0.0031410253 0.0026971358
-0.0062184869 0.002692308 0.00082850829
-0.0057647056 0.0035336532 0.0017544054
-0.0052941176 0.0053004809 0.004346916
-0.006705882 0.0071850959 0.0063502197
-0.0066666659 0.0076169865 0.0063502206
-0.0070588239 0.0067139436 0.0063502197
-0.006235294 0.0071850959 0.0063502197
-0.0057647051 0.0048293266 0.0043469169
-0.0077176481 0.0027326925 0.0057610129
-0.0012941177 0.0056538461 0.0076464755
-0.0017647054 0.0053004818 0.0076464755
-0.0022352943 0.0057323724 0.0076071951
-0.0017647058 0.0057323715 0.0076071951
-0.0017647058 0.0071850959 0.006585903
-0.00082352891 0.0036514418 0.0076464755
-0.00035294174 0.0031802889 0.0079999994
0.00023529388 0.0031802889 0.0079999994
-0.00035294186 0.0048293266 0.0076464755
0.00023529433 0.0042403853 0.0076464755
-0.00035294154 0.0042403853 0.0076464755
0.0052941167 0.0088341348 0.0063502206
0.0052941171 0.009305289 0.0063502197
0.0057647065 0.0091875 0.0063502206
0.0048235292 0.0093052899 0.0063502197
-0.00082352996 0.0067139417 0.006585903
-0.00082352961 0.005653847 0.0076464755
-0.0043529407 0.009305289 0.0063502188
-0.0037647062 0.0088341339 0.0063502197
-0.0043529412 0.0088341348 0.0063502197
-0.0052941181 0.0097764423 0.0063502197
-0.0052941176 0.009305289 0.0063502197
-0.0057647061 0.009305289 0.0063502197
-0.007058823 -0.003180288 0.004346916
-0.0077058817 -0.0036514422 0.0077053956
-0.0062352931 -0.0042403848 0.0076464764
-0.0075294124 -0.0037692301 0.007292951
-0.0077058822 -0.0031802882 0.0077053965
-0.0062352936 -0.0036514429 0.0076464755
-0.0070588239 -0.0031802887 0.0057610138
-0.0070588239 -0.0027091347 0.0067037442
-0.0077310926 -0.0027259619 0.0077306475
-0.003529411 -0.0014134618 -0.006376652
-0.006705882 0.001295673 0.00081167417
-0.0067058825 0.00082451873 0.00081167324
-0.0062352945 0.0012956725 0.00081167324
-0.0062352945 0.00082451967 0.0008116737
-0.0016470588 -0.001884615 -0.017807269
-0.00070588209 -0.001413462 -0.017807268
-0.004313726 -0.0031802889 -0.0077121872
-0.0037647057 -0.0031802887 -0.0076729087
-0.002588236 -0.000471154 -0.006376652
-0.0030588233 -0.00094230776 -0.0072015431
-0.0027058816 -0.00082451873 -0.0076729069
-0.003764706 -0.0036514415 -0.0076729087
-0.0043529412 -0.003651442 -0.0076729078
-0.0025882348 -0.0036514425 -0.0088513214
-0.0025882358 -0.0052612182 -0.0088906009
-0.0021960784 -0.0057323724 -0.0088513214
-0.0026666657 -0.0042927354 -0.0088644149
-0.0025882348 -0.0048293266 -0.0088513214
-0.0026823524 -0.0042874999 -0.009322688
-0.0025882348 -0.0028269235 -0.043261014
-0.0027058828 -0.003651442 -0.042789645
-0.0027058816 -0.0036514427 -0.043261018
-0.0075294119 0.0053004809 0.0063502197
-0.007647058 0.0042403843 0.004346916
-0.0076470594 0.0042403853 0.0048182816
-0.0075294119 0.0047115386 0.004346916
-0.0022184877 -0.0027259612 -0.044658277
-0.0017647056 -0.0022379803 -0.044675112
-0.00082352932 -0.0042403853 -0.045028631
-0.00035294145 -0.0067139436 -0.044675112
0.0002352939 -0.0036514425 -0.045028631
0.0022352941 -0.0031802887 -0.044675112
-0.0071764705 -0.0012956739 0.0048182826
-0.0071372553 -0.001295673 0.0052503659
-0.0075294119 -0.0008245192 0.0037577092
0.0042352946 0.0012956725 0.0076464755
0.0048235287 0.0008245192 0.0076464764
0.0042352937 0.0008245192 0.0076464755
0.0031372549 0.0007852565 0.0079999994
0.0022352948 -0.0027091349 0.0079999994
0.001764706 -0.001295673 0.0080000013
0.0067058825 0.0068317298 0.0063502197
0.0063529415 0.0056538461 0.0070572677
0.0067058825 0.0053004809 0.0076464755
0.006705883 0.005653847 0.0067037432
0.0057647065 0.0027091352 0.0076464755
0.0062352936 0.0027091342 0.0076464745
0.006235295 0.0031802889 0.0076464755
0.0057647065 0.003180288 0.0076464755
0.0057647061 0.0042403853 0.0076464755
0.0062352945 0.0042403843 0.0076464745
0.0031764703 0.0048293266 0.0076464764
0.003647059 0.0048293266 0.0076464764
0.0036470594 0.0042403843 0.0076464745
0.0036470585 0.0057323715 0.0076857558
0.0027058821 0.0057323724 0.0076857549
0.0027058828 0.0048293266 0.0076464755
0.0036470587 0.0036514422 0.0076464755
0.0042352946 0.0036514418 0.0076464764
0.0022352934 0.0057323715 0.0076857558
0.0017647065 0.0071850959 0.006585903
0.0017882349 0.0057009617 0.0076700444
0.0017647054 0.0067139417 0.0065859021
0.0012549026 0.010208335 0.006585903
0.0027058823 0.0088341339 0.0065859039
0.003058824 0.0011778844 0.0079999994
0.0027058828 0.0012956725 0.0079999994
0.0027058828 0.00082451873 0.0079999994
0.0017647066 0.00082451873 0.0079999994
0.0022352941 0.0012956725 0.0079999994
0.0012941177 0.0035336532 0.0022257701
0.0012941179 0.0035336532 0.0026971367
0.0017647054 0.0036514422 0.0026971377
0.00082352979 0.0035336537 0.0026971377
-0.0043529416 0.0036514427 0.0022257711
-0.0048235296 0.0036514427 0.0017544054
-0.0048235296 0.0036514418 0.0022257701
-0.00035294084 0.0035336532 0.0017544054
-0.00082352903 0.0035336541 0.002225772
-0.00035294148 0.0035336532 0.0022257711
0.00023529415 0.0035336541 0.00081167324
-0.00035294137 0.0035336537 0.0008116737
0.0002352938 0.0035336541 0.0012830398
-0.00035294073 0.0035336537 0.0012830403
-0.0027058821 0.012014423 0.0063502188
-0.00082352961 0.0056538461 0.004346916
-0.0003529407 0.010247596 0.0063502197
-0.00035294128 0.0097764414 0.0063502197
0.00023529437 0.0097764423 0.0063502188
-0.0017647056 0.0071850969 0.0063502197
-0.0012941182 0.0071850959 0.0063502197
-0.001294118 0.0076562501 0.0063502197
0.0047058822 -0.0042403848 -0.0037841408
0.0047058822 -0.0043581733 -0.0033127759
0.0025882348 -0.0053004804 -0.024170704
0.0027058818 -0.0042403843 -0.020753302
0.00082352967 -0.0014134608 -0.026763216
0.00023529361 -0.0014134622 -0.026763216
0.00023529358 -0.0014134615 -0.026291849
0.0076470585 -0.0076562501 0.0052896473
0.007647058 -0.0076562501 0.005761012
0.0076470594 -0.0082451943 0.0057610129
0.0076470585 -0.010247596 0.0052896473
0.0075294124 -0.0067139422 0.005761012
0.0080000004 -0.0067139426 0.0072929501
0.0080000004 -0.0089519238 0.0061145374
0.0076470599 -0.0082451915 0.004346916
0.0076470594 -0.0088341339 0.0048182826
0.007647058 -0.0088341348 0.0043469151
0.0076470594 -0.0082451925 0.0048182826
0.007647058 -0.0093052881 0.0043469169
0.0079999994 -0.0093052899 0.0054074884
0.0047058817 -0.0051826918 -0.0070837
0.0047058826 -0.0051826923 -0.006376652
0.0047058822 -0.0048293266 -0.007083701
0.0047058817 -0.0048293262 -0.0077907494
0.0076470585 -0.0076562511 0.0048182816
0.0075294115 -0.0067139417 0.0052896482
0.0008235295 -0.0048293266 0.0079999994
0.0027058823 -0.0036514418 0.0079999994
0.0017647063 -0.0036514425 0.0080000013
0.0025882351 -0.0056538461 -0.044203743
0.0025882351 -0.0056538451 -0.042318281
0.0021176466 -0.0062427884 -0.042318285
0.0025882358 -0.0056538465 -0.041846916
0.0022352946 -0.0048293276 -0.044675112
0.0025882353 -0.0056538461 -0.028648678
0.0027058825 -0.0048293262 -0.029237883
0.0025882351 -0.0056538451 -0.029237883
0.0021176478 -0.0062427875 -0.029237883
0.0021176469 -0.0062427884 -0.027705947
0.0025882348 -0.0056538461 -0.02723458
0.0027058818 -0.0048293266 -0.027234582
0.0027058825 -0.0048293266 -0.027705945
0.0025882348 -0.0056538461 -0.027705947
0.002588236 -0.0056538465 -0.029827092
0.0021176476 -0.0062427889 -0.030769825
0.0075294115 -0.0058894232 0.0062323795
0.0075294119 -0.0062427884 0.0062323776
0.0042352946 0.010718751 0.0063502188
0.0041882349 0.011166346 0.0063502197
0.0048627448 0.010679486 0.0063502216
0.0048235296 0.010247596 0.0063502197
0.0036470587 0.011189904 0.0063502197
0.004078432 0.011621796 0.0063502216
0.006705883 0.0071850959 0.0063502197
0.006235294 0.0071850959 0.0063502197
0.0065882355 0.0076562511 0.0063502197
0.0057647056 0.0088341357 0.0063502197
0.0061176475 0.0091875 0.0063502197
0.0035294122 -0.0051826918 0.0079999994
0.0076078428 -0.0027091349 0.0076857558
0.0075294115 -0.0031802882 0.0072929519
0.0076078428 -0.0031802885 0.0076857549
0.0052941185 -0.0022379803 0.0076464745
0.0052941185 -0.0017668272 0.0076464755
0.0057647051 -0.0022379807 0.0076464764
0.006705882 -0.0022379812 0.0076464755
0.0057647061 -0.0027091349 0.0076464755
0.0080000004 0.0028269228 0.0067037451
0.0080000004 0.00223798 0.0071751098
0.0076470585 0.0017668272 0.0052896473
0.0071764695 -0.00082451967 0.0052896473
0.0071764695 -0.0012956734 0.0052896463
0.0071764705 -0.001295673 0.0057610129
0.0071764714 -0.0012956725 0.0062323785
0.0075294119 -0.00023557735 0.0052896482
0.0070588239 -0.0022379803 0.0062323785
0.0071372548 -0.0017275636 0.0052896482
0.0070588239 -0.0031802889 0.0062323785
0.0070588235 -0.0027091349 0.0062323785
-0.0048235292 -0.012014423 0.0012830393
-0.0037647071 -0.011189905 0.00081167324
-0.0032352945 -0.012073318 0.00075275358
-0.0037647067 -0.011661056 0.00081167417
-0.0057647056 -0.012014423 0.002225772
-0.0057647061 -0.011661057 0.0026971367
-0.007647058 -0.010247597 0.0052896482
-0.0056470591 -0.012014423 0.0067037451
-0.0052941171 -0.012014423 0.0031685024
-0.0076470594 -0.010247597 0.0037577092
-0.0027058825 -0.0080096163 -0.0070837005
-0.00035294064 -0.011543269 0.0052896473
-0.00035294061 -0.01154327 0.004346916
-0.00082352909 -0.01154327 0.004346916
-0.0032941173 -0.012014423 0.0037577092
-0.00082352886 -0.011543269 0.0037577092
-0.001294118 -0.01154327 0.004346916
-0.0012941174 -0.011543269 0.0048182816
-0.0022352946 -0.011661057 0.004346916
-0.0022352939 -0.011661057 0.0037577082
-0.0012941173 -0.011543269 0.0022257711
-0.001294118 -0.011543269 0.0026971367
0.0012941173 -0.011661057 0.0076464764
0.0017647062 -0.011189905 0.0076464755
0.0022352939 -0.011189905 0.0076464764
0.0008235292 -0.011543269 0.004346916
0.0022352946 -0.011661057 0.0062323785
0.0027058823 -0.011661057 0.0062323785
-0.0043529407 -0.012014423 0.0031685014
-0.0048235287 -0.012014423 0.0026971367
-0.0027058823 -0.011661057 0.0076464755
-0.0022352941 -0.011661058 0.0062323795
-0.0017647063 -0.011661057 0.0062323785
-0.0057254909 -0.011661058 0.0043076347
-0.0056470591 -0.011661058 0.0048182816
-0.0056470586 -0.011661058 0.0052896473
-0.0057254904 -0.012014424 0.0043076356
-0.0056470581 -0.012014423 0.0048182816
0.0022352936 -0.011661056 0.0052896473
0.0027058823 -0.011661057 0.0048182807
0.002705883 -0.011661057 0.0052896482
0.0022352943 -0.011661058 0.0057610129
0.0012941175 -0.011543268 0.0062323785
0.0012941174 -0.01154327 0.0071751089
-0.0032941171 -0.012014423 0.0057610138
-0.0017647055 -0.011661057 0.0057610138
0.0061176475 -0.012014423 0.0022257711
0.0070588239 -0.010600962 0.0025792955
0.0061176475 -0.011661058 0.0026971367
0.006117647 -0.011661058 0.0022257711
0.0061176466 -0.011661058 0.0031685033
0.0071372557 -0.010679488 0.00081167417
0.006705882 -0.010247597 0.0008116737
0.006705882 -0.010718751 0.00081167417
-0.00082352984 -0.0062427879 -0.044675112
-0.0027058823 -0.0048293262 -0.017807268
-0.0026666666 -0.0052612182 -0.017335903
-0.0026666659 -0.0052612186 -0.017807269
0.0016470592 -0.0065961545 -0.013329295
0.0016470583 -0.0065961545 -0.012150882
0.0048235292 -0.012014424 0.00081167324
0.0035294113 -0.0070673078 -0.004844714
0.0026470581 -0.0080685094 -0.005257159
0.0022184867 -0.0081105772 -0.005299245
0.0022352934 -0.0081274044 -0.0057874448
0.00011764681 -0.0087163467 -0.00449119
-0.00023529348 -0.0087163458 -0.0044911895
0.0017411762 -0.0081980778 -0.0048447135
0.0061176466 -0.011661057 0.0017544054
0.0062352931 -0.011189905 0.0017544045
0.0057254904 -0.011661058 0.0047790012
0.0032941182 -0.012014424 0.0048182826
0.0036470592 -0.012014424 0.0057610138
0.0076470594 -0.010247596 0.0037577092
0.0070588235 -0.0027091349 0.005761012
0.0048235301 -0.0017668263 0.0076464755
0.006235295 0.0022379805 0.0076464755
0.006705883 0.0027091352 0.0076464755
0.0067058816 0.0017668267 0.0076464745
0.0048235287 0.0022379805 0.0076464755
0.0048235301 0.0027091342 0.0076464755
0.0031764712 -0.00035336497 0.0079999994
0.0035294115 -0.0014134613 0.0079999994
0.003529412 -0.00082451943 0.0079999994
0.006705882 0.00023557688 0.0076464745
0.0071764695 0.0008245192 0.0076464755
0.0042352937 -0.00035336521 0.0076464755
0.0057647061 0.00082451967 0.0076464745
0.0062352936 0.0008245192 0.0076464745
0.0052941176 0.0012956725 0.0076464745
0.0036470592 0.00082451873 0.0076464764
-0.0071764695 -0.0048293262 0.0062323785
-0.0071764705 -0.0048293266 0.0067037442
-0.0071764705 -0.0048293271 0.0076464755
-0.006705882 -0.0048293266 0.0076464755
-0.00082353008 -0.0088341339 0.0076464755
-0.00035294177 -0.0088341339 0.0076464755
-0.00082352955 -0.0093052881 0.0076464755
0.00082352897 -0.0071850959 0.0079999994
0.00082353008 -0.0075384611 0.0079999994
-0.0012941181 -0.00082451897 0.0080000013
-0.0022352943 -0.001295673 0.0079999994
-0.001764706 0.0027091347 0.0079999994
-0.0027058823 0.0048293266 0.0076464755
-0.0022352939 0.0042403843 0.0076464755
-0.002705883 0.0042403843 0.0076464755
-0.0012941182 0.005300479 0.0076464764
-0.0017647058 0.0048293257 0.0076464755
-0.00082352938 0.0053004809 0.0076464755
-0.0022352936 0.0053004809 0.0076464736
-0.0071764695 0.0036514427 0.0076464745
-0.0071764709 0.0031802889 0.0076464755
-0.006705882 0.0036514427 0.0076464755
-0.0067058816 0.003180288 0.0076464755
-0.0071764709 0.0027091342 0.0076464755
-0.006705882 0.0027091347 0.0076464764
-0.00717647 0.002237981 0.0076464755
-0.0067058816 0.0022379805 0.0076464745
-0.0077647064 0.0027091352 0.0076464745
-0.0062352936 0.00223798 0.0076464755
-0.0062352945 0.0017668263 0.0076464755
-0.0075294124 -0.00023557665 0.0071751089
-0.00717647 -0.00035336474 0.0076464745
-0.0075294115 -0.0008245192 0.0076464755
-0.0052941181 -0.0027091352 0.0076464755
-0.0057647051 -0.0027091349 0.0076464745
-0.0043529412 -0.0031802885 0.0076464755
-0.0048235287 -0.0031802887 0.0076464745
-0.00035294087 -0.0057716351 0.0079999994
-0.00082352909 -0.0057716351 0.0079999994
-0.0012941175 -0.0036514427 0.0079999994
-0.0008235299 -0.003651442 0.0079999994
-0.0008235299 -0.0031802889 0.0079999994
-0.0012941177 -0.0031802885 0.0079999994
-0.0043529416 -0.0017668266 0.0076464755
-0.0071764709 -0.00082451873 0.0067037442
-0.0076470589 0.0036514422 0.0067037451
-0.0062352945 0.0053004809 0.0048182826
0.00023529373 -0.0057716342 0.0079999994
0.0002352946 -0.0062427875 0.0079999994
-0.00035294075 -0.010247597 0.0076464755
0.00023529374 -0.0097764423 0.0076464745
-0.0048235287 0.0056538461 0.0075286343
-0.0051764706 0.0071850959 0.006585903
-0.0051764706 0.0067139426 0.006585903
-0.0048235296 0.0067139426 0.0065859039
-0.0037647067 0.0071850969 0.006585903
-0.0043529412 0.0071850959 0.006585903
-0.0037647064 0.0057323715 0.0076071951
-0.0043529412 0.0076562501 0.0065859039
-0.0051764701 0.0087163458 0.006585903
-0.0057647051 0.0076562501 0.0063502197
-0.0043529407 0.0082451925 0.0063502206
-0.0067058816 0.0051826918 0.0071751098
0.0052941176 -0.0031802892 0.0076464755
0.0057647061 -0.003651442 0.0076464755
0.0071764695 -0.0048293271 0.0057610129
-0.007647058 -0.0097764432 0.0067037442
-0.0076470589 -0.0088341348 0.0048182816
-0.0077433158 -0.0067032352 0.0076357624
-0.0077176476 -0.0071850964 0.0076229083
-0.0071764714 -0.0076562501 0.0076464755
-0.0057647051 -0.003180288 0.0076464745
-0.0037647062 -0.0031802882 0.0076464755
-0.0043529407 -0.0036514422 0.0076464755
-0.0026666662 -0.0036121793 0.0079999994
-0.00082352891 -0.0075384611 0.0079999994
-0.0012941178 -0.0075384621 0.0079999994
-0.0012941173 -0.0088341357 0.0076464755
-0.0017647056 -0.0088341348 0.0076464755
-0.0012941173 -0.0082451934 0.0076464755
-0.00082352926 -0.0082451925 0.0076464745
-0.0012941181 -0.0093052881 0.0076464755
-0.0017647056 -0.009305289 0.0076464755
-0.006235294 -0.0088341339 0.0076464755
-0.0062352936 -0.0082451925 0.0076464755
-0.006705882 -0.0082451943 0.0076464755
0.00023529404 -0.011543268 0.0037577082
0.0017647056 -0.011661056 0.0031685014
0.0022352939 -0.011661057 0.0026971377
-0.0017647063 -0.011661057 0.0037577092
-0.0017647056 -0.011661057 0.0031685024
0.00082353002 -0.011543269 0.0012830393
0.00023529374 -0.010718752 0.00034030853
-0.00035294081 -0.011072115 0.0003403076
0.0002352939 -0.011072115 0.0003403076
0.0076470589 -0.0071850959 0.0076464745
0.006235294 -0.0042403843 0.0076464745
0.0062352945 -0.0048293266 0.0076464755
0.0057647056 -0.0042403853 0.0076464745
0.0067058825 -0.0053004809 0.0076464755
0.0062352936 -0.0062427875 0.0076464755
0.0062352936 -0.0067139426 0.0076464745
0.0057647056 -0.0062427879 0.0076464755
0.0071764714 -0.0057716342 0.0076464755
0.0071764709 -0.0062427875 0.0076464755
0.0080000013 -0.0062427884 0.0076464745
0.0079999994 -0.0062427884 0.007292951
0.0071764709 -0.0067139426 0.0076464755
0.0057647061 -0.0057716351 0.0076464745
0.0052941167 -0.0057716351 0.0076464755
0.0048235296 -0.0057716351 0.0076464764
0.0048235292 -0.0053004809 0.0076464755
0.0042352946 -0.0053004809 0.0076464745
0.00082352874 -0.0062427893 0.0079999994
0.007647058 -0.0093052881 0.0048182807
0.00717647 -0.0082451925 0.0076464755
0.0036470592 -0.011189904 0.0076464745
0.0042352937 -0.010718751 0.0076464755
0.0036470592 -0.010718751 0.0076464755
0.0027058825 -0.010718751 0.0076464755
0.0042352937 -0.0093052881 0.0076464745
0.0048235296 -0.009305289 0.0076464755
0.0042352946 -0.0088341339 0.0076464755
0.0036470585 -0.0097764423 0.0076464755
0.003647059 -0.0093052881 0.0076464745
0.0048235301 -0.010247596 0.0076464764
0.0031764712 -0.010718752 0.0076464755
0.0031764701 -0.010247597 0.0076464755
0.0027058823 -0.0070673074 0.0079999994
0.0031764698 -0.0097764432 0.0076464736
0.0057647061 -0.010247597 0.0076464755
0.0057647056 -0.0097764423 0.0076464755
0.0057647056 -0.009305289 0.0076464745
0.0052941171 -0.0097764432 0.0076464764
0.0048235292 -0.0097764432 0.0076464755
0.0052941171 -0.0093052899 0.0076464736
0.006235294 -0.0088341357 0.0076464755
0.0027058821 -0.012014423 0.007292951
-0.003764706 -0.012132213 0.0076464764
-0.0037647057 -0.012014423 0.0048182816
-0.0037647062 -0.012014423 0.004346916
-0.0048235292 -0.012014423 0.0067037442
0.00082352979 -0.0070673078 -0.016746698
0.0048235287 -0.012014423 0.0012830398
0.0048235296 -0.012014423 0.0017544054
0.0042352946 -0.012014423 0.0031685014
0.0036470592 -0.012014423 0.0048182807
0.0048235292 -0.012014423 0.0052896473
0.0042352942 -0.012014423 0.0057610129
0.0048235292 -0.012014423 0.0048182816
0.00023529433 -0.011543269 0.0071751098
-0.0037647067 -0.012014423 0.0062323785
-0.0037647057 -0.012014423 0.0067037442
-0.0052941181 -0.011661056 0.0076464745
-0.0048235301 -0.011189904 0.0076464755
-0.0077433153 -0.0093159974 0.0071858247
-0.0076470585 -0.0088341348 0.005761012
-0.006705882 -0.010600963 0.0062323785
-0.0056470591 -0.011661058 0.0057610129
-0.00082352944 -0.011543268 0.0071751098
-0.001647059 -0.0018846157 -0.035719164
-0.0016470593 -0.0018846155 -0.036190528
-0.0027058818 -0.0042403848 -0.043732375
0.00023529404 -0.0014134615 -0.044203743
-0.00035294134 -0.0014134611 -0.043732375
0.00023529345 -0.0014134618 -0.043732375
0.00028235317 -0.0027326925 -0.045028634
0.00082352915 -0.0022379812 -0.044675112
-0.0012941177 -0.0053004804 -0.044675112
-0.0017647062 -0.0057716351 -0.044675112
-0.001294118 0.0088341339 0.006585903
0.00023529347 0.0076562501 0.0063502206
-0.00035294093 0.0082451925 0.0063502197
-0.0003529418 0.0088341348 0.0063502197
-0.0008235288 0.0082451925 0.0063502197
-0.00035294075 0.0076562492 0.0063502197
-0.0022352948 0.0076562501 0.0063502197
0.00023529364 0.0053004809 0.0076464755
0.00023529456 0.0056538461 0.0076464755
0.00082353002 0.0056538461 0.0076464755
-0.00082352979 0.0048293266 0.0076464745
0.003647059 0.0067139426 0.006585903
0.0042352946 0.0067139426 0.006585903
0.0042352946 0.0071850959 0.006585903
0.0027058816 0.0082451925 0.006585903
0.00023529418 0.005653847 0.0048182816
0.0012941181 0.0048293266 0.0076464755
0.0008235288 0.0048293266 0.0076464755
0.00078431418 0.0031410253 0.0079999994
0.0012941174 0.0053004809 0.0076464755
0.0012941172 0.0030625004 0.0080000013
-0.0025882355 -0.0028269233 -0.022285242
-0.0027058818 -0.003651442 -0.021813875
-0.0027058821 -0.0036514427 -0.022285243
-0.0021176466 -0.002355769 -0.022756606
-0.0016470595 -0.0018846157 -0.023699339
-0.0021176471 -0.0023557693 -0.023699339
-0.0025882355 -0.0028269221 -0.020753304
-0.0025882351 -0.0028269235 -0.024170704
-0.0025882348 -0.0028269228 -0.024759911
-0.0021176466 -0.0023557688 -0.024759911
-0.0021176469 -0.0023557695 -0.025349118
-0.0025882358 -0.0028269237 -0.025349118
-0.0027058818 -0.0036514422 -0.024759911
-0.0025882358 -0.0028269235 -0.026291851
-0.0021176466 -0.0023557697 -0.026763216
-0.0025882346 -0.0028269237 -0.026763216
-0.0021176466 -0.0023557697 -0.026291851
-0.0027058823 -0.0036514418 -0.026763216
-0.0025882355 -0.0028269235 -0.025820484
-0.0027058818 -0.003651442 -0.025820486
-0.0016470585 -0.0018846153 -0.025349118
-0.0025882348 -0.003180288 -0.01969273
-0.0027058828 -0.0048293266 -0.021342512
-0.0027058825 -0.0042403853 -0.022285243
-0.0027058823 -0.0042403853 -0.021813877
-0.0027058821 -0.0048293266 -0.022285245
-0.0027058821 -0.0042403848 -0.021342514
-0.0043361345 -0.0052836537 -0.0058042789
-0.0042941179 -0.0057127401 -0.0052571585
-0.0043361345 -0.0052836547 -0.0048615485
-0.0042352937 -0.0057716346 -0.004844713
-0.0043529402 -0.0042403848 -0.0057874462
-0.0047058817 -0.0042403853 -0.0070837
-0.0043529416 -0.0042403848 -0.0053160787
-0.0027058823 -0.0036514422 -0.028648678
-0.0027058816 -0.0036514427 -0.029237887
-0.0026666659 -0.0052612186 -0.01969273
-0.002588236 -0.0056538461 -0.017807269
-0.0025882348 -0.0056538456 -0.017335903
-0.0027058816 -0.0036514422 -0.026291849
-0.0027058825 -0.0036514432 -0.02534912
-0.0027058825 -0.0042403853 -0.025349118
-0.0025882353 -0.0028269226 -0.02723458
-0.0027058823 -0.0036514418 -0.027234582
-0.0027058818 -0.0048293262 -0.019221364
-0.0027058828 -0.0048293266 -0.018749999
-0.0027058818 -0.0036514422 -0.018278634
-0.0027058816 -0.0036514425 -0.019221365
-0.0027058818 -0.0042403843 -0.018749999
-0.0037647057 -0.0053004813 -0.0076729078
-0.00082353002 -0.0087163458 -0.001898679
-0.00035294154 -0.0087163467 -0.0018986785
-0.0008235299 -0.0087163467 -0.0026057262
-0.00070588238 -0.011072116 0.0003403076
-0.0012941178 -0.010718751 0.00034030806
-0.00082352961 -0.010718752 0.00034030806
-0.00082352926 -0.0087163458 -0.00072026486
-0.001294118 -0.0097764432 0.0003403076
-0.0008235292 -0.010247597 0.0003403076
-0.0008235288 -0.0097764423 0.0003403076
-0.0017647054 -0.010247597 0.00034030806
-0.0022184874 -0.0081105772 -0.0032117683
-0.0017411768 -0.0081980769 -0.0031949342
-0.0025882358 -0.0080096154 -0.0037841408
-0.0025882355 -0.0056538461 -0.020753305
-0.0026666664 -0.0052612186 -0.039254405
-0.002705883 -0.0048293266 -0.039254405
-0.0026666671 -0.0052612186 -0.039725769
0.003294118 -0.012014424 0.0026971367
0.0027058821 -0.011661057 0.0031685033
-0.0022352946 -0.011661057 0.0031685014
-0.0027058818 -0.011661057 0.0037577082
0.0022352939 -0.011661057 0.002225772
0.0012941171 -0.01154327 0.0017544064
0.0017647055 -0.011661058 0.0012830398
0.0017647059 -0.011661057 0.0017544054
0.0036705886 -0.012061538 0.0012594713
0.0032941173 -0.012014423 0.0017544045
0.0032941175 -0.012014423 0.0012830398
0.0036470585 -0.011661057 0.00081167324
0.001647059 -0.0065961541 -0.0097940527
0.0021176473 -0.0061250003 -0.0093226871
0.0021176471 -0.0061249998 -0.0097940527
0.0021176466 -0.0061249998 -0.01120815
0.0025882353 -0.0056538461 -0.011208151
0.0025882348 -0.0053004809 -0.012740087
0.0025882355 -0.0053004804 -0.01215088
0.0025882355 -0.0053004799 -0.010736784
0.0025882348 -0.0053004809 -0.011208151
0.0025882351 -0.0056538461 -0.010736784
0.00082352984 -0.0082451943 -0.0062588118
0.00082352891 -0.0082451925 -0.0067301765
0.0012941182 -0.0082451925 -0.006730176
0.0027058828 -0.0036514427 -0.043732379
0.0025882348 -0.002826923 -0.043261014
0.0026666673 -0.0032195519 -0.043261018
0.0025882358 -0.0028269233 -0.042789645
0.0052941176 -0.011189904 0.0008116737
0.0057647056 -0.011189904 0.00081167324
0.0048235296 -0.010718751 0.00081167324
0.0052941176 -0.010247597 0.0008116737
0.0048235296 -0.010247596 0.00081167324
0.0036470585 -0.010129808 0.0003403076
0.0027058818 -0.010600962 0.00034030806
0.0031176475 -0.0075973561 -0.0037252202
0.002647059 -0.0080685113 -0.0032538553
0.003117647 -0.0075973561 -0.0032538546
0.0026470579 -0.0080685103 -0.0037252207
-0.0026666664 -0.0052612191 -0.035247799
-0.00035294157 -0.0014134615 -0.017807268
0.0027058821 -0.0076562501 -0.0076729078
-0.0025882353 -0.0080096163 -0.006376652
0.0012941179 0.010718751 0.0063502197
0.0017647065 0.01071875 0.0063502197
-0.00035294172 0.007185095 0.0063502197
0.0017647056 0.0057716351 0.0048182816
0.0017647056 0.0057716342 0.0043469169
0.0022352934 0.0057716351 0.0048182807
0.0017647056 0.0076562483 0.0063502197
0.0017647062 0.0071850959 0.0063502197
0.0031764712 0.0097764423 0.0063502197
0.0031764712 0.0088341357 0.0063502197
0.0042352942 0.0076562501 0.0063502197
0.0036470592 0.0082451925 0.0063502197
0.0042352937 0.0082451943 0.0063502188
0.0048235287 0.0082451925 0.0063502188
0.0036470594 0.0076562501 0.006585903
0.0041764709 0.0075973552 0.006585903
0.0012941178 0.0067139426 0.0063502206
0.0017647054 0.0067139417 0.0063502197
0.0017647054 0.0057716342 0.0052896473
0.0022352941 0.0057716332 0.0052896473
0.0012941181 0.0071850959 0.0063502197
0.0008235292 0.0071850959 0.0063502197
0.0031764705 0.0036514427 0.0076464764
0.0036470592 0.003180288 0.0076464755
0.0021176466 0.0025913466 0.0079999994
0.0042352942 0.0042403834 0.0076464745
0.0017647065 0.0097764423 0.0063502197
0.0017647059 0.009305289 0.0063502197
0.0022352936 0.0093052881 0.0063502197
0.00082352979 0.0076562501 0.006585903
0.00023529374 0.0071850959 0.006585903
0.00023529415 0.0076562492 0.006585903
0.0017647056 0.0088341339 0.0065859021
0.001294118 0.0082451925 0.0065859039
0.0017647058 0.0082451925 0.006585903
-0.001294117 0.011661058 0.0063502197
-0.0016470588 0.012014423 0.0063502206
0.00082352926 0.0097764423 0.006585903
0.00082353002 0.009305289 0.0065859021
0.00023529409 0.009305289 0.0065859039
0.00023529438 0.009305289 0.0063502197
0.0027058821 0.011189904 0.0063502197
0.0051764706 0.007302884 0.006585903
0.0048235292 0.005653847 0.0076464764
0.0052941171 0.0056538461 0.0076464764
0.006705883 0.0048293266 0.0076464755
0.0071372553 0.0057323705 0.0063502216
0.0070588239 0.0056538461 0.0065859021
0.0076470585 0.0042403843 0.0062323785
0.007647058 0.0036514427 0.0062323785
0.0080000004 0.0031410258 0.0072143911
0.007647058 0.0036514418 0.0067037442
0.0076078433 0.0013349352 0.0062323785
0.0012941173 0.0062427884 0.0062323785
0.0071764705 -0.0076562492 0.0008116737
0.006705882 -0.0076562501 0.00081167324
0.0067058825 -0.0088341348 0.0008116737
0.0062352936 -0.009305289 0.0008116737
0.004078432 -0.0022379803 -0.0037055796
0.0040000007 -0.0018060898 -0.0032342144
0.0039999997 -0.0018846157 -0.0037841415
0.0041008405 -0.0022548079 -0.0013263053
0.0052941185 -0.0003533659 0.00034030806
0.0052941181 -0.0008245185 0.00034030853
0.0057647061 -0.0008245199 0.00034030806
0.0047843135 -0.0091875 0.00037958939
0.0048235292 -0.0088341348 0.00034030806
0.0048235287 -0.0097764423 0.0008116737
0.0057647051 -0.010247597 0.00081167417
0.0052941181 -0.0082451915 0.00034030853
0.0048235301 -0.0082451934 0.0003403076
0.0057647061 -0.0012956732 0.0003403076
0.0071764709 -0.0008245192 0.0057610129
0.0057647056 -0.0031802885 0.00034030853
0.006235294 -0.002237981 0.00034030853
0.0065882355 -0.0022772441 0.00037958845
0.0075294119 -0.0031802892 0.0022257701
0.0075294115 -0.0031802882 0.0017544054
0.0076470589 -0.0017668266 0.0017544054
0.006705882 -0.0031802882 0.0003403076
0.006235294 -0.0036514425 0.00034030806
0.006705882 -0.0036514425 0.00034030806
0.0075294115 -0.0027091349 0.0012830393
0.0075294115 -0.0031802887 0.0012830398
0.0075294115 -0.0044759619 0.00069383206
0.003647058 -0.0042403848 -0.0076729073
0.0027058825 -0.0042403853 -0.008497797
0.003647059 -0.0048293271 -0.0076729069
0.0041568624 -0.0027222217 -0.006717083
0.0025882358 -0.0056538461 -0.017335903
0.0025882348 -0.0056538465 -0.0097940527
0.0021176473 -0.0061249994 -0.010265418
0.0040000002 -0.0067139422 -0.0070837014
0.0039999997 -0.0066746799 -0.0077121872
0.0036078428 -0.0071458332 -0.0076729073
0.0039999997 -0.0065961536 -0.0066123349
0.0040000007 -0.0065961536 -0.006376652
0.0039999997 -0.006674679 -0.0058267247
0.0040784311 -0.0062427879 -0.0062980913
0.0040470585 -0.0062192306 -0.0067066085
0.0041882358 -0.0057716346 -0.0062823789
0.0042352946 -0.0057716346 -0.0057874452
0.0042352942 -0.0031802892 -0.0076729078
0.0027058818 -0.0036514418 -0.0088513214
0.0042139031 -0.0031909961 -0.006719463
0.003647059 -0.0036514422 -0.0076729083
0.0025882351 -0.0028269226 -0.0097940527
0.0021176464 -0.0023557686 -0.0097940527
0.002705883 -0.0048293262 -0.014743393
0.0025882346 -0.0053004809 -0.014743393
0.0027058821 -0.0048293266 -0.016157489
0.0025882351 -0.0053004809 -0.016157489
0.0025882351 -0.0056538451 -0.019221365
0.0027058825 -0.0048293262 -0.020164099
