# .PCD v0.7 - Point Cloud Data file format
VERSION 0.7
FIELDS x y z
SIZE 4 4 4
TYPE F F F
COUNT 1 1 1
WIDTH 1208
HEIGHT 1
VIEWPOINT 0 0 0 1 0 0 0
POINTS 1208
DATA ascii
0.0028000064 -0.0038999978 -0.036179665
0.0027499988 -0.0048749996 -0.044632412
0.0027999987 -0.0043500015 -0.043665677
0.0028000039 -0.0043499935 -0.043120343
0.0027499993 -0.004874994 -0.044136658
-0.0027500056 -0.0043749991 -0.044632412
-0.0023750023 -0.0038750004 -0.044632416
-0.002750006 -0.003874999 -0.04463242
-0.0027499946 -0.0048750062 -0.044136651
-0.0027500005 -0.0043750061 -0.044136643
-0.0077500017 -0.0075000003 0.0066790301
-0.0077499948 -0.0078750001 0.0066790236
-0.0077499994 -0.0078749955 0.0071747843
-0.0014166612 -0.011833332 0.012628179
-0.001375 -0.011374999 0.012628182
-0.0025000027 -0.012249995 0.012752116
-0.00087500521 -0.011750001 0.012628182
-0.0018750037 -0.011375006 0.012628177
0.0027499935 -0.003374994 -0.032238346
0.0027500023 -0.0033749964 -0.032734115
0.0027499995 -0.0033750029 -0.033725638
0.002750003 -0.003375004 -0.033229876
0.002833334 -0.0039166678 -0.031246813
-0.00033333697 -0.0014166681 -0.023810375
0.00012499827 -0.0013749967 -0.024306148
0.0001249949 -0.001375003 -0.023810377
0.0035000022 -0.0010000013 -0.0078220349
0.0028125052 -0.00043749367 -0.007140357
0.0028333396 -0.00050000148 -0.0077394126
0.0080000022 0.003624999 0.0075466055
0.0079999957 0.0042499979 0.0075466102
0.0079999985 0.0042500063 0.0071747936
0.0080000032 0.0023749974 0.0071747927
0.0001249973 -0.0072499951 -0.041657843
0.00012500014 -0.0072499937 -0.042153604
0.0005000041 -0.0072499989 -0.042153604
0.002100005 -0.0063000051 -0.042674154
0.0020999983 -0.0062999963 -0.04168262
-0.0053750006 -0.012249995 0.012504236
-0.0038750062 -0.012249997 0.012256355
-0.0043750009 -0.011874998 0.012628182
-0.0053750039 -0.011875007 0.012628173
-0.004875001 -0.011374997 0.012628177
-0.0043749986 -0.011374999 0.012628174
-0.0043749996 -0.010875003 0.012628183
-0.0038750067 -0.010874997 0.012628179
-0.0043750047 -0.010375002 0.012628182
0.0032500043 -0.011875004 0.0056874994
0.0015000063 -0.011750005 0.0061832629
0.0032500057 -0.011875 0.0061832583
0.0057500061 -0.011874996 0.006679032
0.0057499944 -0.011875005 0.0061832657
0.0053749979 -0.011875005 0.0066790208
0.0053750025 -0.011875005 0.0061832648
-0.0062500034 -0.011333339 0.012586869
-0.0063000056 -0.010849994 0.012652961
-0.0053749993 -0.0098750032 0.012628181
-0.005375002 -0.0093750041 0.012628174
-0.0048749973 -0.0098750005 0.012628181
-0.007750005 -0.010375004 0.012132413
-0.0068333293 -0.010375004 0.012586867
0.0077500045 -0.010374995 0.0017213987
0.0072500012 -0.010374999 0.0017213977
0.007750005 -0.010749995 0.00072987867
0.0062500006 -0.011375003 0.0018453449
0.0077499966 -0.010375006 0.002217164
0.0021249945 -0.006249995 -0.044136651
0.0020999936 -0.0062999991 -0.043665677
0.0021250057 -0.0062500061 -0.028768007
0.0027500035 -0.0052500013 -0.029263772
0.0027500065 -0.0052500004 -0.028768005
0.0021249978 -0.0062500024 -0.030751061
0.0072500017 -0.010749999 0.00072987843
0.0062500057 -0.011874996 0.0018453344
0.0077500036 0.0048750001 0.0056875031
0.007749998 0.0048749982 0.0061832564
0.0067499992 0.0063749966 0.0063071968
0.0077500027 0.0048749945 0.007174788
0.0020000066 -0.0020000059 -0.032858048
0.0019999971 -0.0019999952 -0.032114409
0.002249995 -0.0028750042 -0.044632427
0.0020833353 -0.0024166675 -0.044632412
0.002000002 -0.0019999938 -0.044260595
0.0011874946 -0.006812504 -0.044632412
0.0017500035 -0.0063749989 -0.044632412
0.0010833335 -0.001500003 -0.038724583
0.0010833277 -0.0014999993 -0.037733048
0.0020000006 -0.0020000055 -0.038187504
-0.0077499948 -0.0083333328 0.012586858
-0.0078750011 0.00062500453 0.012132412
-0.0078749945 0.00012500025 0.012628177
-0.0078500044 0.00059999852 0.012553815
-0.00087500172 -0.0018750039 -0.044632416
-0.00087499671 -0.0015000033 -0.044508472
-0.00037500483 -0.0014999965 -0.044632412
-0.00037500009 -0.0018750037 -0.044632416
-0.00087500497 -0.003000004 -0.04500423
-0.0017500016 -0.002000005 -0.04463242
-0.001357141 -0.0018928542 -0.044614714
0.00012499356 -0.0038749948 -0.045004241
0.00062500389 -0.0043749996 -0.045004241
0.0012500038 -0.003874999 -0.045004245
0.0010833371 -0.0029166718 -0.045004241
0.0020000024 -0.0019999966 -0.037815675
0.0027999938 -0.0038999948 -0.036725003
0.002749996 -0.003375004 -0.037195969
0.0027999936 -0.0039000055 -0.037666954
0.002249999 -0.0033750045 -0.044632416
-0.0023333339 -0.0058333306 -0.034221403
-0.0023333321 -0.0058333399 -0.033725634
-0.0027500051 -0.0052500064 -0.034221403
-0.002749997 -0.0034166705 -0.044591106
-0.001250002 -0.0033750001 -0.045004234
-0.0023750046 -0.0033750001 -0.044632424
-0.002249995 -0.0024166694 -0.044591099
-0.0018749975 -0.0023749936 -0.044632416
-0.00087500119 -0.0033750045 -0.045004245
-0.0018749998 -0.0038750018 -0.044632412
-0.0013749988 -0.0058750063 -0.044632416
0.0020833374 6.0535967e-09 -0.0057563544
0.0027499963 -0.00049999682 -0.0057150461
0.0022500001 0.0036250046 0.0012256296
0.0028750014 0.0036250013 0.0017213959
0.0028750049 0.0036249985 0.0012256331
0.0022499978 0.0036250027 0.0017213984
0.0036250032 0.011 0.006555086
0.0036666703 0.01141667 0.0063072089
0.0035000003 0.011749992 0.0063071968
0.0041999985 0.010849996 0.011264836
0.0037499981 0.011374999 0.011264829
0.0043125018 0.011312494 0.011264836
0.0036250062 0.010374997 0.0065550804
0.0044166646 0.010333339 0.0063072098
0.0047500008 0.010250006 0.0063071996
0.004000003 0.0097499974 0.0065550823
0.0048333365 0.0098333377 0.0063071996
0.0049166698 0.0093333405 0.0065550832
0.0027500032 -0.0052499962 -0.029759532
0.0021250036 -0.006250002 -0.029759528
0.0027500021 -0.005249999 -0.032238353
0.0027499967 -0.0048749968 -0.032238342
0.0022272712 -0.0058636307 -0.032722842
0.0022000025 -0.0058500059 -0.032238353
0.0027499986 -0.0052499939 -0.0342214
0.0021000055 -0.0063000065 -0.034246184
0.0028333375 -0.0039166631 -0.033229869
0.0079999967 0.0012499983 0.0038283842
0.0079999985 0.00062500639 0.0038283898
0.0079999994 0.0010000044 0.0030847408
-0.007375001 0.001199998 0.012603384
-0.0074166628 0.0017500054 0.012586871
-0.0068750046 0.005249999 0.0056874957
-0.0063750045 0.0072499947 0.01126483
-0.00683334 0.0063333358 0.011264827
-0.0057499954 0.0071250009 0.01151271
-0.0072499998 -0.0033749947 0.0096536055
-0.0072500035 -0.0033750008 0.010149362
-0.0072499947 -0.0043749954 0.0096536083
-0.0072500017 -0.0043750033 0.009157843
-0.0008749988 -0.0014999944 -0.026784955
-0.0018333294 -0.0019999989 -0.027239405
-0.0013750006 -0.0018749936 -0.02728072
-0.0008749945 -0.0014999995 -0.027280722
0.00012500658 -0.0013749993 -0.036700211
0.00012499408 -0.0013750051 -0.036204446
0.00012499667 -0.0013749939 -0.038187496
-0.00033333609 -0.0014166657 -0.037691735
0.00012500148 -0.0013750012 -0.037691738
0.0010833276 0.011333328 0.0063072061
0.0010833346 0.011416664 0.0065550795
-0.0003749982 0.011875 0.0063072024
0.0022499973 0.012000002 0.0063072061
0.0017500005 0.010749998 0.0063072052
0.0012249999 0.0035999957 0.00075466116
0.00062500511 0.0036250064 0.00072987098
0.0012500029 0.003625005 0.0012256356
0.0012500028 0.0057499935 0.004200208
0.00062499935 0.005375002 0.0042002182
0.00062500051 0.0057500009 0.0042002182
0.0012500032 0.0053749983 0.0042002155
-0.00087499496 0.011374995 0.0065550851
-0.00074999942 0.011749998 0.0063072052
0.0079999957 0.00062499894 0.0040762648
0.0077500059 -0.00025000074 0.0040762648
0.0077500022 0.00012500444 0.004076275
0.0077499994 -0.00087500666 0.0037044489
0.0071250019 -0.0043750042 0.0051917406
0.0070833378 -0.0028333275 0.0046959762
0.0071249986 -0.0043750019 0.0056875041
0.0072499951 -0.0058749979 0.0091578411
0.0077499934 -0.007500004 0.0091578448
0.0077500027 -0.0078750029 0.0081663197
0.0077500008 -0.0078749936 0.0076705534
0.0077500008 -0.0078750066 0.0086620804
0.0077500045 0.0001249949 0.0081663076
0.0079999957 0.0028749965 0.0076705441
0.0077500036 0.0022499966 0.0091578411
0.0080000041 0.00099999364 0.0096536009
0.0048750057 -0.011875005 0.011140886
0.0053749951 -0.011875005 0.01163665
0.0053750062 -0.011874994 0.011140892
0.0054999939 -0.012250002 0.01225635
0.0053750048 -0.011875 0.010645122
0.0053749988 -0.012249999 0.012504238
0.0057500065 -0.012249997 0.012504244
0.0053750006 -0.011874998 0.012504235
0.0077499999 -0.0098750005 0.010149365
0.0077499952 -0.010375001 0.010149369
0.0077500003 -0.010374993 0.0096536074
0.0077500036 -0.0078750029 0.0042002052
0.0077499966 -0.0078749955 0.0037044503
0.0077499966 -0.0083749965 0.0037044517
0.007250004 -0.0058750031 0.0056874957
0.0072500063 -0.005874997 0.0051917387
0.0077499975 -0.0074999947 0.0056874948
0.0079999985 -0.0088750031 0.012256355
0.0080000022 -0.0078750029 0.012256355
0.0079999948 -0.0083750002 0.012256349
0.0077499961 -0.0075000026 0.0071747871
0.0077500013 -0.0074999961 0.010645122
0.0080000013 -0.0068750018 0.012256349
0.0079999985 -0.0073750038 0.012256361
0.0027499972 -0.0052500032 -0.035212923
0.0021999946 -0.0058500059 -0.035708692
0.0077499975 -0.0078749955 0.0096536027
0.0077500017 -0.0074999966 0.01014937
0.0077499948 -0.0078750066 0.010149358
0.0028000067 -0.0043499968 -0.036725003
0.0027999959 -0.0044000065 -0.03766695
0.0027499967 -0.0052499967 -0.036700211
0.0027499995 -0.0052499939 -0.037195977
0.0027499977 -0.0043749991 -0.044136655
0.0077499975 -0.0098749939 0.0061832666
0.0077500013 -0.0093750041 0.0066790236
0.0077499934 -0.0093750004 0.0061832629
0.0077499938 -0.0098749977 0.0066790311
0.0077500045 -0.010374999 0.006679032
0.007749998 -0.0098749939 0.0056874938
0.0077500008 -0.010375006 0.0056874957
0.0077499975 -0.010374996 0.0061832666
-0.0037500013 -0.0015000033 -0.0058389828
-0.0032500031 -0.00099999481 -0.0058389874
-0.0032499956 -0.00099999481 -0.0052192789
-0.0027500058 -0.0033749971 -0.018852755
-0.0022500015 -0.0025000032 -0.019348513
-0.0027499967 -0.0033749989 -0.019348517
-0.0023333367 -0.0058333278 -0.043640893
-0.0027499986 -0.0033750038 -0.041657839
-0.0022500004 -0.0024166668 -0.042194918
-0.0022500008 -0.0024166675 -0.041203395
0.0027500044 -0.003375005 -0.034717161
0.0027499974 -0.0033750013 -0.035212927
-0.0043750047 0.011249997 0.0063072052
-0.004833329 0.010833332 0.0063071996
-0.0048750029 0.010374995 0.0063072005
-0.0053750062 0.010374995 0.0063072024
-0.0048750024 0.0098749977 0.0063071968
-0.0043750042 0.0098750014 0.0063072015
-0.0043750051 0.010249995 0.0065550869
-0.0048750015 0.0098750014 0.0065550879
-0.0018749976 -0.0020000041 -0.02777648
-0.00087500224 -0.0015000054 -0.028272243
-0.00087499875 -0.0014999979 -0.027776483
-0.0027499939 -0.0033749996 -0.028272247
-0.0027499956 -0.0033750022 -0.028768007
-0.0023750034 -0.002874994 -0.028768014
-0.0023750039 -0.0028749995 -0.028272253
-0.0043749949 0.010874998 0.0063071977
-0.00087499572 0.008750001 0.0063072015
-0.00087500305 0.0093750022 0.0063072043
-0.0013750014 0.0093750022 0.0063072015
-0.0013749971 0.0087499991 0.0063072043
-0.0023750009 -0.010874998 0.012628181
-0.0018749953 -0.010875002 0.012628183
-0.00037500644 -0.011375001 0.012628176
-0.00037500099 -0.011750005 0.012628174
0.00012499338 -0.011750001 0.012628183
0.0032499947 -0.012249995 0.012504239
0.0022499994 -0.011750005 0.012132415
0.0028749986 -0.011749998 0.011636655
0.002250005 -0.011750003 0.011636656
-0.0018750005 -0.011875004 0.012628183
-0.0014999986 -0.011749996 0.012132418
0.00012500299 0.0043749991 0.0038283921
0.0006250047 0.0043749963 0.0038283931
0.00062500342 0.0036249976 0.0022171589
0.00012500639 0.0053749946 0.0042002164
0.0027500011 -0.0033750064 -0.038187504
0.0027500044 -0.0033749978 -0.038683269
0.0027500018 -0.003374994 -0.042153597
0.008000005 0.0010000011 0.0027129243
0.0077500013 0.0017499989 0.0027129271
0.0001250061 -0.0013750023 -0.024801908
0.00099999376 -0.0014999968 -0.024801908
-0.00033333592 -0.0014166671 -0.022323092
-0.00087499659 -0.001500003 -0.022323098
-0.0008749988 -0.0014999951 -0.021827329
-0.00033333217 -0.0014166653 -0.024306139
0.00012500402 -0.0013749972 -0.023314623
-0.0017499985 -0.0019999973 -0.022323089
0.0077500059 0.00012500281 0.0077944985
0.008000005 0.0036249971 0.0071747899
0.0080000032 0.0014999961 0.007794491
0.007749998 0.0013750042 0.0061832638
0.0072499937 0.002875004 0.0091578411
0.0072500026 0.0028749942 0.0086620813
0.00050000666 -0.0072499956 -0.041657843
0.00050000648 -0.007249997 -0.041162081
0.00012499512 -0.0072499998 -0.041162077
0.0062500047 -0.011875002 0.0012256387
0.0063333316 -0.011916665 0.00085380906
0.0040000039 -0.0067500062 -0.0070783878
0.0040500057 -0.0063499995 -0.007722877
0.0040000044 -0.0067499992 -0.0078220284
0.004050002 -0.0063500004 -0.0071775392
-0.0018749944 -0.011749996 0.0081663076
-0.0015000025 -0.011750001 0.0081663188
-0.0018750025 -0.011750005 0.0086620739
-0.0033750008 -0.011875002 0.0081663113
-0.0015000034 -0.011750003 0.0086620776
0.00049999339 -0.0072499956 -0.044508472
0.00062500319 -0.0068750018 -0.044632416
0.0010833323 -0.0058333292 -0.045004237
0.0011875017 -0.0068125054 -0.043145131
0.0020999988 -0.0062999986 -0.043120343
0.00049999909 -0.0072499961 -0.043145124
-0.0038749999 -0.011875004 0.0022171636
-0.0038750013 -0.012249995 0.00072987867
-0.0033749957 -0.012250002 0.00072987354
-0.0038750025 -0.011875 0.0017213961
-0.0048749987 -0.011874998 0.0061832573
-0.004375 -0.011874998 0.0061832573
-0.0043750014 -0.011875005 0.0066790292
-0.0053750048 -0.011875007 0.0061832638
-0.0053749983 -0.011875007 0.0066790236
-0.0073749996 -0.0058750035 0.0096536065
-0.0077500027 -0.0098749949 0.0032086915
-0.0077499948 -0.010374995 0.0032086896
-0.0077499994 -0.010374995 0.0027129303
-0.0077500041 -0.010374999 0.0096535962
-0.0073749963 -0.010375 0.010149364
-0.0077499934 -0.010374994 0.010149362
-0.0048750052 -0.011875004 0.007670545
-0.005375003 -0.011875004 0.0081663132
-0.0053750006 -0.011875004 0.0076705562
-0.0077500064 -0.0083750058 0.0071747871
-0.0077499961 -0.0088750031 0.0076705534
-0.0077499966 -0.008875004 0.0071747908
-0.0038750053 -0.011374999 0.012628171
-0.0033749996 -0.011375006 0.012628178
-0.005375003 -0.012249995 0.012256355
-0.005375003 -0.011374999 0.012628173
-0.004874995 -0.011875007 0.012628178
0.0014999949 -0.011750005 0.0056875041
0.0032499947 -0.011875002 0.0051917434
0.0036250043 -0.011874994 0.0022171543
0.004250003 -0.012250002 0.00085381628
0.0042500058 -0.011874996 0.0022171575
0.0036250036 -0.011875005 0.0027129266
0.0036249952 -0.012249995 0.00085381861
0.0032499966 -0.012250004 0.00085381418
0.0017500049 -0.011750005 0.0056875031
0.0028749953 -0.011750005 0.0071747936
0.0032500033 -0.011874998 0.007174789
0.0022500018 -0.011750001 0.0076705506
0.0032499968 -0.011874998 0.0076705525
0.0072500058 -0.010375007 0.0022171552
0.005749994 -0.011875002 0.0071747946
-0.0058749947 -0.011375001 0.011636651
-0.0068749958 -0.010375001 0.01163665
-0.0058750068 -0.0083750049 0.012628172
-0.0058750063 -0.0088749994 0.012628175
-0.0063749994 -0.0083749965 0.012628172
-0.0063749938 -0.0088749947 0.012628174
-0.0058750012 -0.0093750004 0.012628181
-0.0073750019 -0.010375001 0.011636652
-0.0077499985 -0.010375002 0.011636652
-0.0068749962 -0.010375002 0.012132415
0.0058750059 -0.011875004 0.011140885
0.0077499961 -0.010375001 0.001225637
0.0077499994 -0.010375002 0.0027129201
0.0072499933 -0.010375004 0.0027129247
0.001187498 -0.0068125054 -0.044136658
0.0021000009 -0.0062999995 -0.026313988
0.0021000055 -0.0063000061 -0.027255926
0.0027500011 -0.0052500041 -0.026784962
0.0021249983 -0.0062500034 -0.031742584
0.0021249957 -0.0062500006 -0.030255295
0.0027500021 -0.0052500023 -0.042153604
0.0027499939 -0.0052500013 -0.042649362
0.0027500056 -0.005249999 -0.043640889
0.0027499958 -0.0052500023 -0.037691738
0.0022499962 -0.0058750045 -0.037691742
0.0021250052 -0.0062500043 -0.037691742
0.0027500021 -0.0048750048 -0.037691742
0.0021000006 -0.0063000033 -0.038162705
0.0020833318 -0.0063333395 -0.038683254
0.0027500021 -0.0048749959 -0.035708692
0.0077499975 0.00062500406 0.0046959715
0.0063750041 0.0034999945 0.0012256361
0.0058750021 0.0035000024 0.00072987005
0.0053333319 0.0035833344 0.001225631
0.0063749966 0.0034999992 0.0007298768
0.0027500014 -0.00050000427 -0.0052192733
0.0069999998 0.0058749928 0.0063071977
0.0071944469 0.0053333319 0.0061970297
0.0077500017 0.0048749936 0.0075466083
0.0011250003 -0.0015000037 -0.030751061
0.0020000001 -0.0019999964 -0.029635588
0.0019999961 -0.0020000027 -0.031246826
0.0017499987 -0.0019999996 -0.044632424
0.0020000038 -0.0040000034 -0.045004237
0.0017499978 -0.0038750004 -0.045004241
0.00062499352 -0.0033749999 -0.045004237
0.0017500062 -0.0023749967 -0.04463242
0.0012500009 -0.0048750029 -0.045004241
0.0012499962 -0.0043750051 -0.04500423
0.0020000027 -0.0048750015 -0.045004241
0.0020000015 -0.0043749986 -0.045004234
0.0010833362 -0.0015000068 -0.040129237
0.0001250041 -0.0013749991 -0.039179023
0.0019999987 -0.0019999989 -0.040542372
0.0010833297 -0.0014999991 -0.040707622
-0.0078749964 -0.00037500146 0.012628173
-0.0073750056 0.00012500654 0.012628184
-0.0073750056 -0.00037500355 0.012628173
-0.0073571471 -0.0078571448 0.012610466
-0.0073750061 -0.0073749954 0.012628184
-0.0068749958 -0.0083749946 0.012628173
-0.0027500046 -0.0052499999 -0.03174258
-0.0023333277 -0.0058333394 -0.032238342
-0.0023333291 -0.005833338 -0.031742588
-0.0018750014 -0.0019999957 -0.044136651
-0.0027500011 -0.0033750008 -0.029263774
-0.0023749971 -0.0028750002 -0.029263768
0.0027500056 -0.003874999 -0.041657839
0.0027499977 -0.003375001 -0.041657843
0.0027500056 -0.0038750039 -0.041162081
0.0027500044 -0.0043749996 -0.041162077
0.0027500023 -0.003875002 -0.040666308
0.0027499958 -0.0033749978 -0.040666312
0.0027499937 -0.0038749971 -0.04017055
0.0027499967 -0.0043750042 -0.040170554
0.0027500002 -0.0043749972 -0.039179027
0.002750003 -0.0038750051 -0.039674789
0.0027499984 -0.0043749935 -0.039674789
0.0027499967 -0.0033750033 -0.039674789
0.002750003 -0.0038749981 -0.039179027
0.00062499481 -0.004875002 -0.045004237
-0.00037499401 -0.0038749957 -0.045004237
-0.00037499817 -0.0043749968 -0.045004234
0.00012500648 -0.004374994 -0.045004234
-0.0023333379 -0.0058333352 -0.035708688
-0.0027500058 -0.0052500027 -0.035212923
-0.00233333 -0.005833338 -0.035212927
-0.0027499974 -0.0052500032 -0.036204446
-0.0023333351 -0.0058333343 -0.036204442
-0.0068333279 -0.010749999 0.00077118073
-0.0074166665 -0.010833329 0.00072986656
-0.007499997 -0.011250003 0.00072986749
-0.00087499386 -0.004874995 -0.045004234
-0.0023571439 -0.002892853 -0.044614706
-0.0013750023 -0.002874997 -0.044632416
-0.0018750062 -0.0028750044 -0.04463242
-0.0012499972 -0.0038749997 -0.045004234
-0.0013749971 -0.0063750045 -0.044632416
0.0028750068 0.010875 0.0063072015
0.0017499957 -4.6566129e-09 -0.0045995712
0.001999998 -6.2864274e-09 -0.0045995731
0.0017499996 6.0535967e-09 -0.0052192849
0.0019999975 -2.3283064e-09 -0.0063347463
0.0017500017 3.9581209e-09 -0.0063347435
0.0019999973 -4.1909516e-09 -0.0065826243
0.0020833293 3.0267984e-09 -0.0051779617
0.0053333393 0.0035833344 0.00072986889
0.0048750052 0.0053750002 0.0042002117
0.0053749988 0.0053750058 0.0042002127
0.0053750048 0.0057499972 0.0043241493
0.0010833323 -0.0015000054 -0.017819919
0.0020000059 -0.0019999985 -0.018480932
0.0020000022 -0.0020000008 -0.017737292
0.0019999959 2.3283064e-09 -0.0075741531
0.002199996 -0.00040000002 -0.0076980954
0.001750003 0.0036249966 0.0012256401
0.0022500055 0.0036250018 0.00072986726
0.0021249976 -9.3132257e-10 -0.0070783943
0.0027500053 -0.0048749992 -0.02926377
0.0027499951 -0.0048750006 -0.02876801
0.0027500009 -0.0052500013 -0.033229869
0.0021999953 -0.0058499994 -0.033229873
0.0011875055 -0.006812497 -0.029263766
0.0011874989 -0.0068124961 -0.029759537
0.00050000538 -0.0072500063 -0.029263778
0.0021250045 -0.0062499936 -0.034717157
0.0027499979 -0.004375 -0.0342214
0.0028333303 -0.0039166636 -0.032734107
-0.0018333307 -0.0063333395 -0.033229869
-0.0023333309 -0.0058333301 -0.033229873
0.0071249991 0.0032500019 0.0017213994
0.0067500058 0.0035000048 0.0017213947
0.0071250028 0.003249994 0.0012256352
0.0079999994 0.0013124985 0.0042002173
0.0077500008 0.0017500017 0.0032086906
0.0077499948 0.0017500021 0.0022171543
0.0077499999 0.0022500027 0.0022171617
0.0077500041 0.0022499962 0.0027129215
-0.0073333294 -0.0023749939 0.011677959
-0.0073749945 -0.0018749979 0.011636646
-0.0077500027 -0.0017499954 0.012256358
-0.0077499952 -0.0013750012 0.012256354
-0.0078333309 -0.0013749965 0.01258687
-0.0073750047 0.00062500127 0.012628173
-0.0077500017 0.0022499999 0.011636647
-0.0077500008 0.0017500045 0.011636647
-0.0063333334 0.0053333347 0.0046959724
-0.0063750041 0.0067499983 0.01126483
-0.0063750003 0.006375005 0.011264824
-0.0058750035 0.0067499937 0.011264835
-0.0073333285 0.0048333271 0.0056875031
-0.0068750018 0.0052500046 0.0071747899
-0.0073750014 0.0048749992 0.0075466065
-0.0072499942 0.0052500046 0.0065550804
-0.0058749965 0.0063749985 0.01126483
-0.0058750049 0.0063749985 0.011512713
0.0027500053 -0.0052499976 -0.02430615
0.0021250029 -0.006249995 -0.024801912
0.0021249952 -0.0062500066 -0.023810385
0.0027500014 -0.0052499943 -0.024801908
0.0027500044 -0.0052500037 -0.027280714
0.0027499958 -0.0052499957 -0.027776489
0.0027500042 -0.0052499957 -0.028272245
-0.0072500026 -0.0043750051 0.0081663104
-0.0072500035 -0.0033749989 0.0081663188
-0.0072500031 -0.0043749996 0.0076705497
-0.0072500058 -0.0033750024 0.0086620739
-0.0073750038 -0.0058750054 0.0081663085
-0.0072500003 -0.0048750034 0.0076705487
-0.0072499937 -0.0048749987 0.0081663132
-0.0072499979 -0.0028750065 0.0096535999
-0.0072499937 -0.002875003 0.01014936
-0.0072500031 -0.0033749961 0.0091578336
-0.007249997 -0.0023749974 0.0081663197
-0.007250004 -0.0019166621 0.0071334718
-0.0072499942 -0.0028749995 0.0081663094
-0.0073749986 -0.0018750024 0.0081663122
-0.007250004 -0.0028750014 0.0086620785
-0.0072500054 -0.0027499986 0.0040762695
-0.0068749944 -0.0033749989 0.005191735
-0.0068750023 -0.0028750037 0.0051917303
-0.0068750051 -0.0033750061 0.0046959706
0.00012500065 -0.0013750002 -0.037195969
0.00012499699 -0.0013749984 -0.038683254
-0.00033333266 -0.0014166676 -0.036700215
-0.00033332704 -0.0014166604 -0.028768003
-0.00087499566 -0.0015000005 -0.028768001
-0.00087499362 -0.0014999995 -0.032238353
-0.00033332905 -0.0014166604 -0.032734115
-0.0003333301 -0.0014166685 -0.032238346
-0.00033333123 -0.0014166667 -0.027280724
0.00012499739 -0.0013749949 -0.026784962
0.000124999 -0.0013750023 -0.027280716
0.00012500653 -0.0013749977 -0.028272251
0.00012500155 -0.001374997 -0.028768003
0.0019999975 -0.0019999966 -0.039674792
0.0020000027 -0.0020000024 -0.041286018
0.0067500034 0.0034999987 0.0012256303
0.006750002 0.0034999959 0.00072987191
0.0071249963 0.0032499973 0.00072987494
0.0019999975 0.011249993 0.0065550879
0.003000004 0.012250004 0.0063072089
0.0017499974 0.0087499935 0.006555086
0.0017500058 0.0081249941 0.0065550907
0.0012499987 0.0087500047 0.0065550888
0.0012499999 0.0081250053 0.0065550888
0.00062500098 0.0081249997 0.0065550869
0.00062500162 0.0087499991 0.0065550823
-0.00037499546 0.007750005 0.0063071987
-0.0008749995 0.0072499947 0.0063072024
-0.00037499846 0.0072500012 0.0063072024
-0.00037499997 0.0058749975 0.011512714
-0.00087499432 0.0063750022 0.01151271
-0.0003750032 0.0063750003 0.011512707
0.00012499462 0.0087499991 0.0065550804
0.00012500297 0.0081250016 0.0065550823
0.00062499469 0.0077499957 0.0065550841
-0.0013750012 0.011375003 0.0065550851
-0.0022499934 0.011750003 0.0063072089
-0.0058749933 0.0081249997 0.0065550804
-0.0053750044 0.0081250016 0.006555086
-0.0058749979 0.008750001 0.0065550907
-0.0058749956 0.0098749958 0.006307208
-0.0058749961 0.0093750022 0.0063071996
-0.0057500005 0.009250002 0.0065550832
-0.0053750044 0.009375006 0.0065550804
-0.0053749974 0.0087500028 0.0065550869
-0.0053750048 0.0077499966 0.0065550832
-0.0033749973 0.0057500056 0.0046959696
-0.0028749963 0.00575 0.0046959706
-0.0033750031 0.0057500047 0.0043241475
-0.0028750054 0.0077500013 0.0063072043
-0.0033750052 0.0081250072 0.0063072024
-0.0028750056 0.0081249941 0.006307207
-0.0028750009 0.0087499935 0.006307207
-0.0033750031 0.0087499935 0.0063072015
-0.0038750013 0.0057499972 0.0046959743
-0.0038750023 0.0057500056 0.0043241549
-0.0013749936 0.0072499956 0.0063071996
-0.00087500206 0.0067499983 0.0063072024
-0.00087499944 0.0057499935 0.005191735
-0.0013749944 0.006750003 0.0065550907
-0.0008750041 0.0072499947 0.006555086
-0.0013749957 0.0072500003 0.0065550879
-0.0013750013 0.0067499983 0.0063072033
0.0072499947 -0.0003749968 0.0056875031
0.0072500007 -0.00037500355 0.0061832657
0.0072499998 0.00012499955 0.005687505
0.0077499999 -0.00037499797 0.0037044554
0.0077499938 -0.0013750037 0.0030847488
0.0077499994 -0.0017499983 0.0030847483
0.0071249949 -0.0043750019 0.0076705497
0.0071250014 -0.0043749977 0.0071747899
0.0072499979 -0.0058750026 0.008662072
0.0080000022 0.0010000034 0.011636658
0.008000005 0.00062500639 0.012132411
0.0080000022 0.0010000034 0.012628174
0.0080000041 0.001000002 0.010149361
0.0080000004 0.00062500266 0.0096535999
0.0079999976 0.00062500406 0.010149368
0.0077499943 0.0022499966 0.0096535962
0.0048749992 -0.011874998 0.01064513
0.0057500033 -0.012250004 0.012256356
0.0062499954 -0.011875005 0.011636646
0.0062499964 -0.011875007 0.011140886
0.0077499971 -0.0088750003 0.0071747825
0.0077500059 -0.0093749976 0.007174788
0.0077500045 -0.010375001 0.01213242
0.0077500055 -0.0083749965 0.010645124
0.0077500017 -0.0088750031 0.011140896
0.0077499999 -0.0088749975 0.0081663104
0.0077499966 -0.0088749928 0.0086620748
0.0077499938 -0.0083750039 0.0086620729
0.007749998 -0.010374995 0.00072987378
0.0072499998 -0.010375004 0.00072987797
0.00275 -0.0038749953 -0.0223231
0.0027499963 -0.0033750045 -0.022323102
0.0027500005 -0.0033750017 -0.021827327
0.0027500009 -0.003874996 -0.021827329
0.0077500013 -0.0088750022 0.006679032
0.0077500031 -0.0075000012 0.0037044541
0.0077500059 -0.0098749977 0.0037044447
0.0077500055 -0.010375005 0.003704455
0.0077500027 -0.010374999 0.0032086868
0.0028333294 -0.004374994 -0.026743647
0.0077499934 -0.0078749955 0.0071747825
0.0077500059 -0.0078749964 0.010645127
0.0077500008 -0.0083749965 0.010149364
0.0077500003 -0.0088750031 0.01014937
0.0077499952 -0.0074999998 0.0096535999
0.0072500044 -0.0068750056 0.009653599
0.0072500044 -0.0063749934 0.0096536065
0.0027499939 -0.0038749941 -0.037195977
0.0027500039 -0.0043749982 -0.036204442
0.0027499977 -0.0043749996 -0.035212927
-0.0042499951 -0.006249995 -0.0070783943
-0.0037500041 -0.0067499997 -0.0076980991
-0.0042500021 -0.005833338 -0.0076567838
-0.0038749964 -0.0063750036 -0.007698087
-0.0038125056 -0.0068125064 -0.0071403617
-0.0027499984 -0.0052499985 -0.035708684
-0.00275 -0.005249999 -0.018356998
-0.0027500037 -0.0048750062 -0.01835699
-0.0027500014 -0.0048749973 -0.018852757
-0.0027499986 -0.0052499957 -0.034717161
-0.0027499958 -0.0048749978 -0.034717165
-0.0027499963 -0.0048750034 -0.035212927
-0.0023333386 -0.0058333352 -0.043145135
-0.0018333287 -0.0063333288 -0.043145128
-0.0018333278 -0.0063333353 -0.042649373
-0.0022500018 -0.0024999995 -0.041657843
-0.0077499938 -0.0075000054 0.0081663188
-0.0077500017 -0.0074999952 0.0076705469
0.0027499981 -0.0033750061 -0.034221392
-0.0073333369 0.0048333337 0.004324154
0.0020000036 -0.0019999966 -0.036328387
0.001000003 -0.0014999965 -0.036700208
0.0020000064 -0.0020000036 -0.037072033
0.0017499959 -0.0020000003 -0.036700211
-0.0048749945 0.0093750041 0.0065550804
-0.0048750029 0.0087500047 0.006555086
-0.0033749985 0.0093749948 0.0063072061
-0.003874999 0.0093749966 0.0063072015
-0.0043749986 0.0098749939 0.0065550823
-0.00087500125 -0.0015000061 -0.031742584
-0.0013750064 -0.0018750065 -0.032238346
-0.0018333276 -0.0019999968 -0.032279659
-0.001375001 -0.0018749976 -0.027776482
-0.0013749972 -0.0018749938 -0.028272253
-0.0043750028 0.010374999 0.0063072089
-0.003375001 0.0077500031 0.0063072089
-0.0038750039 0.0077499966 0.0063072098
-0.003375002 0.0072499984 0.0063072052
-0.0073750033 0.0022500064 0.00075466349
-0.0072499965 0.0032499968 0.00085380999
-0.0077500045 0.0022499999 0.00072986702
-0.0073333327 0.0028333389 0.00085380999
-0.0033749971 0.011374997 0.006307208
-0.0038750018 0.010875002 0.0063072024
-0.0033749938 0.010875003 0.006307208
-0.0038749948 0.011375003 0.0063072052
-0.00087499461 0.0098750032 0.0063072024
-0.0013749942 0.0098750051 0.006307208
-0.0023749999 0.0081250016 0.0063072005
-0.0018750051 0.0087499935 0.0063072033
-0.002374996 0.0087499935 0.0063071977
-0.0018750067 0.0081249997 0.0063072089
0.0006249937 0.0017500049 0.0002341147
0.00062500482 0.0012500039 0.00023410469
0.00012500148 0.0017500017 0.00023410795
0.00012500401 1.1641532e-09 -0.00075742055
0.00062499521 -5.3551048e-09 -0.0012531767
0.0001249958 -2.5611371e-09 -0.0012531737
0.0071249977 -0.0023749988 0.0046959734
0.0070000044 -0.0028749953 0.0056874966
0.0069999937 -0.0028749944 0.005191735
0.0069999956 -0.0023750023 0.0051917387
0.0071071363 -0.0028571393 0.0041825036
0.0071999957 -0.0028499984 0.0037044536
-0.0053750002 -0.0088749994 0.012628173
-0.0053750053 -0.0083750021 0.012628172
-0.00036363697 -0.0088636335 0.012729577
-0.0008750055 -0.0098750051 0.012628179
-0.00089999492 -0.0088749966 0.012702545
-0.001363637 -0.0088636288 0.012729581
0.0042500058 -0.012249995 0.012256357
0.0017500063 -0.011750007 0.011636649
0.001500004 -0.01175 0.012132416
0.0014999994 -0.011749998 0.011636659
0.0017499978 -0.011875002 0.012628179
0.0006250054 -0.01175 0.012628177
0.00062500412 -0.011374997 0.011636646
-0.0023749997 -0.011874996 0.012628178
-0.0018750052 -0.01175 0.012132418
0.0010000052 0.0043750019 0.0038283884
0.0012499942 0.0048749982 0.0042002136
0.00012499583 0.0072500031 0.0063072052
-0.00037499995 0.0043750009 0.0038283851
0.0022500053 0.0048749954 0.0042002061
0.0028749951 0.0053749937 0.0042002089
0.0028749953 0.0048750029 0.0042002108
0.0022500064 0.0053749983 0.0042002182
0.00050000165 0.0097500049 0.011264835
0.0011875049 0.0093125068 0.011264832
5.7134457e-09 0.0092499983 0.011512717
0.00062500377 0.0093750022 0.011264835
0.0012499983 0.010374995 0.006307207
0.0017500013 0.010374999 0.0063072033
0.0036249938 0.010875002 0.011264824
0.0032500036 0.010749999 0.011264836
0.0027500044 -0.0033750043 -0.037691735
0.0021071492 -0.0023928594 -0.037178278
0.0027499944 -0.0033749973 -0.04017055
0.0027499956 -0.0033750001 -0.039179023
0.0027499951 -0.0033750064 -0.041162081
0.0027500046 -0.0033750006 -0.043640886
0.0027500014 -0.0033749957 -0.043145124
0.0022500039 -0.0028750016 -0.043640882
0.002249999 -0.0028749974 -0.044136655
0.0027499932 -0.0033749959 -0.042649366
0.0027500058 -0.0038749943 -0.042649366
0.002750003 -0.003875003 -0.043145124
0.0027499958 -0.0043749977 -0.042649362
0.00062499364 -0.0014999961 -0.024801908
-0.0048749987 0.003625005 0.00085381488
-0.0043750061 0.0036249976 0.0012256321
-0.0048750024 0.0036249952 0.0012256412
-0.0043749982 0.0036249966 0.00085381605
-0.00033333554 -0.0014166678 -0.02281885
0.00012499458 -0.0013750053 -0.02281886
0.00062500214 -0.0015000033 -0.023810375
-0.0008750041 -0.0015000037 -0.025297673
-0.00087500631 -0.0014999954 -0.023810385
-0.0013749967 -0.0018749959 -0.0223231
0.0017499952 9.3132257e-10 -0.0057150377
0.0035000003 -0.00099999877 -0.0070783952
0.0040833363 -0.0019166709 -0.0070783878
0.0040625059 -0.0019374997 -0.0077600675
0.0019999996 -0.0020000017 -0.042277541
0.0027500014 -0.0033749954 -0.023810377
0.002000002 -0.002000005 -0.023438565
0.0020000036 -0.0020000043 -0.024430085
0.002749996 -0.0033749943 -0.030255297
0.0027499935 -0.0033750015 -0.029759528
0.0020000038 -0.0020000036 -0.033725634
0.002000002 -0.0019999959 -0.035212923
0.0027499963 -0.00049999659 -0.0067065675
0.0028749953 -0.00087499991 -0.0076980954
0.0022000012 0.00575 0.0042250017
0.0022499976 0.0036250046 0.0022171664
0.0017499975 0.0057499944 0.0042002052
0.0077499989 0.00012499467 0.0037044517
0.0077500059 0.00012499676 0.0091578346
0.0077500055 -0.00037500612 0.0096536065
0.0077499994 0.00012500631 0.0096536018
0.0077500008 -0.00037499843 0.0091578411
0.0080000022 0.002875004 0.0071747918
0.0077500045 0.0013749958 0.0066790236
0.0077499989 0.0017500008 0.0071747899
0.0077500027 0.0012499997 0.0071747936
0.0072500021 0.0006249994 0.0061832573
0.0080000004 0.0012500053 0.0080423746
0.007750005 0.002250006 0.012132413
0.0077500031 0.0020000055 0.012504233
0.0071250042 0.0032499945 0.012132411
0.0072500026 0.0028750035 0.012132416
0.007249997 0.0028750021 0.011636655
0.0077499999 -0.00033333455 0.0082076266
0.0077499989 -0.00037499424 0.0086620757
0.0077500064 -0.0017499974 0.0091578346
0.0077499994 -0.0013750033 0.0091578374
0.0080000032 -0.0078749973 0.012628175
0.008000006 -0.0060000001 0.012256361
0.0077499943 -0.00087500573 0.009157843
0.0077500008 -0.00087499758 0.009653599
0.0077500013 -0.0013750056 0.0096535981
0.0077499948 -0.00037499727 0.010149365
0.0077499971 0.00012499676 0.010149361
0.0077500022 -0.00037500472 0.010645121
0.0077500055 -0.00087499921 0.010149367
0.0077499966 -0.0013749965 0.010149363
0.0077500055 0.0022500004 0.0081663094
0.007750005 0.0022499971 0.0086620711
0.0079999967 0.0032499977 0.007174788
0.0077499943 0.0042500035 0.0075466093
-0.001500002 -0.011750003 0.003704448
-0.0033750006 -0.011875005 0.0042002071
-0.0033750013 -0.011874996 0.0037044513
0.0011874976 -0.0068124989 -0.040666308
0.0011874951 -0.0068124952 -0.041162081
0.0021250045 -0.0062500047 -0.041162077
0.0017499978 -0.0063750045 -0.040666308
0.0020833279 -0.0063333279 -0.016869705
0.0027500037 -0.0052499943 -0.016869698
0.0020833332 -0.0063333381 -0.016249994
0.0020999964 -0.0063000037 -0.015159321
0.0027499937 -0.0052499957 -0.015134535
0.0021000037 -0.0063000033 -0.014663559
0.0020833339 -0.0063333339 -0.015630294
0.0011874984 -0.0068124947 -0.01513453
0.0032500038 -0.011875004 0.0037044517
0.003249994 -0.011875004 0.0042002155
0.0036250029 -0.011875005 0.004200208
0.0036249971 -0.011875002 0.0037044443
0.0015000009 -0.011750003 0.0042002127
0.0058749951 -0.011375006 0.00072987401
0.0062499978 -0.011375008 0.00085380836
0.0063500055 -0.010799997 0.00075466023
0.0058749979 -0.010875 0.00072986819
0.0053749955 -0.011375004 0.00072987261
0.0053750025 -0.010875 0.00072987564
-0.0015000018 -0.011749994 0.011140887
-0.0018750038 -0.011749994 0.011140889
-0.001875 -0.011750001 0.011636646
-0.0023750006 -0.01175 0.0081663113
-0.0028750037 -0.011750001 0.0076705543
-0.0023749948 -0.011750001 0.0076705506
-0.0038749974 -0.011875 0.0056875041
-0.0043749944 -0.011874994 0.0056874966
-0.0015000064 -0.01175 0.0076705543
0.0017500054 -0.0053749951 -0.04500423
0.00049999804 -0.0072499961 -0.04264937
0.00049999403 -0.0072499989 -0.043640897
-0.0013750065 -0.0067500044 -0.042649362
-0.0013750002 -0.006749996 -0.042153604
0.00012500004 -0.0072499961 -0.044508472
-0.0048750029 -0.011875 0.0022171612
-0.0043750014 -0.011875002 0.0022171617
-0.0048749945 -0.011874998 0.0027129196
-0.0038750032 -0.011874996 0.0037044536
-0.0038750025 -0.011874998 0.004200208
-0.0043749949 -0.011874998 0.0027129303
-0.0038750051 -0.011875002 0.0027129285
-0.0043750019 -0.011875004 0.003208685
-0.0048749978 -0.011875 0.0037044527
-0.0053749979 -0.011875002 0.0037044485
-0.0048750038 -0.011875005 0.0042002117
-0.0048750048 -0.011874996 0.0056875022
-0.0053749941 -0.011875004 0.004200208
-0.005833331 -0.011874996 0.0041588936
-0.0057499995 -0.011875002 0.0045720274
-0.0058749951 -0.011875002 0.0037044494
-0.0077499952 -0.010375 0.0022171654
-0.0073749986 -0.010374994 0.0022171612
-0.0068750014 -0.010375004 0.0027129233
-0.0058750007 -0.011874996 0.0022171552
-0.005875004 -0.011874996 0.0027129229
-0.0077500003 -0.0098750014 0.0022171617
-0.0057499935 -0.011249995 0.0061832657
-0.0057499949 -0.011875004 0.0072987303
-0.0057500005 -0.011249999 0.0056875041
-0.0068750009 -0.010375004 0.0061832583
-0.0077500031 -0.010375004 0.010645122
-0.0077500059 -0.0098749986 0.0066790255
-0.0077499989 -0.010374997 0.0066790245
-0.0077499934 -0.010374995 0.0071747862
-0.0077499994 -0.010375004 0.0061832694
-0.0077499961 -0.0098749977 0.0061832629
-0.0077499989 -0.0098750014 0.0081663141
-0.0077500003 -0.010374995 0.007670545
-0.0077499952 -0.010375005 0.0081663122
-0.0077499948 -0.0098749939 0.0076705543
-0.0048750006 -0.011874994 0.0096536037
-0.0048749968 -0.011875007 0.0091578346
-0.005375003 -0.011874996 0.0096536074
-0.0057499972 -0.011874996 0.0077944938
-0.0048750066 -0.011874996 0.0066790311
-0.0048749959 -0.011875002 0.0081663169
-0.0077499938 -0.009375006 0.0076705562
-0.0077499961 -0.0093750004 0.008166315
-0.0077499943 -0.0083749956 0.0076705506
-0.0038750037 -0.011874998 0.011140897
-0.0043750037 -0.011875002 0.011140889
-0.0043749968 -0.011874996 0.011636649
-0.0038750046 -0.011875 0.012628181
-0.0077499966 -0.010374999 0.011140896
-0.0053750002 -0.011875 0.0086620692
-0.0053749955 -0.011874998 0.007174789
-0.0059166695 -0.011375003 0.012586867
-0.0048750015 -0.010875 0.012628178
-0.0038750055 -0.010375003 0.012628173
-0.0033750006 -0.010374999 0.012628184
-0.0023750002 -0.010375005 0.012628171
-0.003375005 -0.010874996 0.012628178
-0.0073749968 -0.0058750021 0.0061832657
-0.0077499948 -0.007500005 0.0061832592
-0.007375001 -0.0058750063 0.0066790311
-0.0072500063 -0.0043750056 0.0061832573
-0.0077499966 -0.0074999942 0.0056874966
-0.0073750038 -0.0063749952 0.0056875041
0.004250004 -0.011875004 0.0061832629
0.0036250027 -0.011875 0.0056874985
0.0042499974 -0.011874996 0.0056875004
0.0032499963 -0.011874994 0.0091578383
0.0040000011 -0.012250004 0.0095296679
0.0032499963 -0.011874998 0.0086620739
0.0022500064 -0.011750001 0.0086620757
0.002874994 -0.011750001 0.0091578346
0.0014999983 -0.011750003 0.0046959762
0.0032499956 -0.011874996 0.004695978
0.00012500268 -0.011374999 0.0042002099
0.0058750026 -0.011874996 0.0037044429
0.0058333296 -0.011875005 0.0041588973
0.006250002 -0.011875005 0.0032086873
0.0053749955 -0.011874998 0.0037044475
0.0048749978 -0.011874998 0.0032086822
0.004875002 -0.011875004 0.0027129252
0.005374996 -0.011875005 0.0027129271
0.0042499946 -0.011875004 0.0032086924
0.004875002 -0.011875004 0.0037044494
0.0053750058 -0.011874994 0.0042002127
0.0057499963 -0.011874996 0.0046959734
0.0058750035 -0.011874998 0.0022171543
0.0058750021 -0.011874996 0.0027129294
0.00050000206 -0.0072499951 -0.040666308
0.0042500068 -0.011874996 0.0037044499
0.0042500007 -0.011874998 0.0042002136
0.0042500044 -0.011875002 0.005191735
0.0048749936 -0.011875004 0.0051917396
0.004875002 -0.011874998 0.004695978
0.0048750029 -0.011874994 0.0056875004
0.0039999951 -0.0063750055 -0.0067065656
0.0040000016 -0.0067500067 -0.0065826317
0.0042500044 -0.011875005 0.0027129238
0.0036250053 -0.011875 0.0032086845
0.0058750012 -0.011874996 0.0091578374
0.0062499945 -0.011874998 0.0091578448
0.0063000056 -0.0119 0.0096288156
0.0036249952 -0.011875 0.0071747908
0.0042500054 -0.011874998 0.0071747852
0.004250003 -0.011875 0.0076705562
0.0053749988 -0.010375004 0.00072986865
0.005374996 -0.0098749939 0.00072987587
0.0058749937 -0.0098749939 0.00072986679
0.0062500057 -0.010875002 0.0040762778
0.0053749993 -0.011875002 0.0076705515
0.0057499958 -0.011875005 0.0076705553
0.0071250005 -0.0043750009 0.0046959687
-0.0077500027 -0.0078749955 0.012504235
-0.0077499966 -0.0078749955 0.012132416
-0.0078125047 -0.0073750028 0.012194381
-0.0078750039 -0.0063750064 0.012256359
-0.0078750001 -0.0068749995 0.012504232
-0.0078749992 -0.006374998 0.012504236
-0.0078750011 -0.0058749933 0.012256357
-0.0073750033 -0.0063750036 0.011140886
-0.0073750033 -0.0063749971 0.011636657
-0.0078125037 -0.0058750031 0.012566212
-0.0078749964 -0.0053749951 0.012256358
-0.0038749999 -0.0098750032 0.012628179
-0.0033750008 -0.0098749995 0.012628179
-0.0048750006 -0.0088749947 0.012628182
-0.004875002 -0.0083750058 0.012628177
-0.0068750042 -0.0088749975 0.012628182
-0.0058749975 -0.0098749958 0.012628173
-0.0073749949 -0.010375001 0.012132409
0.0072500026 -0.0093749985 0.012628181
0.0077499971 -0.0093750041 0.01262818
0.0067500025 -0.0093749994 0.012628174
0.0067500034 -0.010750005 0.012752121
0.0067499955 -0.0098750051 0.012628174
-0.001375002 -0.0053750039 0.012752121
-0.0013749996 -0.004874994 0.012752119
-0.0018750055 -0.004875001 0.012752121
-0.0013749959 -0.0043750051 0.012752121
0.0053571374 0.0036071413 0.012610474
0.0058499943 0.0035500051 0.012603392
0.006250002 0.0032500001 0.012628175
-0.00087499828 -0.0048749996 0.012752114
0.00012499411 -0.0048749959 0.012752119
-0.00087499933 -0.0053749997 0.01275211
0.0062499959 -0.011875002 0.0027129201
0.0017499988 -0.0063749999 -0.044136658
0.0021999953 -0.005849998 -0.028272247
0.0027500042 -0.0048749964 -0.042649359
0.002125001 -0.0062499959 -0.042153601
0.0022272686 -0.0058636339 -0.04414792
0.002250006 -0.0058750017 -0.042649359
0.0027500028 -0.0048750015 -0.037195977
0.00275 -0.0038749983 -0.038187496
0.0027500056 -0.0048750048 -0.036204454
0.0067500016 -0.010749998 0.00072987191
0.0077499934 -0.0017499997 0.0018453402
0.0072500031 -0.002875003 0.0012256328
0.0072272755 -0.0028636351 0.0017326691
0.0072499933 -0.003375004 0.001225638
0.0058749979 0.0034999941 0.0012256389
0.0058749993 0.0035000015 0.0017213961
0.0063750022 0.0035000057 0.0017213977
0.0058749937 0.0035000057 0.0022171589
0.0072142812 0.0052857106 0.0057052113
0.002800006 -0.0038999976 -0.02676017
0.0027999959 -0.0039000027 -0.027305514
0.0011250031 -0.0015000019 -0.03372563
0.0021071467 -0.0023928536 -0.03370792
0.0027499942 -0.0043749949 -0.032238353
0.0036249973 0.0057499963 0.0043241475
0.0032500057 0.0053749946 0.0042002155
0.0036250043 0.0053749965 0.0042002099
0.0042499979 0.0097499955 0.0063072024
0.0047499994 0.0095000025 0.0063071987
-0.00037499372 -0.0028750054 -0.04500423
-0.00087500009 -0.0023749941 -0.04463242
0.00062499521 -0.0028749995 -0.045004241
0.00062500336 -0.001874997 -0.044632427
0.001250006 -0.0018749944 -0.044632416
0.00062500016 -0.0038750039 -0.045004237
0.0012499947 -0.0023749974 -0.044632412
0.0017499964 -0.0043749954 -0.045004234
0.001250002 -0.0033750024 -0.045004241
0.00012499379 -0.0013749995 -0.039674796
0.00012500229 -0.0013750007 -0.040170547
0.00012500648 -0.0013749995 -0.040666308
-0.0073500043 -0.0083499961 0.012553814
-0.0077499994 -0.0098750032 0.012132409
-0.0077499971 -0.0093750004 0.012132421
-0.0077499999 -0.00087499619 0.011760599
-0.0078571364 -0.00089285802 0.012610474
-0.0077499994 -0.00087499409 0.012132414
-0.0073750038 -0.0013750044 0.011636649
-0.0077500059 -0.00024999538 0.011140884
-0.0078333346 -0.0018749983 0.012586866
-0.0068749948 -0.0008750041 0.01262818
-0.0068750004 -0.001375004 0.012628171
-0.0073749991 -0.0013749965 0.012628178
-0.0063749943 -0.0013749977 0.012628176
-0.0063749985 -0.00087499409 0.012628171
-0.0022499936 -0.0024166643 -0.037154667
-0.0027499993 -0.0033750054 -0.037195977
-0.0022500062 -0.0023749946 -0.036204446
-0.0027499949 -0.0033750047 -0.037691735
-0.0027500049 -0.0033749943 -0.038187493
-0.0027499972 -0.0033750061 -0.035708688
-0.0027500007 -0.003374995 -0.036204454
-0.0027499963 -0.0033750008 -0.036700215
-0.0023749988 -0.002875004 -0.037195969
-0.0027499979 -0.0052500018 -0.033229873
-0.0023333293 -0.0058333296 -0.032734104
-0.0023333307 -0.0058333287 -0.034717157
-0.0018333372 -0.0063333339 -0.034717169
-0.0018333339 -0.0019999971 -0.042194918
-0.0018333297 -0.0019999987 -0.041203398
-0.0012499965 -0.0043750061 -0.045004241
-0.00087499805 -0.0038750016 -0.04500423
0.0021249971 -0.0062499978 -0.040666319
0.0022500034 -0.0058750054 -0.040170543
0.0021250041 -0.0062499978 -0.040170554
0.0022272782 -0.005863633 -0.040677577
0.0027500016 -0.0043750061 -0.041657846
0.0027500049 -0.0038749943 -0.042153604
0.0027500025 -0.0043750033 -0.040666308
0.0027500007 -0.0048749954 -0.04017055
0.0027499991 -0.0048749968 -0.040666312
0.0027500051 -0.0043750019 -0.038187504
0.0027499944 -0.0038749978 -0.038683262
0.0027499942 -0.0052499995 -0.039179023
0.0027499949 -0.005250006 -0.038683265
0.0027499991 -0.0043750037 -0.038683258
0.0022499985 -0.0028749998 -0.035212919
0.0022500004 -0.0028750042 -0.034717161
0.0021428512 -0.0024285764 -0.036682501
0.0022499959 -0.0028750019 -0.043145135
0.00012499443 -0.004875001 -0.045004241
0.0027499972 -0.0048750048 -0.038187493
-0.0013749959 -0.0067500039 -0.043640893
-0.0013750005 -0.0067500067 -0.043145124
-0.001375 -0.0067500034 -0.040666308
-0.0018333363 -0.0063333344 -0.04017055
-0.0013750056 -0.0067499941 -0.040170543
-0.0013749968 -0.0067499969 -0.041162077
-0.0018749959 -0.0033749985 -0.04463242
-0.0013749995 -0.0018749997 -0.044136655
0.0010000055 -0.0014999993 -0.044632416
0.0010833269 -0.0015000021 -0.04368221
0.00062499527 -0.0014999986 -0.038187504
0.0032500022 0.0098749977 0.0065550813
0.0032500003 0.010375002 0.0065550841
0.0036249999 0.010249998 0.0063071987
0.0022499997 0.010350002 0.0063071977
0.0022500027 0.0093750004 0.0063072024
0.0022499999 0.0098749939 0.0063072005
0.0017500025 0.0093750041 0.0063072033
0.0053750016 0.0032499991 0.00072986679
0.0063750017 0.0032500033 0.00072986982
0.0067500002 0.0032500029 0.00072987005
0.0067499946 0.0028750054 0.00072987517
0.0012499952 0.0022499999 0.00023410423
0.0022500055 -0.00087500038 -0.0076980945
0.001250006 0.0036250004 0.0017213963
0.00062500476 0.0036249943 0.001721394
0.0017500055 0.0035833311 0.00077118631
0.0017500061 0.0036249976 0.0017213938
0.0017500049 0.0036249966 0.0022171626
0.002875004 0.0036250036 0.00072986633
0.0021999993 0.0021000039 0.00023411517
0.0012499976 0.0017499952 0.00023410656
0.0022499999 0.0032499977 0.00072986819
0.0017499973 0.0057499972 0.004695978
0.002250006 0.00575 0.0046959734
0.0022500029 0.0057500056 0.0051917359
0.0017500023 0.0057499944 0.0051917322
0.0032499952 0.0093750022 0.0065550879
0.0028749993 0.008750001 0.0065550851
0.002875 0.0093749985 0.0065550869
0.0032500029 0.008750001 0.0065550813
0.0036249955 0.0093750004 0.0063071987
0.0042500021 0.0093749966 0.0063071977
0.0027499956 -0.0052499995 -0.032734115
-0.0023333346 -0.0058333296 -0.031246815
0.0021000006 -0.0063000061 -0.037171181
0.0022272773 -0.0058636395 -0.034232669
0.0020833309 -0.0062500034 -0.033766944
0.0027499935 -0.0043750009 -0.034717161
0.00050000474 -0.0072499956 -0.025793431
0.00049999938 -0.0072500035 -0.0262892
-0.0018333283 -0.00633334 -0.031246824
-0.0018333271 -0.0063333288 -0.03372563
-0.001375004 -0.0067500006 -0.03322988
0.001749995 -0.0063750064 -0.031742577
0.001750003 -0.0063750041 -0.032238346
0.0071249953 0.0032500015 0.0022171659
0.0077499952 0.0048750057 0.0043241493
0.0080000013 0.0036249994 0.0046959789
0.0067499978 0.005249999 0.0045720302
0.0053749983 0.0048750029 0.0042002052
0.0048750048 0.004875001 0.0042002136
0.0058571431 0.0053571467 0.0042179134
0.0058333324 0.0048750001 0.0042415196
0.0067499951 0.0035000006 0.0022171645
0.0071249977 0.0032500061 0.0027129215
0.0077500041 0.001375006 0.0051917331
0.0077499994 0.0012500011 0.0046959706
0.0077499999 0.0017499989 0.0046959789
0.0077500064 0.0022500032 0.0032086803
0.0079999967 0.0017499947 0.0038283907
-0.0072500031 -0.0028749937 0.0032086864
-0.0072500054 -0.0028750007 0.0027129289
-0.0072500058 -0.0033749985 0.003208692
-0.0072500058 -0.0012499979 0.0056874948
-0.0072499979 -0.0008750041 0.0056874938
-0.0073749935 -0.0003749968 0.0046959724
-0.0072500035 -0.0008750027 0.0051917378
-0.0073750061 -0.00087499712 0.01262818
-0.0078333402 -0.0023750002 0.012586859
-0.0078333337 -0.0028749998 0.012586867
-0.0073750047 -0.0018750055 0.012628174
-0.007750005 0.0017500008 0.012132415
-0.0077500031 0.00012499513 0.011140896
-0.0077500027 0.00062499382 0.011636658
-0.0077500036 0.00062499428 0.011140889
0.006333339 0.0054166648 0.011264829
0.0057500033 0.0052499981 0.011512711
0.0067500016 0.0047500017 0.011264834
-0.0022499957 -0.0024999944 -0.018356988
-0.0027499946 -0.0033749996 -0.018356992
-0.0072500044 0.0032500015 0.01200848
-0.0062500034 0.0032500033 0.012504231
-0.0067499978 0.0027500005 0.012504239
-0.0073333383 0.0028333361 0.012132417
-0.0058749979 0.0058749965 0.011264827
