# .PCD v0.7 - Point Cloud Data file format
VERSION 0.7
FIELDS x y z
SIZE 4 4 4
TYPE F F F
COUNT 1 1 1
WIDTH 1189
HEIGHT 1
VIEWPOINT 0 0 0 1 0 0 0
POINTS 1189
DATA ascii
0.010747057 0.00075155916 -0.015556581
0.009761787 0.00076173386 -0.0156205
0.010218281 0.00072882045 -0.01560376
0.012744735 0.00076506019 -0.015547618
0.0097684199 -0.002754217 -0.015547618
0.0097684199 -0.0022186746 -0.01554762
0.010226316 -0.0013006025 -0.01554762
0.0097684199 -0.0017596384 -0.01554762
0.0097684218 -0.00073227187 -0.015612926
-0.0092342123 -0.003748795 -0.015547618
-0.014243974 0.0032946949 -0.015218275
-0.014188869 0.0032838741 -0.014791574
-0.014194734 0.0027542161 -0.01425238
-0.014183835 0.0032460412 -0.014274148
-0.014042106 0.0035957831 -0.014861904
-0.01319173 0.0047105849 -0.014785714
0.0072500003 0.0022186746 -0.015623812
0.0072500017 0.0017596384 -0.015623812
0.0077842092 0.0017596384 -0.01562381
0.0072500012 0.0013006023 -0.015623813
0.0062578935 0.00076506025 -0.015623813
0.0067157894 0.0017596384 -0.01562381
0.0047697369 0.0051641567 -0.015547618
0.0092342114 -0.0022186746 -0.015547618
0.0077842101 -0.0017596384 -0.01554762
0.0092342123 0.00076506007 -0.015623815
0.0086999992 0.0013006025 -0.01562381
0.0082421042 0.0013006026 -0.01562381
0.0027473681 0.00076506025 -0.015623812
0.0022894738 0.00076506013 -0.015623812
0.0022894735 0.0013006026 -0.01562381
0.0086999992 -0.00022951809 -0.01562381
0.0092342114 -0.00022951805 -0.015623812
0.0012210526 0.0037487948 -0.01554762
0.0012210528 0.0013006025 -0.01562381
0.002298452 0.0022096739 -0.015619326
0.0017432133 0.0027179772 -0.01557168
0.0017552631 0.0013006026 -0.015623812
-0.0012210526 -0.00022951806 -0.01562381
-0.003128947 0.0042078309 -0.015547618
-0.0027473685 0.0042078313 -0.01554762
-0.0037394736 0.0041058231 -0.015547618
-0.0047315797 0.0052789152 -0.015242852
-0.0047315788 0.0037487953 -0.01554762
-0.0037394729 0.0052789152 -0.015242852
-0.0042736833 0.0052789152 -0.015242852
-0.0027371929 0.0017392369 -0.01560857
-0.0022894738 0.0013006023 -0.01562381
-0.0042795544 0.0057320669 -0.015236992
-0.0042736842 0.006166386 -0.015151428
-0.0067157894 0.0061969887 -0.015166666
-0.0062578949 0.0061969887 -0.015166666
-0.006257894 0.0057257111 -0.015230663
-0.0058000004 0.0061969887 -0.015166666
-0.0052467114 0.0057283887 -0.015223803
-0.0052657891 0.0061969883 -0.015166663
-0.0022785715 0.0021858863 -0.015602039
-0.0027473683 0.0022186746 -0.01554762
-0.0017552632 0.0037487953 -0.015547618
-0.0012210526 0.0037487953 -0.01554762
-0.0017552632 0.0042078313 -0.015547618
-0.0017552633 0.0032897592 -0.015547618
-0.0022894735 0.0032897589 -0.01554762
-0.0017552633 0.002754217 -0.015547618
-0.00030526318 0.0027083131 -0.015578095
-0.00075141701 0.0027365619 -0.01555934
-0.00076315785 0.0032897589 -0.01554762
-0.0032052626 0.0052789152 -0.015242852
0.0047315797 0.005737952 -0.015242852
0.006257894 0.0047433735 -0.015547618
0.0062578935 0.005737952 -0.015242852
0.0037394741 0.0013006023 -0.015623813
0.0032052631 0.0013006026 -0.01562381
0.0027473688 0.0013006025 -0.01562381
0.0032052631 0.0037487948 -0.01554762
0.0032052631 0.0032897589 -0.01554762
0.0037394736 0.0032897592 -0.015547618
0.0037394734 0.003748795 -0.015547618
0.0042736842 0.0042078313 -0.01554762
0.0022894735 0.0047433735 -0.015547618
0.0022385966 0.0060949791 -0.01517513
0.00076315785 0.0060439757 -0.014404761
0.0058000004 0.0037487948 -0.01554762
0.014194737 -0.0032897592 -0.0047285706
0.013126315 -0.004743373 -0.004728571
0.013736843 -0.0061204825 -0.0057952371
0.013126316 -0.005217711 -0.0061914274
0.00076315791 -0.0057379515 -0.00023333309
0.0047315797 -0.0022186746 -0.00023333309
0.0052657914 -0.0017596389 -0.00023333309
0.0078859655 -0.0033917674 0.0027380958
0.0080894735 -0.003442771 0.0030428572
0.0080894735 -0.003442771 0.0027380958
-0.0017552624 -0.005737951 -0.00023333309
-0.0022894738 -0.0047433735 -0.00023333309
-0.00076315791 0.00022951803 -0.00023333309
-0.0012210528 0.00022951803 -0.00023333309
-0.0012210527 -0.00022951806 -0.00023333309
-0.00076315814 -0.000229518 -0.00023333309
0.0079063158 -0.0034121685 0.0031647626
0.0080894735 -0.0037105421 0.0031190477
-0.0022894738 -0.00022951803 -0.00023333309
-0.0017552631 -0.0002295181 -0.00023333309
-0.0017552625 -0.00076505984 -0.00023333309
-0.00030526321 -0.000229518 -0.00023333309
-0.0017552627 -0.0013006028 -0.00023333309
0.0027473692 -0.001759638 -0.00023333309
0.0027473683 -0.0013006027 -0.00023333309
0.0027473683 -0.00076506007 -0.00023333309
0.0032052631 -0.0017596384 -0.00023333309
0.0027473688 -0.000229518 -0.00023333309
0.0037394715 -0.0017596389 -0.00023333309
-0.0017552631 -0.0032897592 -0.00023333309
-0.0017552627 -0.0027542168 -0.00023333309
-0.0012210528 -0.0032897592 -0.00023333309
0.0047315801 -0.00076506007 -0.00023333309
0.0080894735 -0.0040548192 0.0017476194
0.0078859655 -0.0041058231 0.0022809524
0.0078859655 -0.0041058226 0.0017476194
0.0080894735 -0.0040548192 0.0027380958
0.0067157894 -0.0032897592 -0.00023333309
0.0078859655 -0.0033917674 0.0012142863
0.0080894735 -0.0040548192 0.0007571429
0.0067157894 -0.0017596384 -0.00023333309
0.0062578935 -0.0022186746 -0.00023333309
0.007784212 -0.0022186746 -0.00023333309
0.0082421042 -0.0022186749 -0.00023333309
0.0082421051 -0.0017596382 -0.00023333309
0.0097684199 -0.0027542161 -0.00023333309
0.0092342068 -0.0027542168 -0.00023333309
0.0052657914 -0.0061969869 -0.0017571421
0.005265791 -0.0061969878 -0.0022904752
0.0057999995 -0.0061969883 -0.0022904756
0.0052657914 -0.0061969873 -0.0027476181
-0.0047315797 -0.0061969873 -0.00023333309
-0.0047315797 -0.0061969883 -0.0012238091
-0.0047315801 -0.0061969873 -0.0017571426
-0.0052657914 -0.0061969878 -0.0022904752
-0.0062578931 -0.0061969878 -0.00023333309
-0.0017552632 -0.0060439757 -0.0012238091
-0.0012210525 -0.0061751297 -0.00072312867
-0.0027473683 -0.0061204829 -0.0017571421
-0.0027473683 -0.0061204825 -0.0012238091
-0.0022894738 -0.0060439757 -0.0017571421
-0.0022894735 -0.0060439752 -0.0012238091
-0.0027473681 -0.0042078318 -0.00023333309
-0.0022894738 -0.0042078309 -0.00023333309
0.0037394746 -0.0061778617 -0.0077761882
0.00232 -0.0060439752 -0.0087819044
0.0022894735 -0.0060609765 -0.0082164016
0.0022894738 -0.0060609765 -0.006743385
0.0017857894 -0.0060745776 -0.0068009514
0.0027473683 -0.0060822289 -0.0062523801
0.0017552631 -0.0060439757 -0.0062523806
0.00091578945 -0.0060439757 -0.0068619042
0.0023657896 -0.0060439752 -0.0052619046
0.003243421 -0.0060822293 -0.0052619046
0.0027473688 -0.0060822289 -0.0047666663
0.0023657896 -0.0060439752 -0.0037380946
-0.0027473683 -0.0061204825 -0.0047285706
-0.0017552633 -0.0060439757 -0.0022904756
-0.0032052631 -0.0061204825 -0.0057952371
-0.0022894735 -0.0061204825 -0.006709523
0.0032270676 -0.0060986234 -0.0097789112
0.0023657894 -0.0060439757 -0.012119047
0.0022894738 -0.005737952 -0.012804762
-0.0007711912 -0.0061889351 -0.012211278
-0.0012210525 -0.0060439752 -0.012804762
-0.0012019736 -0.0061778617 -0.011738094
-0.001793421 -0.0060822293 -0.012785714
-0.0012210525 -0.0061095534 -0.0087775514
-0.0017853269 -0.0061367098 -0.0087735923
-0.0012071768 -0.0061622132 -0.0097709969
-0.0017952381 -0.0061168396 -0.0093217688
0.0027473685 -0.0060439752 -0.011738095
0.00022894738 -0.0061587356 -0.011242857
0.0012210526 -0.0060439757 -0.0099095237
0.00083947368 -0.0060439757 -0.010138094
0.00083947368 -0.0060439757 -0.011738095
0.0023330825 -0.0060439752 -0.010192515
-0.0067157894 -0.0057379515 -0.00023333309
-0.0062578935 -0.0022186744 -0.00023333309
-0.006257894 -0.0027542161 -0.00023333309
-0.0057999981 -0.0022186739 -0.00023333309
-0.0067157894 -0.0022186746 -0.00023333309
-0.0062578935 -0.0017596384 -0.00023333309
-0.0072499998 -0.002754217 -0.00023333309
-0.007784212 -0.0027542163 -0.00023333309
-0.0077842101 -0.0022186744 -0.00023333309
-0.0067157894 -0.0017596385 -0.00023333309
-0.0062578931 -0.0013006027 -0.00023333309
-0.006257894 -0.00076506007 -0.00023333309
-0.0067157894 -0.0032897592 -0.00023333309
-0.0062578935 -0.0032897592 -0.00023333309
0.0077842106 -0.0061969878 -0.0012238091
0.0086999992 -0.0061969878 -0.0012238091
0.0047315801 -0.0061969883 -0.0022904761
0.0086999992 -0.0061969883 -0.0022904761
0.0097684218 -0.0061969883 -0.0042714276
0.0086999992 -0.0061969878 -0.0047285706
0.0072499998 -0.0061969873 -0.0017571426
0.0082421033 -0.0061969883 -0.0032047615
0.006710866 -0.0057231444 -0.0002701995
0.0057999981 -0.0052789152 -0.00023333309
0.0052657914 -0.0052789152 -0.00023333309
-0.00030526312 -0.0060439757 -0.0080809519
-0.00026710524 -0.0060822289 -0.0078904768
-0.002289474 -0.0061830776 -0.0087735923
-0.002289474 -0.0061532706 -0.0082115661
0.0012210527 -0.0060439757 -0.0077761905
0.00083947368 -0.0060439757 -0.0077761901
0.002340351 -0.0060439752 -0.0072513218
-0.0012210525 -0.0060439757 -0.0072428565
-0.0012071769 -0.0060996162 -0.0077761901
0.0023085526 -0.0060439752 -0.0012047617
0.0052657891 -0.004743374 -0.00023333309
0.0037394741 -0.0061778612 -0.0012047612
0.0042927628 -0.0061778617 -0.0057952367
0.0042927624 -0.0061778617 -0.0062523792
-0.012210527 -0.00022951809 -0.01554762
-0.011752631 -0.00022951809 -0.01554762
-0.012191446 -0.001778765 -0.015547618
-0.014042107 -0.0017596385 -0.013719046
-0.013248423 -0.0047127707 -0.01425238
-0.013278949 -0.0042078318 -0.01425238
-0.013247371 -0.0047038007 -0.013713796
-0.013278948 0.00076506013 -0.01524285
-0.0097684227 -0.00022951809 -0.01562381
-0.0086999992 -0.00022951809 -0.01562381
-0.0082421042 -0.00022951806 -0.01562381
-0.0047315797 0.00076506025 -0.015623812
-0.0047315797 0.00022951809 -0.01562381
-0.0042736838 0.00022951806 -0.015623812
-0.0037193901 0.0012844959 -0.01560376
-0.0067157894 0.0052789161 -0.015242852
-0.014103159 0.0013312048 -0.014252381
-0.014113936 0.0017686392 -0.013728013
-0.014089071 0.0013241427 -0.013742492
-0.012210529 0.0037487957 -0.015242852
-0.01019579 0.0036569878 -0.01554762
-0.010226316 0.0032897592 -0.01554762
-0.010226317 0.0017596385 -0.01554762
-0.011447368 0.0031367471 -0.015547618
-0.011294736 0.0042078318 -0.015242852
-0.012210528 0.0061459849 -0.015192064
-0.011752629 0.0061969878 -0.014252381
-0.0077842106 0.0052789152 -0.015242852
-0.0082217548 0.0061765863 -0.015151428
-0.0062070172 0.0041058236 -0.015547618
-0.0067157894 0.0037269362 -0.015547618
-0.014042106 0.0035957831 -0.0077761905
-0.014118423 0.0027542163 -0.0082333349
-0.01410316 -0.0022492772 -0.0042714272
-0.014103159 0.0013312049 -0.0042714276
-0.014103159 0.001331205 -0.004728571
-0.01410316 -0.0022492772 -0.0057952371
-0.014042108 -0.0017596384 -0.0052619036
-0.014118423 0.0017596384 -0.0052619046
-0.014118423 0.0022186746 -0.0042714276
-0.014118423 0.0017596384 -0.0042714276
-0.0012210525 0.0027542168 -0.015547618
-0.00030526315 0.0055849398 -0.013795238
0.0037394736 0.0061969878 -0.011738092
0.0027473688 0.0061969883 -0.011738092
0.0012428573 0.0061532706 -0.010747621
0.00076315791 0.0057160938 -0.012761224
-0.0017552628 0.005737951 -0.0092999982
-0.0023657894 0.0060439752 -0.0087666661
-0.0017552621 0.005737951 -0.0087666661
-0.0017552631 0.0057379515 -0.0082333358
-0.012210527 0.0061969883 -0.01371905
-0.012744736 0.0061969883 -0.013261909
0.0042927624 -0.0061778617 -0.003204762
0.0037394736 -0.0061204825 -0.0032047615
0.0032434212 -0.0060822289 -0.0032047615
-0.0052657914 -0.0061969873 -0.014252378
-0.0047315801 -0.0061969873 -0.014252381
-0.0042826626 -0.0061879875 -0.015162185
-0.0052657905 -0.0061969878 -0.014785711
-0.0037394741 -0.0061969873 -0.014785711
-0.0042736833 -0.0061969878 -0.01425238
0.0031834585 -0.0060439752 -0.014219727
0.0097684218 -0.0061969873 -0.012271425
0.013126316 -0.0051565059 -0.0072885701
0.013126316 -0.0051259035 -0.0097571425
0.013126315 -0.0052024093 -0.0086904764
0.0037394743 -0.0061532706 -0.006709523
0.0037484516 -0.0061339834 -0.007238376
0.003243421 -0.0060822289 -0.0042714276
0.0027473685 -0.0060439752 -0.0042714281
0.0027473683 -0.0060439757 -0.0037380955
-0.0022894733 -0.0060822289 -0.0062904758
0.001242857 -0.0056942347 -0.0042714276
0.001234325 -0.0057113408 -0.004741821
-0.0003148026 -0.0056518828 -0.0057761897
-0.00076315785 -0.005737952 -0.0042714276
-0.0017552631 -0.0060439757 -0.0042714276
-0.0012210525 -0.0060439757 -0.0037380946
-0.0012210525 -0.0060439757 -0.0032809516
0.0058058701 -0.0061911028 -0.01371905
0.0037394736 -0.0060439757 -0.013261903
0.0037700001 -0.0060439752 -0.01368857
0.0057999995 -0.0052789152 -0.015242852
0.0057999995 -0.0017596385 -0.01554762
0.0052657896 -0.0022186746 -0.015547618
0.0057999999 -0.0022186746 -0.01554762
0.0072499998 -0.0027542165 -0.015547618
0.0067157894 -0.0027542168 -0.015547618
0.0067157894 -0.0022186746 -0.01554762
0.0042736842 -0.002754217 -0.015547618
0.0042736842 -0.0032897589 -0.01554762
0.0037394736 -0.0022186746 -0.015547618
0.0030526316 -0.0042078313 -0.015547618
0.0027146619 -0.0012896729 -0.015602039
0.010760528 -0.0061969878 -0.01371905
0.0067157894 -0.0061969873 -0.012271423
0.005799999 -0.0061969878 -0.013261905
0.0052657905 -0.0061778612 -0.01371905
0.0072500012 -0.0061969878 -0.011738094
0.0052657914 -0.004743373 -0.015242856
0.0047315797 -0.004743373 -0.015242852
0.0022894738 -0.005737952 -0.015242852
0.00076315791 -0.0056614461 -0.012804762
0.00019842108 -0.0057073487 -0.01280476
-0.0047315792 -0.0027083131 -0.015578095
-0.0042736842 -0.0032897589 -0.01554762
-0.0037394734 -0.0032897592 -0.015547618
-0.0042736842 -0.0037487953 -0.01554762
-0.0032052631 -0.0037487953 -0.01554762
-0.0032052631 -0.0032897589 -0.01554762
-0.0037394736 -0.0037487953 -0.015547618
-0.0027473685 -0.0042078313 -0.01554762
-0.0022894735 -0.0037487953 -0.01554762
-0.0032052631 -0.0042078313 -0.01554762
-0.0037445612 -0.0047280719 -0.015547618
-0.0047315792 -0.0022186746 -0.01562381
-0.006257894 -0.0042078309 -0.01554762
-0.0058000009 -0.0022186749 -0.01562381
-0.0072754389 -0.0032897592 -0.015598413
-0.0032052633 -0.0022186746 -0.015623812
-0.0032052633 -0.0027083133 -0.015578095
-0.0062578935 -0.0022186746 -0.01562381
-0.0062668724 -0.0027047133 -0.015592435
-0.0057999999 -0.0027083131 -0.015578095
-0.0082421042 -0.0022186749 -0.01562381
-0.0087000001 -0.0022186746 -0.01562381
-0.0077842101 -0.0022186746 -0.015623812
0.011752631 -0.0052789161 -0.015242852
0.011752631 -0.0042078318 -0.015242852
0.011752631 -0.0037487959 -0.015242852
0.011294735 -0.0037487957 -0.015242852
0.010760527 -0.0042078318 -0.01524285
-0.0037503757 -0.002706856 -0.015583903
-0.0017552633 -0.003748795 -0.015547618
-0.0027473685 -0.0032897592 -0.01554762
-0.0037394746 -0.0017596382 -0.015623812
-0.0032052633 -0.0013006025 -0.01562381
0.00022894736 -0.003748795 -0.015547618
0.00075141701 -0.0027365615 -0.01555934
-0.000778421 -0.0046974695 -0.01554762
-0.0067157894 -0.005737952 -0.015242852
-0.0052657896 -0.0042078313 -0.015547618
-0.0052657891 -0.0027083133 -0.015578097
-0.00076315785 -0.0032897592 -0.01554762
0.0017552632 -0.0032897592 -0.015547618
0.0022894738 -0.0032897592 -0.01554762
0.0022894735 -0.0027542168 -0.015547618
-0.0032052633 -0.0061778612 -0.012785712
-0.0027473683 -0.0061969878 -0.011738092
0.0062578944 -0.0061969883 -0.010214284
0.0052657914 -0.0061969869 -0.010747623
0.0057999981 -0.0061969873 -0.007242857
0.0067157894 -0.0061969883 -0.0077761887
0.0092342123 -0.0061969873 -0.0077761896
0.0086999992 -0.0061969883 -0.0082333349
0.0082421033 -0.0061969878 -0.0077761887
0.0067157894 -0.0061969878 -0.007242857
0.0017552626 0.005737951 -0.01371905
0.0037394741 0.0052789152 -0.015242852
0.0012210525 0.0057188254 -0.015223805
-0.0027473683 0.00076506013 -0.015623812
-0.0022894738 0.00076506013 -0.015623812
-0.0021978947 0.0046362649 -0.01554762
0.0022894738 0.0061969878 -0.0042714281
0.012744735 0.0061969873 -0.01371905
0.01175263 0.0061969878 -0.014252381
0.011294736 0.0061969873 -0.01425238
0.011294736 0.0061969883 -0.01371905
0.011264211 0.0047127712 -0.01554762
0.011294737 0.0042078313 -0.01554762
0.010226316 0.004743373 -0.015547618
0.0097684199 0.0042078313 -0.01554762
0.0092342105 0.0047433735 -0.015547618
0.0062578935 0.0061969878 -0.01280476
0.006257894 0.0061969883 -0.013261905
0.0092342114 0.0061969878 -0.014785713
0.0077842125 0.0061969873 -0.01425238
0.006257894 0.0061969878 -0.01371905
0.0067157894 0.0061969883 -0.013261907
0.0032052631 0.00022951809 -0.015623812
0.0022894735 -0.00022951809 -0.01562381
0.0042736838 -0.00076506025 -0.015623812
0.00076315791 -0.00076506025 -0.015623812
0.00076315796 -0.0013006025 -0.015623812
0.0042736833 0.00076506013 -0.015623812
0.0077842125 0.00076506013 -0.015623813
0.0072500012 -0.00022951805 -0.015623812
0.0067157894 0.00022951806 -0.01562381
0.00022894736 -0.00022951805 -0.015623812
0.00022894736 0.00022951805 -0.015623812
0.00022894739 0.0013006026 -0.015623813
0.0012210526 0.00076506025 -0.015623812
-0.0072500012 -0.0017596384 -0.015623812
-0.0072500012 -0.00076506007 -0.015623815
-0.0067157894 -0.00076506013 -0.015623812
-0.0072500003 0.00022951803 -0.015623812
-0.0086999992 -0.0017596384 -0.01562381
-0.0086999992 -0.0013006023 -0.01562381
-0.0058000004 -0.0013006026 -0.015623812
-0.0052657886 -0.0013006025 -0.015623812
-0.0062578949 -0.00022951809 -0.01562381
0.0047315797 0.0061969878 -0.011280952
0.005265791 0.0061969873 -0.011280952
0.0062578931 0.0061969873 -0.012271425
0.0057999976 0.0061969873 -0.012271423
0.0057999995 0.0061969883 -0.011738092
0.0057999995 0.0061969883 -0.013261907
0.0052657914 0.0061969869 -0.014252376
0.0022894738 0.0061969883 -0.014785711
0.0027473685 0.0061663855 -0.012240948
-0.0027473683 -0.00076506013 -0.015623812
-0.0032052633 -0.00022951809 -0.01562381
-0.0057999999 0.00076506013 -0.015623812
-0.0052657896 0.00022951805 -0.015623812
-0.005277839 0.0012683894 -0.01560376
-0.0017552631 0.00022951805 -0.015623812
-0.0032052631 0.00022951809 -0.015623812
-0.00076315785 -0.00022951806 -0.01562381
-0.00076315785 -0.00076506007 -0.015623813
-0.00030526318 0.00022951806 -0.015623812
-0.00076315791 0.00076506013 -0.015623813
-0.0012210526 0.0013006025 -0.015623812
-0.0012210526 0.00076506013 -0.015623812
-0.00076315791 0.0013006023 -0.01562381
-0.00076315791 0.0017596384 -0.01562381
-0.0072500012 0.0061969878 -0.011738092
-0.0072500003 0.0061969883 -0.012271427
-0.0077842115 0.0061969878 -0.011738094
-0.0067157894 0.0061969883 -0.011738094
-0.0067157894 0.0061969887 -0.010214284
-0.0072500012 0.0061969873 -0.010214288
0.00024099724 0.0056493664 -0.012764661
0.00029138758 0.0055988501 -0.013261903
-0.0012271578 0.0057257116 -0.011280952
-0.0017552633 0.0057379515 -0.012271425
-0.0012428572 0.0056942333 -0.012271427
-0.0047315801 0.0061969873 -0.012271425
0.0097684208 0.00022951803 -0.00023333309
0.010226316 -0.0007650599 -0.00023333309
0.011752631 -0.0042078323 -0.00023333309
0.011752629 -0.0037487957 -0.00023333309
0.012897368 -0.0040548188 0.0012142863
0.012210529 -0.0013006027 -0.00023333309
0.011752632 -0.0017596382 -0.00023333309
0.012210529 -0.0017596382 -0.00023333309
0.012744736 -0.0017596389 -0.00023333309
0.013126315 -0.0038253011 0.0012142863
0.010226315 -0.0022186744 -0.00023333309
0.010226315 -0.0042078318 -0.00023333309
0.010226317 -0.0047433735 -0.00023333309
0.011294736 -0.0037487959 -0.00023333309
0.010760527 -0.0037487953 -0.00023333309
0.01175263 -0.0022186749 -0.00023333309
0.013126315 -0.0038253011 0.0017476194
0.012821052 -0.0034427713 0.0012142863
0.011752631 -0.0027542161 -0.00023333309
0.0072500003 -0.0052789147 -0.00023333309
0.0078605255 -0.0037487948 0.0012142863
0.011752632 -0.005737952 -0.0003095232
0.011752633 0.0061969883 -0.0067095221
0.011752633 0.0061969883 -0.0077761887
0.011294736 0.0061969883 -0.009300001
0.010760528 0.0061969873 -0.0092999982
0.013248423 0.0047127698 -0.003204762
0.014042108 0.0027542168 -0.0027476191
0.014042108 0.002754217 -0.006252381
0.01410316 -0.0013312049 -0.0012238091
0.014042106 -0.0035957831 -0.0022904756
0.011752631 0.0047433735 -0.00023333309
0.01221053 0.004743374 -0.00023333309
0.012210528 0.0052789142 -0.00023333309
0.014042108 0.0027542168 -0.0022904756
0.013736838 0.0013006027 -0.0037380951
0.013248422 0.0047127702 -0.004728571
0.013248422 0.0047127702 -0.0067095221
0.0092342095 0.0061969864 -0.0037380937
0.0092342105 0.0047433735 -0.00023333309
0.0087000001 0.0042078323 -0.00023333309
0.0077842097 0.0061969883 -0.00076666614
0.0082421042 0.0061969883 -0.00076666614
0.008242107 0.0047433735 -0.00023333309
0.0077842125 0.0061969873 -0.0022904756
0.0072500012 0.0061969873 -0.0022904752
0.006715789 0.0037487957 -0.00023333309
0.0062578949 0.0047433735 -0.00023333309
0.0082421023 0.0061969878 -0.0062523806
0.0086999992 0.0061969883 -0.0067095221
0.0086999992 0.0061969878 -0.0062523796
0.0086999992 0.0061969878 -0.0057952376
0.0086999992 0.0061969878 -0.0077761887
0.0082421051 0.0061969878 -0.0087666661
0.010226317 0.0061969873 -0.0087666661
0.010226316 0.0061969878 -0.0027476186
0.011294735 0.0061969878 -0.0017571426
0.012210528 0.0061969878 -0.0017571426
0.011294737 0.0061969883 -0.0067095226
0.0097684218 0.0061969883 -0.0062523801
0.0092342105 0.0061969873 -0.006709524
0.0097684227 0.0061969869 -0.0072428579
0.0092342086 0.0061969864 -0.0072428561
-0.00030526315 0.0060439757 -0.0048047611
-0.0017225564 0.0060439752 -0.0031176866
0.0057999995 0.0061969883 -0.0042714276
0.0062578935 0.0061969869 -0.0037380955
0.0057999981 0.0061969873 -0.0037380955
0.0057999995 0.0061969878 -0.0032047615
0.0052657919 0.0061969878 -0.0032047615
0.0052657924 0.0061969869 -0.0037380937
0.006257894 0.0061969873 -0.0032047611
0.0072500012 0.0061969878 -0.0027476181
0.0072500017 0.0061969878 -0.0032047615
0.0027473685 0.0061969878 -0.0037380946
0.0032052633 0.0061969883 -0.0042714272
0.0052657914 0.0061969873 -0.0052619036
0.0032052633 0.0061969878 -0.0057952376
0.0032052626 0.0061969878 -0.0052619055
0.0032052631 0.0061969883 -0.0047285701
0.0042736833 0.0061969883 -0.0057952381
0.0037394727 0.0061969869 -0.0052619036
-0.002289474 0.0037487959 -0.00023333309
-0.0027473678 0.0037487959 -0.00023333309
-0.0006105263 0.0060439757 -0.0057952376
-0.0006105263 0.0060439757 -0.0062523806
-0.0023657894 0.0060439757 -0.0062523806
-0.0017344498 0.0061830776 -0.0012238091
-0.0022894735 0.0061204825 -0.0012238091
-0.0032434212 0.0060822289 -0.0027476191
-0.0012210526 0.0061969878 -0.00076666614
-0.00076315779 0.0061969878 -0.00076666614
-0.00076315802 0.0061969883 -0.0012238096
-0.0023657894 0.0060439752 -0.0017571426
-0.0057999995 0.0061969878 -0.0042714281
-0.006257894 0.0061969883 -0.0042714281
-0.0062578935 0.0061969883 -0.0047285706
-0.0062578931 0.0061969878 -0.0037380951
-0.0077842115 0.0061969887 -0.0067095212
-0.0082421042 0.0061969873 -0.007242857
-0.0077842111 0.0061969878 -0.007242857
-0.0072499998 0.0061969873 -0.0072428579
-0.0047315797 0.0061969878 -0.0082333349
-0.0052657905 0.0061969873 -0.0082333358
-0.0042927624 0.0061778617 -0.007242857
-0.0047315797 0.0061969873 -0.007242857
-0.0023657894 0.0060439757 -0.0082333321
-0.0027473685 0.0060439752 -0.0082333339
-0.0027473688 0.0060439757 -0.0087666661
-0.006257894 0.0061969883 -0.0097571444
-0.0067157894 0.0061969878 -0.0097571434
-0.0062578926 0.0061969883 -0.010214286
-0.006257894 0.0061969883 -0.011280954
-0.006257894 0.0061969878 -0.011738094
-0.0067157894 0.0061969887 -0.011280954
0.005265791 0.0061969873 -0.0012238091
-0.0082421042 0.0061969878 -0.0017571426
-0.0077842111 0.0061969878 -0.0017571421
-0.0077842097 0.0061969883 -0.0012238091
-0.0082421033 0.0061969878 -0.0022904761
-0.0082421042 0.0061969883 -0.00076666614
-0.0077842106 0.0061969878 -0.00076666614
-0.0077842101 0.0061969878 -0.00023333309
-0.0087000011 0.0037487959 -0.00023333309
-0.0087000011 0.0032897592 -0.00023333309
-0.0082421042 0.0037487959 -0.00023333309
-0.0057999995 0.0061969878 -0.0027476186
-0.006257894 0.0061969883 -0.0027476186
-0.0072500017 0.0061969873 -0.0027476186
-0.0077842115 0.0061969878 -0.0022904756
-0.007784212 0.0061969878 -0.0027476186
-0.0082421023 0.0061969883 -0.0027476186
-0.012210528 0.0061969873 -0.0037380955
-0.012210527 0.0061969878 -0.0032047615
-0.0057999976 0.0032897589 -0.00023333309
-0.0062578926 0.0032897592 -0.00023333309
-0.0057999976 0.0027542161 -0.00023333309
-0.0077842111 0.0057379515 -0.00023333309
-0.0082421033 0.0052789161 -0.00023333309
-0.0067157876 0.0047433735 -0.00023333309
-0.0072500003 0.0047433744 -0.00023333309
-0.0092342095 0.0032897592 -0.00023333309
-0.010226317 0.0027542161 -0.00023333309
-0.010226316 0.0022186739 -0.00023333309
-0.0097684227 0.0022186746 -0.00023333309
-0.0097684199 0.0027542163 -0.00023333309
0.0082421051 0.0037487953 -0.01554762
0.0012290858 0.0061325626 -0.0062523815
0.0017705259 0.0061663855 -0.0062523792
0.0012210527 0.0061204811 -0.0079285717
0.0018061402 0.0060949805 -0.0067095235
0.0012210525 0.0060439752 -0.006709523
0.0022894738 0.0061969878 -0.0082333339
0.0022894738 0.0061969878 -0.0057952376
0.013736839 0.0013006025 -0.0012238096
-0.014042107 0.00022951809 -0.014785713
-0.014042108 0.00076506019 -0.01425238
-0.014042108 0.00076506025 -0.014785714
-0.01373684 0.0013006026 -0.015242852
-0.013191731 0.0047105844 -0.01425238
-0.01319173 0.0047105839 -0.013261903
-0.01410316 -0.0022492772 -0.012804762
-0.014042108 -0.0013006025 -0.012271428
-0.014042107 0.0013006025 -0.0093
-0.014042107 0.0017596384 -0.0093
-0.014118423 0.002754217 -0.0093
-0.014118421 0.0027542168 -0.0097571444
-0.014194738 0.0037050783 -0.0097353756
-0.014042108 0.0013006025 -0.008766667
-0.014042106 0.00099457835 -0.008233333
-0.014042106 0.00099457835 -0.0087666661
-0.014042106 0.00099457835 -0.0097571425
-0.014118422 0.0027542163 -0.010214284
-0.014164209 0.0027542163 -0.010747621
-0.014111485 0.0022325849 -0.010747617
-0.014118422 -0.0027542163 -0.0093
-0.01418576 0.0032942595 -0.012284869
-0.014184559 0.002752516 -0.012276504
-0.014115105 0.0022253275 -0.012261489
-0.014080266 0.0013197289 -0.012252381
-0.014042107 0.00081096386 -0.012225714
-0.014107521 0.00077598961 -0.015264625
-0.014118423 0.0013006026 -0.015242856
-0.011294737 -0.0047051208 -0.015547618
-0.013278947 -0.0022186746 -0.015242852
-0.011294737 -0.00022951809 -0.01554762
-0.0097684227 -0.0013006026 -0.01562381
-0.011752632 -0.00076506025 -0.015547618
-0.011294737 -0.0013006025 -0.01554762
-0.010760526 -0.0013006025 -0.015547618
-0.011752631 -0.0032897589 -0.01554762
-0.0082421033 0.0061969873 -0.00023333309
-0.0082421042 0.005737952 -0.00023333309
-0.0097684227 0.005737951 -0.00023333309
-0.0097684218 0.0061969873 -0.00023333309
-0.010226315 0.0061969869 -0.00023333309
-0.0097684218 0.0061969883 -0.00076666614
-0.011294736 0.0061830776 -0.0002541123
-0.013736841 0.0061204825 -0.0017571421
-0.013126315 0.0052789152 -0.0017571421
-0.013126315 0.0052789156 -0.0022904756
-0.01319173 0.0047105839 -0.0052619046
-0.01415658 0.0060822289 -0.004728571
-0.014156581 0.0060822293 -0.005261905
-0.013126315 0.0052789152 -0.006709523
-0.014042107 0.0013006025 -0.0077761905
-0.014042107 0.0013006023 -0.006709523
-0.014042108 0.0013006025 -0.0072428565
-0.014118422 -0.0027542163 -0.011738094
-0.014042107 -0.0017596385 -0.011280952
-0.014042106 0.00096397597 -0.010701904
-0.014042106 -0.00099457835 -0.010214284
-0.014103159 -0.0022492772 -0.010214284
-0.014042107 -0.0013006025 -0.010214284
-0.014042106 -0.00099457835 -0.0097571425
-0.0067157894 0.0022186744 -0.00023333309
-0.0067157894 0.0027542163 -0.00023333309
-0.006257894 0.0027542161 -0.00023333309
-0.0057999981 0.0022186746 -0.00023333309
-0.0052657924 0.001759639 -0.00023333309
-0.0057999976 0.0017596384 -0.00023333309
-0.0052657924 0.0013006028 -0.00023333309
-0.0067157894 0.000229518 -0.00023333309
-0.0062578954 0.0007650599 -0.00023333309
-0.0062578931 0.00022951806 -0.00023333309
-0.0067157899 0.0032897592 -0.00023333309
-0.011752628 0.0007650599 -0.00023333309
-0.011905263 0.0037487953 0.0030809529
-0.01213421 0.0037487957 0.0031190477
-0.010226317 0.0013006027 -0.00023333309
-0.002289474 0.00076506007 -0.00023333309
-0.0027473683 0.00022951803 -0.00023333309
-0.0022894738 0.00022951806 -0.00023333309
-0.0027473683 0.0022186746 -0.00023333309
-0.0022894738 0.0017596382 -0.00023333309
-0.0037394708 0.00076505984 -0.00023333309
-0.0032052626 0.000229518 -0.00023333309
-0.0037394722 0.00022951809 -0.00023333309
-0.0032052628 0.00076506007 -0.00023333309
-0.002747369 0.0027542161 -0.00023333309
-0.0042736833 0.0007650599 -0.00023333309
-0.0052657914 0.00022951806 -0.00023333309
-0.0082421042 0.0022186746 -0.00023333309
-0.0027473683 0.0042078318 -0.00023333309
-0.0032052628 0.0037487957 -0.00023333309
-0.0032052631 0.0032897592 -0.00023333309
-0.0072500003 0.0061969869 -0.00023333309
-0.011752629 0.00022951803 -0.00023333309
-0.011294735 0.0007650599 -0.00023333309
-0.01175263 0.0013006027 -0.00023333309
-0.011294733 -0.0007650599 -0.00023333309
-0.011294736 0.00022951803 -0.00023333309
-0.010760527 0.00022951806 -0.00023333309
-0.010760528 -0.00022951809 -0.00023333309
-0.0057999981 0.0013006027 -0.00023333309
-0.0072500012 0.0061969878 -0.00076666614
-0.010226313 0.0032897592 -0.00023333309
-0.012210528 0.0061969873 -0.0017571426
-0.005265791 0.0061969873 -0.0022904756
-0.0047315797 0.0061969878 -0.0017571426
-0.0047315801 0.0061969878 -0.0022904756
-0.0047315801 0.0061969883 -0.0027476186
-0.0057999995 0.0061969878 -0.0022904756
-0.0057999976 0.0042078323 -0.00023333309
-0.014118422 0.0022186746 -0.0037380951
-0.014042107 0.0017596384 -0.006709524
-0.014042106 -0.00099457835 -0.006709523
-0.014118423 0.0022186749 -0.0022904752
-0.014118423 0.0017596385 -0.0027476186
-0.014118423 0.0022186746 -0.0027476186
-0.014042108 0.00076506025 -0.0032047611
-0.014042108 0.00076506025 -0.0027476191
-0.012210528 0.0061969878 -0.012271425
-0.012210528 0.0061969883 -0.012804762
-0.012744735 0.0061969883 -0.012271423
-0.011752632 0.0061969883 -0.012804762
-0.0086999992 0.0061969878 -0.014785711
-0.0087000011 0.0061969873 -0.01425238
-0.0086999992 0.0061423411 -0.015166666
-0.0082421042 0.0061969873 -0.01425238
-0.010226316 0.0061969878 -0.012804762
-0.010226315 0.0061969873 -0.012271425
-0.0097684218 0.0061969883 -0.012804758
-0.010760527 0.0061969873 -0.0082333358
-0.012744738 0.0061969873 -0.010214288
-0.012210528 0.0061969878 -0.010214286
-0.012210528 0.0061969878 -0.010747623
-0.012744737 0.0061969873 -0.0097571407
-0.012210529 0.0061969883 -0.0097571444
-0.01324842 0.0061969883 -0.0082638087
-0.014172934 0.0060986234 -0.0082551008
-0.01415658 0.0060822289 -0.0093
-0.012744736 0.0061969883 -0.011280952
-0.013240789 0.0061587351 -0.0057952381
-0.013240788 0.0061587351 -0.0042714281
-0.012744737 0.0061969883 -0.0047285706
-0.012744736 0.0061969878 -0.0042714286
-0.013736843 0.0061204825 -0.0042714276
-0.013240789 0.0061587342 -0.0097571434
-0.014042107 0.00022951809 -0.0027476186
-0.014042107 0.00022951809 -0.0022904756
-0.01410316 0.0013312049 -0.0022904756
-0.014042108 0.00076506025 -0.0022904756
-0.014042107 -0.0013006025 -0.0027476186
-0.014042107 -0.0013006023 -0.0012238091
-0.014042108 0.0002295181 -0.0017571421
-0.010760528 -0.0052789156 -0.00023333309
-0.00076315791 0.0057379515 -0.00023333309
0.0027473688 0.0061969878 -0.00076666614
0.0022894738 0.0052789161 -0.00023333309
0.0012210526 0.0061969878 -0.00076666614
0.0022894738 0.0042078313 -0.00023333309
0.0022894735 0.0037487957 -0.00023333309
0.0017603507 0.0061867861 -0.00024857093
0.00022894739 0.0057379515 -0.00023333309
-0.00030526321 0.0037487957 -0.00023333309
0.00022894742 0.0042078313 -0.00023333309
-0.00030526321 0.0042078318 -0.00023333309
-0.00076315802 0.0042078318 -0.00023333309
-0.0012271578 0.0057257116 -0.0047407611
0.0037394741 0.0061969873 -0.0077761896
0.0047315801 0.0061969878 -0.0067095244
0.0077842111 0.0061969878 -0.0077761887
0.005265791 0.0061969878 -0.0067095235
0.0057999995 0.0061969878 -0.0077761887
0.0057999995 0.0061969878 -0.0057952376
0.006257894 0.0061969878 -0.0067095244
0.0057999981 0.0061969873 -0.0087666661
0.0052657914 0.0061969869 -0.0087666661
0.0057999995 0.0061969878 -0.009300001
0.0062578935 0.0061969883 -0.0092999982
0.0067157894 0.0061969883 -0.0077761882
0.0067157894 0.0061969883 -0.0062523801
0.0077842092 0.0061969883 -0.0062523806
0.0067157894 0.0061969878 -0.0097571444
0.0042736838 0.0061969878 -0.0097571434
0.0042736833 0.0061969878 -0.010214286
0.0042736833 0.0061969873 -0.010747621
0.0057999995 0.0061969878 -0.010214284
0.0042736838 0.0061969878 -0.0082333367
0.0047315797 0.0061969878 -0.0082333349
0.0047315797 0.0061969878 -0.0087666661
-0.014118423 0.0017596384 -0.0022904756
-0.014103161 0.0013312048 -0.0017571426
-0.01410316 0.0013312049 -0.0027476186
-0.014042107 -0.0013006025 -0.0022904756
-0.014194735 0.0032897592 -0.0037380951
-0.014194737 0.0032897589 -0.0042714281
-0.014194738 0.0032897592 -0.005261905
-0.014194738 0.0032897592 -0.0022904761
-0.013660527 0.0045138556 -0.0012238091
-0.013191729 0.0047105844 -0.0017571426
-0.0042736838 -0.0061969873 -0.007242857
-0.0047315797 -0.0061969878 -0.0077761887
-0.0057999995 -0.0061969883 -0.0093
-0.0057999995 -0.0061969883 -0.0097571444
-0.006257894 -0.0061969878 -0.0093
-0.0062578944 -0.0061969883 -0.006709524
-0.0057999976 -0.0061969873 -0.007242857
-0.0062578935 -0.0061969873 -0.0072428579
-0.0062578935 -0.0061969878 -0.0077761882
-0.005799999 -0.0061969878 -0.0077761882
-0.0057999995 -0.0061969883 -0.0062523796
-0.0057999995 -0.0061969878 -0.0057952381
-0.0067157894 -0.0061969878 -0.005795239
-0.0086999992 -0.0061969878 -0.0067095221
-0.0086999992 -0.0061969878 -0.0077761887
-0.0072500017 -0.0061969873 -0.0072428561
-0.0082421042 -0.0061969873 -0.012271425
-0.0082421033 -0.0061969878 -0.01280476
-0.0086999992 -0.0061969883 -0.011280952
-0.0067157894 -0.0061969883 -0.010214284
-0.0072500012 -0.0061969873 -0.010214288
-0.0072500017 -0.0061969878 -0.0097571407
-0.0072500012 -0.0061969878 -0.0092999982
-0.0047315797 -0.0061969883 -0.0047285706
-0.0067157894 -0.0061969883 -0.0022904756
-0.005265791 -0.0061969878 -0.0057952381
-0.0072500012 -0.0061969873 -0.0042714286
-0.0077842106 -0.0061969878 -0.0042714281
-0.0072500017 -0.0061969878 -0.0047285706
-0.007784212 -0.0061969878 -0.0047285701
-0.0082421042 -0.0061969878 -0.005261905
-0.0082421023 -0.0061969878 -0.0047285706
-0.006257894 -0.0061969883 -0.0042714267
-0.0057999995 -0.0061969883 -0.004728571
-0.0062578935 -0.0061969878 -0.005261905
-0.013187367 -0.0057073501 -0.0057952367
-0.013202631 -0.0052789156 -0.004728571
-0.013215351 -0.0047114952 -0.0066904756
-0.014118422 -0.0027542168 -0.0062523796
-0.014042106 -0.00099457835 -0.004728571
-0.014136032 -0.003301529 -0.0087549444
-0.014042106 -0.0035957831 -0.0093
-0.014042106 -0.0035957831 -0.010061905
-0.013126315 -0.0052789156 -0.008233333
-0.01319173 -0.0047105839 -0.0082333339
-0.013126315 -0.005737952 -0.010214284
-0.013126315 -0.0052789156 -0.010214286
-0.013233725 -0.0047122031 -0.011297883
-0.013233726 -0.0047122031 -0.011738092
-0.013259868 -0.0042078318 -0.011738094
-0.013244257 -0.0042147874 -0.011301732
-0.013187367 -0.0052789152 -0.012804762
-0.0092342105 -0.0061969878 -0.01371905
-0.011294736 -0.005737952 -0.015242852
-0.01021244 -0.0032619387 -0.015575325
-0.0077842125 -0.0061969873 -0.01425238
-0.0077842134 -0.0061969883 -0.011738092
-0.0072500012 -0.0061969873 -0.013261909
-0.0067157894 -0.0061969883 -0.013261905
-0.0077842106 -0.0061969883 -0.012804763
-0.0086999992 -0.0061969878 -0.01280476
-0.0092342114 -0.0057379515 -0.01524285
-0.0082421042 -0.0061969878 -0.010747623
-0.0077842092 -0.0061969878 -0.010747621
-0.0082421033 -0.0061969878 -0.011280952
-0.0077842115 -0.0061969883 -0.0097571434
-0.013226619 -0.0047193286 -0.012286663
-0.0077842111 -0.0042078313 -0.01554762
-0.0076824562 -0.0051769079 -0.015547618
-0.0086999992 -0.004743373 -0.015547618
-0.0082421051 -0.0037487953 -0.01554762
-0.0057999981 -0.0061969878 -0.010747621
-0.0052657914 -0.0061969869 -0.010747621
-0.005265791 -0.0061969878 -0.010214288
-0.012744737 -0.0047433735 -0.015242852
-0.013278948 -0.0042078318 -0.014785711
-0.0097684218 -0.0061969873 -0.0017571426
-0.0097684227 -0.0061969878 -0.0027476186
-0.0087000001 -0.0061969878 -0.0037380951
-0.007784212 -0.0032897592 -0.00023333309
-0.0082421042 -0.0022186746 -0.00023333309
-0.0087000001 -0.0022186744 -0.00023333309
-0.0082421061 -0.0027542161 -0.00023333309
-0.0087000001 -0.0032897592 -0.00023333309
-0.0087000011 -0.0027542161 -0.00023333309
-0.0087000001 -0.0037487957 -0.00023333309
-0.014118422 -0.0027542163 -0.0072428575
-0.014103159 -0.0022492772 -0.0077761901
-0.011294737 -0.0061969883 -0.0012238091
-0.012210529 -0.0061969883 -0.00076666614
-0.011752632 -0.0061969883 -0.00076666614
-0.010760528 -0.0061969873 -0.00076666614
-0.011294734 -0.0057379515 -0.00023333309
-0.011294737 -0.0061459839 -0.00025872979
-0.011752632 -0.0061969878 -0.0027476186
-0.012744737 -0.0061969878 -0.0047285706
-0.0032052631 -0.0013006027 -0.00023333309
-0.0032052628 -0.0007650599 -0.00023333309
-0.0087000001 -0.0013006027 -0.00023333309
-0.0092342095 -0.0022186744 -0.00023333309
-0.0097684199 -0.0017596382 -0.00023333309
-0.0097684208 -0.0013006027 -0.00023333309
-0.010226316 -0.0007650599 -0.00023333309
-0.010226317 -0.0013006027 -0.00023333309
-0.013278948 -0.0042078318 -0.0027476186
-0.014042106 -0.0035957831 -0.0022904756
-0.00026710526 -0.0060822289 -0.011738094
-0.0086999992 -0.0057379515 -0.015242852
-0.0062578935 -0.0061969878 -0.014252381
-0.0067157894 -0.0061969878 -0.01371905
-0.0067157894 -0.0061969878 -0.01280476
-0.00075728749 -0.0057320669 -0.015236992
-0.0032052631 -0.0061969878 -0.0097571444
-0.0042736833 -0.0061969883 -0.011280952
-0.0047315797 -0.0061969878 -0.011280952
-0.013736843 0.0061204825 -0.0027476186
-0.013736841 0.0061204825 -0.0037380955
-0.012744739 0.0061969873 -0.0037380937
-0.013240789 0.0061587342 -0.0027476191
-0.014156581 0.0060822289 -0.0042714276
-0.014271055 0.0036722899 -0.0042714276
0.011752631 0.0013006027 -0.00023333309
0.012744739 0.0022186744 -0.00023333309
0.013736838 0.0017596382 -0.00023333309
0.0067157894 0.0013006027 -0.00023333309
0.0078859655 0.0033917672 0.0022809524
0.0032052631 0.000229518 -0.00023333309
0.0012210526 0.00022951803 -0.00023333309
0.00022894738 0.0013006028 -0.00023333309
0.0032052626 0.0032897592 -0.00023333309
0.002747369 0.0032897589 -0.00023333309
0.002289474 0.0032897589 -0.00023333309
0.0042736833 0.0027542161 -0.00023333309
0.0047315801 0.0027542158 -0.00023333309
0.00076315802 0.0022186744 -0.00023333309
0.0027473685 0.0017596384 -0.00023333309
0.0017552627 0.0017596389 -0.00023333309
0.0022894738 0.0017596384 -0.00023333309
0.0042736833 0.0017596384 -0.00023333309
0.0017552631 0.0032897589 -0.00023333309
0.0017552627 0.0037487957 -0.00023333309
0.00076315791 0.0042078323 -0.00023333309
0.00022894742 0.0047433744 -0.00023333309
0.00076315814 0.0047433735 -0.00023333309
-0.0017552633 0.00022951809 -0.00023333309
-0.0017552623 0.00076505984 -0.00023333309
-0.001221053 0.0007650599 -0.00023333309
-0.00076315808 0.0013006027 -0.00023333309
-0.00076315785 0.00076506007 -0.00023333309
-0.0017552627 0.0017596389 -0.00023333309
-0.0012210528 0.0022186746 -0.00023333309
-0.0017552626 0.002754217 -0.00023333309
-0.0032052628 -0.00022951799 -0.00023333309
-0.0027473681 -0.000229518 -0.00023333309
-0.00030526321 0.00076506007 -0.00023333309
0.0042736838 0.0052789161 -0.00023333309
0.0052657914 0.003748795 -0.00023333309
0.0057999981 0.0037487957 -0.00023333309
0.0057999981 0.0042078313 -0.00023333309
0.0078796055 0.0034045181 0.0007571429
0.0087000001 0.0032897592 -0.00023333309
0.0092342114 0.0032897592 -0.00023333309
0.0072499993 0.0061969869 -0.0017571426
0.014089069 0.002242215 -0.00074322289
0.011752629 -0.0013006027 -0.00023333309
0.0087000011 0.001759638 -0.00023333309
0.0052657914 0.0027542168 -0.00023333309
0.0042736838 0.0022186744 -0.00023333309
0.0057999981 0.0013006027 -0.00023333309
0.0062578935 0.0017596384 -0.00023333309
0.013736839 0.00076506019 -0.0022904752
-0.0037394741 -0.0061969873 -0.011280952
-0.0067157894 -0.0061969878 -0.0077761887
-0.0032052633 -0.0061204825 -0.004728571
-0.0037394727 -0.0061969873 -0.0072428561
-0.0042736833 -0.0061969878 -0.0027476186
-0.0012210528 -0.0061969878 -0.00023333309
0.00076315785 -0.0061969878 -0.00023333309
0.0017552631 -0.005737951 -0.00023333309
0.0012210528 -0.005737951 -0.00023333309
0.00076315785 -0.0061969883 -0.00074761873
0.00023792566 -0.0061879866 -0.00075770263
0.00091578945 -0.0060439757 -0.0013761902
0.0017487216 -0.0061926162 -0.00076231267
0.0017552632 -0.0060439752 -0.0011476185
0.0011447368 -0.0060439757 -0.0013761902
-0.0042736838 -0.0013006026 -0.01562381
0.0047315801 0.0061969883 -0.0032047615
0.0047315801 0.0061969873 -0.0037380955
0.0042736833 0.0061969873 -0.0037380951
-0.0082421023 0.0061969878 -0.0057952371
-0.0086999992 0.0061969883 -0.0057952367
-0.003220526 0.0060592764 -0.011738094
-0.0037394734 0.0060822293 -0.011738094
-0.0012300308 0.0056299437 -0.014265826
0.00029628479 0.0060979803 -0.010205321
0.00076315791 0.0061204825 -0.0087666661
0.00027982457 0.0060949796 -0.0087666661
-0.0012279903 0.0057031768 -0.011758873
-0.00030526318 0.005646145 -0.012774285
-0.00076315779 0.005646145 -0.012774285
-0.0012451522 0.0056815795 -0.01278872
-0.0017552628 0.0057188249 -0.01278571
-0.00030526315 0.0060439757 -0.01128095
-0.0032052631 0.0060439757 -0.013566665
-0.0038157892 0.0060439752 -0.013680952
-0.0027473688 0.0060439757 -0.011738095
-0.0023657894 0.0060439757 -0.0093
-0.0042927628 0.0061778617 -0.010214284
-0.0047315797 0.0061969883 -0.010214286
-0.0042927624 0.0061778612 -0.010747621
-0.005265791 0.0061969878 -0.0057952381
-0.0042813155 0.0061434344 -0.0062523815
-0.0047315797 0.0061532706 -0.0062523801
-0.0086999992 0.0061969878 -0.0062523796
-0.0092342114 0.0061969873 -0.004728571
-0.0086999992 0.0061969878 -0.0042714276
-0.0086999992 0.0061969878 -0.004728571
-0.011294737 0.0061969883 -0.0057952376
-0.010226314 0.0061969883 -0.0062523796
-0.010226316 0.0061969878 -0.0067095221
-0.011752632 0.0061969878 -0.0077761882
-0.012210529 0.0061969873 -0.0052619041
-0.012744739 0.0061969869 -0.0052619032
-0.013126315 0.0052789152 -0.010747617
-0.014042108 0.00022951809 -0.0052619036
-0.014042107 0.00022951809 -0.0047285715
-0.0062578931 0.0061969873 -0.0087666661
-0.005799999 0.0061969878 -0.0093
-0.0062578926 0.0061969878 -0.0092999991
-0.0067157894 0.0061969873 -0.0087666661
-0.0062578944 0.0061969878 -0.0082333349
0.012210527 0.0017596385 -0.01554762
0.012191446 0.0022186746 -0.015547618
0.013736839 0.0013006027 -0.01425238
0.012210526 0.002754217 -0.015547618
0.014042106 0.0018208433 -0.0082942853
0.014042106 0.0018361445 -0.0087412698
0.014042106 0.00099457835 -0.0097571425
0.014103159 -0.0013312049 -0.010747619
0.014194738 -0.0027542161 -0.010214288
0.014118423 -0.0017596384 -0.0093
0.014118423 -0.0017596382 -0.0087666661
0.014042106 0.0013006023 -0.0086904764
0.014072634 0.0027542165 -0.0087514278
0.014063911 0.0022296042 -0.0087557817
0.014042107 -0.00022951809 -0.011738095
0.013736838 0.00076506013 -0.011738092
0.014118423 -0.0022186746 -0.013261903
0.014042106 0.00099457835 -0.012499999
0.014042108 0.002754217 -0.013261903
0.014042108 -0.00076506025 -0.013261903
0.014042108 -0.00076506025 -0.012804762
0.014042107 0.0017596385 -0.015223809
0.013736839 0.0013006025 -0.015242852
0.013278947 0.0013006025 -0.015242852
0.013736838 0.00076506013 -0.013261909
0.013138056 -0.004749258 -0.010226006
0.012210527 0.0061969878 -0.012271423
0.010760527 0.0057379515 -0.01524285
0.010760526 0.0061969873 -0.01371905
0.010760526 0.0061969873 -0.013261909
0.0092342114 0.0061969878 -0.01371905
0.013126315 0.0061969878 -0.014785713
0.0086999992 0.0061969883 -0.0097571434
0.010760526 0.0061969873 -0.011280952
0.011294737 0.0061969878 -0.013261907
0.010226316 0.0061969873 -0.012271425
0.011294737 0.0061969883 -0.01280476
0.0097684218 0.0061969878 -0.011738092
0.012210528 0.0061969878 -0.0097571444
0.013187367 0.0057073501 -0.010214284
0.012744736 0.0061969878 -0.010214288
0.01274474 0.0061969869 -0.010747621
0.0092342105 0.0061969878 -0.0097571416
0.0097684227 0.0061969878 -0.010214284
0.0082421042 0.0061969883 -0.011738092
0.014118422 -0.0017596381 -0.005261905
0.014118424 0.0032460412 -0.004728571
0.014118422 -0.0017596385 -0.0037380955
0.013126315 -0.004743373 -0.0037380951
0.0072500012 -0.0061969883 -0.01371905
0.0077842111 -0.0061969873 -0.014252381
0.0077842115 -0.0061969878 -0.01371905
0.0086999992 -0.0061969878 -0.010747621
0.0097684208 -0.0061969873 -0.010747621
0.0097684227 -0.0061969883 -0.0097571434
0.0086999992 -0.0061969883 -0.0097571444
0.011294735 -0.0061969878 -0.0087666661
0.0086999992 0.0061969878 -0.0022904761
0.006257894 0.00076506002 -0.00023333309
0.0012210525 -0.0042078309 -0.01554762
0.0086999992 -0.0061969878 -0.013261907
0.0082421033 -0.0061969878 -0.013261905
0.0077842111 -0.0061969887 -0.014785711
0.0082421033 -0.0061969878 -0.014785711
0.0082421042 -0.0061969883 -0.01371905
0.0072500012 -0.0061969873 -0.014785711
0.0077842106 -0.0042078327 -0.015242852
0.007784212 -0.004743373 -0.015242852
0.013126316 -0.0051259035 -0.012271428
0.01410316 -0.0013312048 -0.012804762
0.014042108 -0.00076506019 -0.012271427
0.0097684227 0.0013006025 -0.015623812
0.0092342114 0.0017596384 -0.015623812
0.01251579 0.003748795 -0.015547618
0.012210527 0.0042078313 -0.01554762
0.010226316 0.0042078313 -0.01554762
0.0097684236 -0.0057188259 -0.015223805
0.014194738 -0.0027542161 -0.014785711
0.014118423 -0.0017596384 -0.014785711
0.014118422 -0.0017596385 -0.01425238
0.014118422 -0.0022186746 -0.01425238
0.014118423 -0.0017596384 -0.013719048
0.01179079 -0.0031750002 -0.015547618
0.0097684199 -0.0013006025 -0.01554762
-0.0097684199 -0.0037487953 -0.01554762
-0.0092342114 -0.0042078313 -0.015547618
-0.0082421033 -0.00076506013 -0.015623812
-0.012649343 -0.0012814759 -0.015547618
-0.014194738 0.0032132529 -0.01371905
-0.013278948 0.0032897592 -0.015242852
-0.01373684 0.0027542161 -0.015242852
-0.01373684 0.0022186749 -0.015242852
-0.014174829 0.0022253275 -0.015216352
0.011752632 0.0042078313 -0.01554762
0.011294737 0.0037487953 -0.01554762
0.011752632 0.0037487953 -0.01554762
0.014042108 -0.00076506025 -0.013719048
0.0077842111 0.0013006026 -0.015623812
0.005265791 0.00076506013 -0.015623815
0.0067157894 0.00076506013 -0.015623812
0.0058000009 0.0017596384 -0.015623812
0.0067157894 0.0013006026 -0.01562381
0.0062578954 0.0013006025 -0.01562381
0.011294737 -0.00022951809 -0.01554762
0.011294737 -0.00076506025 -0.015547618
0.0092342114 -0.0017596385 -0.015547618
0.0082421042 -0.0022186746 -0.01554762
0.0086999992 0.00076506013 -0.015623813
0.00076315785 0.0047433735 -0.015547618
0.0017552631 0.0032897589 -0.015547618
0.0012327934 0.0027365615 -0.01555934
0.00075141707 0.0027365612 -0.01555934
0.0012210526 0.0032897589 -0.01554762
0.0023003758 0.0027214284 -0.015569387
-0.0017501755 0.0021880721 -0.015578095
-0.0037394722 0.0047433735 -0.015242854
-0.0042736833 0.004743373 -0.01524285
-0.0037394732 0.0027542168 -0.015547618
-0.0031899996 0.0022033732 -0.015562857
-0.0032052631 0.002754217 -0.015547618
-0.005799999 0.0052789152 -0.015242852
-0.005265791 0.0052789152 -0.01524285
-0.0047315797 0.0057379524 -0.015242852
-0.0072499998 0.0061969873 -0.01425238
-0.0027473683 0.0037487948 -0.01554762
-0.0027473688 0.0032897589 -0.01554762
-0.00030526318 0.0042078313 -0.01554762
-0.00076315785 0.0042078313 -0.01554762
-0.00076315791 0.004743373 -0.015547618
-0.0012210525 0.0042078313 -0.01554762
-0.00076315785 0.0037487953 -0.01554762
-0.00030526315 0.0032897592 -0.01554762
-0.0012210525 0.0032897592 -0.01554762
-0.0038921051 0.0060439752 -0.01425238
-0.0042875595 0.0061622132 -0.014799563
-0.0042736842 0.0060439757 -0.01425238
-0.0042736842 0.0061051813 -0.013719048
-0.0047405576 0.0061159823 -0.013719048
-0.0047315792 0.0061532715 -0.013240134
-0.005265791 0.0061778612 -0.01371905
0.0052568126 0.0057289507 -0.015233887
0.0062578949 0.0042078309 -0.01554762
0.0027473683 0.0017596384 -0.01562381
0.0032052631 0.0042078313 -0.01554762
0.0032137425 0.0027287148 -0.015598413
0.0042736847 0.0032897592 -0.01554762
0.0042736842 0.0037487948 -0.01554762
-0.00032052633 0.005600241 -0.013261905
