# .PCD v0.7 - Point Cloud Data file format
VERSION 0.7
FIELDS x y z
SIZE 4 4 4
TYPE F F F
COUNT 1 1 1
WIDTH 1162
HEIGHT 1
VIEWPOINT 0 0 0 1 0 0 0
POINTS 1162
DATA ascii
-0.0057411776 0.0022641518 -0.00083606574
-0.0052645546 0.0022701996 -0.00082881469
-0.0065882355 0.003773585 0.00076639326
-0.0065882355 0.003773585 0.0012377044
-0.0063778553 0.0038152053 0.00076916581
-0.0060235295 0.0046792454 -0.00038360665
-0.0072470554 0.0047641518 -0.0008360655
-0.0067727403 0.0047515426 -0.0008155331
-0.0077647115 0.0022641523 -0.0022499999
-0.0077647124 0.002735849 -0.0022500004
-0.0077647106 0.0027358495 -0.0027213106
-0.0077647069 0.002735849 -0.0032397532
-0.0077647115 0.0027358495 -0.0037581951
-0.0077647124 -0.0032547147 -0.0037581965
-0.0077647124 -0.0027358495 -0.0052663907
-0.0077647115 -0.0027358497 -0.0042295083
-0.0077018491 -0.0047249035 -0.0072415872
-0.0077106827 -0.0047204751 -0.0067745922
-0.0077479058 -0.0042452854 -0.0072358046
-0.007717649 -0.0042334907 -0.0076347357
-0.0077647069 -0.0032547142 -0.0012602462
-0.0077556618 -0.0032510881 -0.00083969114
-0.0077647096 0.0027358509 -0.0008360655
-0.0077647106 -0.00028301845 -0.0012602464
-0.0077647115 0.00023584906 -0.0008360655
-0.0077647078 -0.00028301886 -0.00083606574
-0.0077647078 0.00075471716 -0.00083606527
-0.0072470531 0.00023584906 -0.00083606574
-0.0072470577 0.00075471733 -0.00083606574
-0.0077647143 -0.00028301863 -0.0022500011
-0.0077647059 0.00023584883 -0.0022499994
-0.0077647115 -0.00075471587 -0.0022500006
-0.0067764674 -0.0017615769 -0.00080178841
-0.0072470577 -0.0012264156 -0.00083606597
-0.0077508683 -0.003773584 -0.0062561436
-0.0077508683 -0.0042452868 -0.0062561501
-0.0077647124 -0.0032547147 -0.0067745941
-0.0077647115 -0.0027358495 -0.0072459001
-0.0077647134 -0.002264153 -0.0076700822
-0.0077647115 -0.002264152 -0.0067745922
-0.0077647134 -0.0012264143 -0.0072459029
-0.0077479058 -0.003773584 -0.0072358046
-0.0077647115 -0.0017452821 -0.0022499987
-0.0077647106 -0.002264152 -0.0022499985
-0.0077647115 -0.0012264143 -0.0027213111
-0.0067764642 -0.0047641518 -0.0076700794
-0.0067764674 -0.0042452845 -0.0076700831
-0.0057411781 -0.0032547151 -0.0077172117
-0.0057411781 -0.0047641508 -0.0067745913
-0.005741179 -0.0047641504 -0.0062561454
-0.0052705947 -0.0047641504 -0.0062561464
-0.0062588262 -0.0047641508 -0.0062561426
-0.0077647096 -0.001745282 -0.0042295093
-0.0077647069 -0.0017452817 -0.0037581944
-0.0077647115 -0.002264152 -0.0042295111
-0.0057411776 -0.00075471733 -0.00083606597
-0.0052705882 -0.00075471733 -0.00083606597
-0.0047537517 0.0022657798 -0.00079380977
-0.0047510555 0.0012283031 -0.00081721297
0.0032470548 -0.0047641518 -0.0057377061
0.0032470543 -0.0047641513 -0.0062561426
0.0037647053 -0.0047641522 -0.0057377066
0.0037647025 -0.0047641508 -0.0062561464
-0.00075294141 -0.0047641508 -0.0062561464
-0.0012235292 -0.0047641508 -0.0062561445
-0.0062501035 -0.0027302594 -0.0076962644
-0.0062486669 -0.0032507072 -0.0076839402
-0.0067764646 -0.0032547161 -0.0076700803
-0.0077647087 -0.0017452821 -0.0067745922
-0.0077647078 -0.0017452816 -0.0072459048
-0.0077627352 0.00075392361 -0.0076688956
-0.0072470545 0.00075471686 -0.0076700831
-0.006767767 -0.00028143328 -0.0077077076
-0.0077475994 -0.00075471657 -0.0076572262
-0.0072470554 0.0047641518 -0.0067745922
-0.0072470563 0.0047641513 -0.0072459038
-0.0076865419 0.0047247787 -0.0072412314
-0.0076687024 0.004699999 -0.0075927908
-0.0072500925 0.004734227 -0.0076340986
-0.0076875384 0.0047320751 -0.0067745913
-0.0076875351 0.0047320765 -0.0062561482
-0.007717656 0.0042452845 -0.0072459048
-0.0076879272 0.004230387 -0.007640318
-0.0077176522 0.0037735847 -0.0076700831
-0.0072470568 0.004245284 -0.007670084
-0.0052705938 0.0047641518 -0.0067745894
-0.0052705952 0.0047641508 -0.0062561464
-0.0057411781 0.0047641508 -0.0067745931
-0.0076875398 0.004732077 -0.0052663935
-0.0077176555 0.0042452845 -0.0057377098
-0.0076875384 0.0047320751 -0.005737707
-0.0072470545 0.0047641518 -0.0037581963
-0.0072470512 0.0047641508 -0.0042295088
-0.0072470563 0.0047641518 -0.0052663921
-0.0076786545 0.0047250665 -0.00083875912
-0.0076872963 0.0047299149 -0.0022500006
-0.0052705919 0.0032547161 -0.00078893383
-0.005082353 0.0044339621 -0.00036475435
-0.00571283 0.004728348 -0.00032500527
-0.0077647115 0.0032547142 -0.0022499978
-0.0077647115 0.0032547163 -0.00083606574
-0.0077647096 0.0027358495 -0.0017786885
-0.00028235326 0.0047641513 -0.0017786897
0.00023529425 0.0047641508 -0.0022500008
-0.0002823532 0.0047641518 -0.0022499999
0.0012235298 0.0047641518 -0.00083606574
-0.0052705947 0.0047641513 -0.0057377075
-0.00028235308 0.0047641518 -0.0052663917
0.00023529428 0.0047641508 -0.0047479514
0.0002352942 0.0047641504 -0.0052663879
-0.0047529493 0.0047641508 -0.007245902
-0.0047529489 0.0047641508 -0.0067745866
-0.0042352923 0.0047641518 -0.0067745913
0.0062588179 0.0047641508 -0.0076700784
0.00573233 0.00376794 -0.0077043204
0.0052705929 0.0037735845 -0.0077172127
0.0047522997 0.0042420551 -0.0077120466
-0.0017411757 0.0047641508 -0.0072459066
-0.0017411744 0.0047641513 -0.0067745922
-0.006262261 0.0047330884 -0.0076505356
-0.0052655502 0.0047523594 -0.007659982
-0.0047546607 0.0047527901 -0.0076628532
0.001738661 0.0037721442 -0.0076898672
0.0017438479 0.0032498911 -0.0077129249
0.0012235292 0.004245284 -0.0076700822
0.0022523324 0.0037695183 -0.0077025853
0.00023321791 0.0047516651 -0.0076617608
0.00023529437 0.0047641508 -0.007245902
0.0062588188 0.0047641513 -0.0052663907
0.0037623134 0.0047601531 -0.007667684
0.007717656 0.0042452849 -0.0067745931
0.0072369757 0.0046057934 -0.003808693
0.0072409878 0.0046059019 -0.0042568743
0.0076919761 0.0045819017 -0.0042744963
0.0077176564 0.0042452868 -0.0047479509
0.0042369054 0.0042348024 -0.0077043222
0.0042318739 0.0047478564 -0.0076572243
0.002258823 0.0047469991 -0.0076572271
0.0017411752 0.0047641508 -0.0067745885
0.0027275486 0.0042434153 -0.0076724114
0.0047561307 -0.00075791433 -0.00079133059
0.0047428547 -0.00028049189 -0.00079903356
0.0022588233 -0.00028301886 -0.0007889343
-0.0027137259 -0.00075471716 -0.00080464478
-0.0027135494 -0.0002851389 -0.0008064101
-0.002258823 -0.00028301886 -0.0007889343
-0.0032672251 -0.00028301886 -0.00080913329
-0.0037647062 -0.00028301892 -0.0007889343
-0.0032621156 -0.00074905646 -0.00081721297
-0.0047524716 -0.00028955727 -0.0008155331
0.00023529404 0.004245284 -0.00083606574
-0.00028235285 0.0042452826 -0.00083606574
-0.0017399263 0.0032476198 -0.00082772342
-0.0012217864 0.0032433604 -0.00080464454
-0.0017411759 0.0037735857 -0.00083606597
-0.0017335574 0.0027367487 -0.00080913329
-0.004235296 -0.002264152 -0.00083606574
-0.0037647053 -0.002264152 -0.00083606574
-0.0037516595 -0.0017354742 -0.00081553287
-0.0037647069 -0.0027358504 -0.00083606597
-0.0032378305 -0.0022512046 -0.00081388606
-0.0042342953 -0.00075873145 -0.00079795928
-0.0042228228 -0.0012184596 -0.0008178947
-0.0037687114 -0.0012254126 -0.00079795951
-0.0037647062 -0.00075471686 -0.0007889343
-0.0032545573 -0.001752801 -0.00079508149
-0.0027212275 -0.0022610766 -0.00080122938
-0.0077176462 -0.0042452826 -0.00083606597
-0.0077176476 -0.0037735852 -0.00083606574
-0.0062991562 -0.0038409701 0.00024660397
-0.0057411785 -0.0032444617 -0.00079508149
-0.0067630224 -0.0032515719 -0.00080913329
-0.00028913608 0.001744007 -0.00080039841
-0.00074693357 0.0022671637 -0.00079795904
-0.00028817455 0.0022651257 -0.00079330732
-0.001741176 -0.00075471657 -0.00080178818
-0.0017433346 -0.0012246849 -0.00080320332
-0.0017411771 0.0007547164 -0.00078893406
-0.0012235302 0.0012264163 -0.0007889343
-0.0012235299 0.00075471686 -0.0007889343
-0.0012235299 0.00023584906 -0.0007889343
-0.0017408424 0.00023819077 -0.00079194247
0.0042352951 0.0012264152 -0.0077172145
0.0047529452 0.0027358492 -0.0077172127
0.0032470557 0.0027358495 -0.0077172145
0.003247055 0.0012264143 -0.0077172108
0.0032470555 0.0017452816 -0.0077172099
0.0076235305 0.0012264156 -0.0022500006
0.0076235309 0.0012264157 -0.0017786887
0.0057411785 0.00075471628 -0.0077172099
0.0067686234 -0.00028301874 -0.007709357
0.0062588169 -0.00075471582 -0.007717208
0.0067660082 -0.00075471646 -0.0077043232
0.0062588183 0.00023584883 -0.0077172052
0.0067670527 0.00023045819 -0.007703742
0.0057411785 -0.0002830188 -0.0077172108
0.0080000004 0.0013679245 -0.0073872954
0.0076456787 -0.00077136542 -0.0027213111
0.0080000004 0.0031469001 -0.007272834
0.0080000004 0.0030660375 -0.0067745904
0.0080000004 0.0027889151 -0.007298924
0.0080000004 0.0028773583 -0.0037581972
0.0080000004 0.0028773583 -0.0052663935
0.0067658583 0.0047528567 -0.0022499992
0.0077077411 0.0046524331 -0.0017724875
0.0047349595 0.00022856265 -0.00081307464
0.0052705896 0.00023584905 -0.00083606574
0.0052681137 -0.00028550153 -0.00083358493
0.0057411785 0.00023584907 -0.00083606574
0.0077077481 0.0046623643 -0.0012602464
0.0062588216 0.0047641513 -0.0017786897
0.006258822 0.0047641518 -0.0022499999
0.0080000004 0.002864494 -0.0022328617
0.0080000004 0.0028537735 -0.0018022542
0.0062588267 0.0047641522 -0.0032397565
0.0077176513 0.0037735847 -0.0032397558
0.0077176555 0.0037735852 -0.0027213106
0.0077176522 0.0042452868 -0.0032397551
0.0027294131 0.00023584907 -0.00078893406
0.0032470557 0.000235849 -0.0007889336
0.0027294129 -0.00028301886 -0.00078893406
0.0072306436 0.00075252337 -0.00081195217
0.0072373236 0.0012296692 -0.00081006205
0.0067764688 0.00075471686 -0.00078893476
0.0076754545 0.00076122337 -0.0008376909
0.0062630964 0.0002392796 -0.00083263777
0.0080000004 0.0022641507 -0.00083606574
0.0080000004 0.0012264152 -0.00078893453
0.0067764698 -0.0017452826 -0.0008360655
0.0067764735 -0.0022641518 -0.00083606597
0.0080000004 -0.00032345013 -0.00080913352
0.0076456787 -0.00077136542 -0.0022500015
0.0067825057 -0.00027697149 -0.00082881469
0.0067764735 -0.00075471727 -0.00083606574
0.0072470582 -0.00075223466 -0.00083358516
0.0072470587 -0.0012264155 -0.00083606574
0.0076705855 0.00022891232 -0.00083606597
0.0062588202 -0.00075471716 -0.00083606574
0.007247054 0.0037735847 -0.0076700831
0.0067764665 0.0037735847 -0.0076700849
0.0077176564 0.0042452849 -0.0057377047
0.0072470508 0.0032547158 -0.0076700803
0.0077176555 -0.0037735836 -0.0052663935
0.0080000004 -0.0027358488 -0.007245901
0.0080000004 -0.0022641507 -0.0032397546
0.0077176532 -0.0017452819 -0.0027213106
0.0077176476 -0.0017452823 -0.0032397553
0.0076818014 -0.0012354 -0.0032397551
0.0080000004 -0.0030660378 -0.0032397541
0.0080000004 -0.0030660378 -0.0027213115
0.007701044 -0.0046448405 -0.0032397553
0.0080000004 -0.003066038 -0.0037581972
0.0080000004 -0.0022641507 -0.003758197
0.0077176555 -0.0042452849 -0.0037581946
0.0077176555 -0.0037735854 -0.0037581935
0.0080000004 -0.0030660375 -0.0012602462
0.007717655 -0.0042452849 -0.0022500001
0.0072342199 -0.0046912539 -0.0012602459
0.0063229925 -0.0038181818 0.00024195202
0.0059294119 -0.003679245 -0.00036475435
0.0062480345 -0.0027437126 -0.00082428288
0.0076817996 -0.0012354008 -0.0027213106
0.0077176467 -0.0012264157 -0.00083606597
0.0080000004 -0.001745283 -0.0011502735
0.0077176522 -0.0017452814 -0.001778689
0.007717656 -0.0037735857 -0.0072459048
0.007717655 -0.0037735852 -0.0067745913
0.0062565343 -0.0042287973 -0.0076467423
0.0062588183 -0.0037735845 -0.0076700803
0.0057411785 -0.0047641513 -0.0076229507
0.0062588202 -0.0047641513 -0.0017786894
0.0057411785 -0.0047641518 -0.001778689
0.0057411781 -0.0047641518 -0.0022500008
0.0062588234 -0.0047641513 -0.0047479537
0.0057411781 -0.0047641513 -0.0042295088
0.0062588216 -0.0047641513 -0.004229506
0.0057411776 -0.0047641508 -0.0047479547
-0.0027181581 -0.0027317493 -0.00080122938
0.0072470601 -0.002264152 -0.00083606574
0.0062588183 -0.0022641527 -0.0008360655
0.0067764749 -0.0027358504 -0.00083606574
-0.0017411767 0.0032547149 -0.0076700794
-0.0017411752 0.0027358499 -0.0076700822
-0.0012204443 0.0022602866 -0.0077125728
-0.0017401605 0.002253972 -0.007702291
-0.0077647087 0.00075471558 -0.0062561482
-0.0077647124 0.0012264145 -0.005737707
-0.0077647134 0.0012264145 -0.0067745894
-0.0077647078 0.0012264135 -0.0062561445
-0.0077647115 0.00075471587 -0.0057377093
0.0012235307 0.0047641508 -0.0057377084
0.0057411781 0.0047641513 -0.0042295107
0.0052705957 0.0047641518 -0.0057377066
-0.0002823532 0.0047641513 -0.0027213111
0.00075294165 0.0047641504 -0.0067745922
-0.00028235285 0.003773585 -0.0076700831
0.00023529402 0.0042452845 -0.0076700794
0.00023529404 0.0037735847 -0.0076700812
0.00023980669 0.0027313263 -0.0077120457
-0.0027294117 0.004245284 -0.0076700859
-0.002258823 0.0047439365 -0.0076498827
-0.0022588233 0.0037735843 -0.0076700812
-0.0027294129 0.003773585 -0.0076700859
-0.0037662245 0.0022626312 -0.0077156927
-0.0032470559 0.0037735847 -0.007670084
0.0077010416 -0.0046448396 -0.0057377056
0.0077010407 -0.00464484 -0.0067745894
0.0062418464 -0.0047316742 -0.00080129621
0.0060235295 -0.0046698116 -0.00041188532
0.0052705957 -0.0047641518 -0.0057377075
0.0057411795 -0.0047641508 -0.0062561445
0.0052705938 -0.0047641518 -0.0062561473
0.0027294138 -0.0047641508 -0.005737707
0.0027294124 -0.0047641518 -0.0052663921
0.0022588244 -0.0047641513 -0.005737707
-0.0017381397 -0.0032592809 -0.00081173959
-0.0027294133 -0.0047641518 -0.0012602468
-0.0047514513 -0.0037825224 -0.00082614319
-0.0037708888 -0.0047596754 -0.0007596924
-0.0032470571 -0.0042452835 -0.0008360655
0.0032470536 -0.0047641513 -0.0047479509
0.0027294143 -0.0047641508 -0.0047479509
0.0022588226 -0.0047641518 -0.0052663917
0.0057411785 -0.0047641518 -0.0072459076
0.0057411785 -0.0047641513 -0.0027213106
0.0052705938 -0.0047641508 -0.0027213101
0.0047529493 -0.0047641508 -0.0047479542
0.0052705952 -0.0047641508 -0.0047479519
0.0047529484 -0.0047641518 -0.0052663903
0.0057411785 -0.0047641518 -0.0052663912
0.0052705933 -0.0047641518 -0.006774595
-0.0027294131 -0.0047641508 -0.0037581956
-0.0027294138 -0.0047641518 -0.0042295083
-0.0022588228 -0.0047641513 -0.0037581958
-0.0022588219 -0.0047641504 -0.0042295111
-0.00122353 -0.0047641518 -0.001778689
-0.00075294182 -0.0047641504 -0.0012602464
-0.00028235314 -0.0047641518 -0.0072459029
0.00023794531 -0.0047608293 -0.0076680845
-0.00075294182 -0.0047641513 -0.0072459048
0.00075373234 -0.0047621699 -0.0076688919
-0.0047529484 -0.0047641504 -0.007245902
-0.0052705915 -0.0047641527 -0.0076700794
-0.0062588202 -0.0047641504 -0.006774595
-0.0062588202 -0.0047641518 -0.0072459001
0.0042352933 -0.0047641513 -0.0052663903
-0.0072470559 -0.0027358504 -0.0076700822
-0.0072470563 -0.0032547158 -0.0076700794
0.0062588179 -0.0017452822 -0.00083606504
-0.0037647018 0.0047641508 -0.0012602466
-0.003247055 0.0047641513 -0.0012602455
-0.0032652738 0.0047611087 -0.00081173959
-0.002255755 0.0047692782 -0.00083196722
-0.0072470545 0.0047641504 -0.0012602457
-0.0072470536 0.0047641504 -0.0017786892
-0.005741179 0.0047641504 -0.0012602468
-0.0057399147 0.0047625685 -0.00074306806
-0.0047529493 0.0047641513 -0.00074180332
-0.0047529498 0.0047641508 -0.0012602464
-0.0047596674 0.0047574122 -0.00031762291
-0.0047529489 0.0047641504 -0.0017786897
-0.0052705947 0.0047641508 -0.0017786894
-0.0047529489 0.0047641508 -0.0022500013
-0.0042352909 0.0047641513 -0.0017786894
-0.0067764665 0.0047641504 -0.0047479514
-0.0072470522 0.0047641499 -0.0047479528
-0.0067764632 0.0047641513 -0.0052663907
-0.0047529512 0.0047641518 -0.0062561454
-0.0047529479 0.0047641518 -0.0057377107
-0.0042352942 0.0047641513 -0.0057377061
-0.0032470545 0.0047641513 -0.0062561454
-0.0032470545 0.0047641508 -0.0057377075
-0.0037647048 0.0047641518 -0.0057377066
-0.0077647115 0.0012264143 -0.0042295111
-0.0077647106 0.0012264136 -0.00474795
-0.0077647115 0.0012264143 -0.0052663907
-0.0077176564 0.0037735843 -0.0037581935
-0.0077647059 0.00075471558 -0.0047479514
-0.0077647096 0.0017452823 -0.0022499976
-0.0077647069 0.0017452821 -0.0027213101
-0.0077647096 0.00023584883 -0.0052663931
-0.0077647078 -0.00028301845 -0.0047479514
-0.0077647078 0.00023584871 -0.0032397551
-0.0077647078 0.00075471558 -0.0032397548
-0.0077647124 0.00023584883 -0.0037581979
-0.0077647115 0.0012264143 -0.0037581951
-0.0077647115 -0.0012264143 -0.0017786899
-0.0077647106 -0.00075471587 -0.0017786897
-0.005731883 0.0027451681 -0.00082210102
-0.0077647106 0.0022641523 -0.0017786894
-0.0077647078 0.002735849 -0.0012602459
-0.0077647096 0.0022641513 -0.0032397544
-0.0077647115 0.0022641523 -0.0037581967
-0.0077647087 0.0027358497 -0.0042295088
-0.0077479077 -0.0042452854 -0.0037581958
-0.0077647059 -0.0032547137 -0.0032397546
-0.0060235295 -0.0047641508 -0.00045901653
-0.0063008377 -0.0038359163 0.0012410716
-0.0077647134 0.002264153 -0.0076700822
-0.0067668948 0.001224017 -0.0077060293
-0.0067649698 0.0017406006 -0.0076898681
-0.0077647134 0.0017452815 -0.0076700803
-0.0072470536 0.0022641532 -0.0076700831
-0.0077647115 0.0032547147 -0.005737708
-0.0077647115 0.0032547137 -0.0062561492
-0.0077586803 -0.0027334306 -0.0076664528
-0.0072470591 0.0027358511 -0.00083606597
-0.0072470568 0.0012264159 -0.00083606574
-0.0057411785 0.00023584906 -0.0008360655
-0.0062634819 0.00023882375 -0.00083097001
-0.0077647087 -0.0032547135 -0.0062561473
-0.0077647096 -0.0032547142 -0.0057377075
-0.0077647115 -0.00028301863 -0.0057377056
-0.0077647115 -0.00075471587 -0.0052663893
-0.0077647115 -0.0027358495 -0.0067745904
-0.0077647096 -0.002264152 -0.0072459029
-0.0077647115 -0.002264152 -0.0057377056
-0.0077647078 -0.0022641516 -0.006256151
-0.0077647096 -0.0017452815 -0.0052663912
-0.0077647078 -0.0017452815 -0.0057377075
-0.0077647106 -0.0022641523 -0.0052663898
-0.0072470587 0.0042452826 -0.00083606597
-0.0077647087 -0.0017452823 -0.0027213106
-0.0067764642 -0.0047641508 -0.0072459076
-0.0062588174 -0.0047641508 -0.0076700803
-0.0057411785 -0.0047641518 -0.0072459066
-0.0077647096 -0.0017452821 -0.0047479519
-0.0077647087 -0.0022641516 -0.0047479528
-0.0057472116 -0.0012324633 -0.00082881469
-0.0042364439 0.0012275664 -0.00081997202
0.0062588183 -0.002264152 -0.0077172071
-0.0047529507 -0.0047641518 -0.0062561445
-0.0052705947 -0.0047641513 -0.0057377075
-0.0042352909 -0.0047641513 -0.0067745913
-0.0047529475 -0.0047641504 -0.0067745941
-0.002258823 -0.0047641513 -0.0072459076
-0.0017411748 -0.0047641513 -0.0072459057
-0.0022588226 -0.0047641513 -0.0067745922
-0.0017411748 -0.0047641508 -0.0067745876
-0.0017411741 -0.0047641513 -0.0062561426
-0.0012235303 -0.0047641518 -0.0072459057
-0.002258824 -0.0047641513 -0.0062561492
-0.0022588219 -0.0047641518 -0.005737707
-0.0027294136 -0.0047641513 -0.0057377075
-0.0017411752 -0.0047641513 -0.0057377089
-0.00075294194 -0.0047641513 -0.0047479505
-0.00075294165 -0.0047641513 -0.0067745922
-0.00028235308 -0.0047641508 -0.0067745922
-0.0077647106 0.00075471587 -0.0067745941
-0.00075294188 -0.00075471628 -0.0077172117
-0.00028235296 -0.00075471628 -0.0077172108
-0.00028235296 -0.0012264152 -0.0077172127
-0.00075294147 -0.0012264152 -0.0077172117
-0.0072470568 -0.0022641532 -0.0076700784
-0.0077544819 -0.0017452817 -0.0076639345
-0.0072470536 -0.00075471686 -0.0076700822
-0.0077176555 0.0037735854 -0.0072459038
-0.0077479049 0.0032479768 -0.0072391685
-0.0077647096 0.0032547142 -0.0067745913
-0.0077176555 0.0037735861 -0.0067745904
-0.0077353031 0.0032429232 -0.0076700812
-0.0077647124 0.0027358497 -0.0072459085
-0.0077647134 0.0027358499 -0.0076700822
-0.0072470536 0.0037735857 -0.0076700831
-0.0076875351 0.0047320765 -0.0047479495
-0.0072470531 0.0047641513 -0.0022500004
-0.0072470536 0.0047641508 -0.0027213106
-0.0077176555 0.0042452849 -0.0027213101
-0.007686283 0.0047209128 -0.0017786885
-0.004752941 0.0037735845 -0.00078893406
-0.0047427113 0.0044339616 -0.00032377057
-0.007764705 0.0032547147 -0.0017786892
0.0080000004 -0.0022641507 -0.0067745894
0.0076818024 -0.0012353999 -0.0062561454
0.0077176532 -0.0017452821 -0.0062561426
0.0076624095 -0.00076907309 -0.0067889336
-0.0027294136 0.0047641513 -0.0012602459
-0.003247055 0.0047641518 -0.0017786899
-0.00075294153 0.0047641518 -0.0022500001
-0.00075294223 0.0047641513 -0.0027213106
-0.00075294165 0.0047641518 -0.001778689
-0.00075294136 0.0047641513 -0.0008360655
0.00075294112 0.0047641518 -0.00083606574
0.0012235297 0.0042428002 -0.00083358493
0.0017411768 0.0047641522 -0.00083606527
0.0057392577 0.0047689648 -0.00074565061
0.0002352943 0.001745282 -0.0077172127
-0.0007529413 0.0017452816 -0.0077172127
-0.00028235308 0.0022641527 -0.0077172117
-0.00028235291 0.00075471628 -0.0077172117
0.0012235304 0.0017452819 -0.0077172155
-0.00028235308 0.0012264152 -0.0077172108
0.00023529412 0.0012264143 -0.0077172117
-0.00075294182 0.001226415 -0.0077172117
0.0042352946 0.0037735847 -0.0077172099
0.0057411785 0.0027358495 -0.0077172099
0.0057411785 0.0032547151 -0.0077172089
0.0062457626 0.0032507589 -0.0076868003
-0.0057411781 -0.0017452814 -0.0077172127
-0.0047529447 -0.0012264143 -0.0077172127
-0.0057411785 -0.0002830188 -0.0077172136
-0.0057411781 -0.002264153 -0.0077172127
0.0022588237 0.00075471628 -0.0077172099
0.0022588256 0.00023584897 -0.0077172136
0.0017411759 0.00075471587 -0.0077172108
0.0022588235 0.0012264153 -0.0077172117
-0.0017411748 0.0047641513 -0.0047479537
-0.00122353 0.0047641508 -0.0042295079
-0.0012235311 0.0047641508 -0.0047479528
-0.0017411751 0.0047641508 -0.0037581963
-0.00075294159 0.0047641518 -0.0042295097
-0.00028235308 0.0047641508 -0.0042295093
-0.00075294171 0.0047641518 -0.0047479514
-0.0042352923 0.0047641518 -0.0052663912
-0.0012235307 0.0047641508 -0.0062561464
-0.00075294171 0.0047641508 -0.0062561426
-0.0012235297 0.0047641518 -0.0057377042
-0.0052705933 0.0047641518 -0.0072459048
-0.0042352933 0.0047641518 -0.0072459057
-0.0037647036 0.0047641508 -0.0072459085
-0.0042318744 0.0047478573 -0.0076572243
0.0057411781 0.0047641513 -0.0076700794
0.0057411785 0.0047641518 -0.0072459048
0.0052653635 0.0042356756 -0.007687537
0.0062588206 0.0047641504 -0.0067745922
0.0067630182 0.0047506751 -0.0067745931
0.005739314 0.0042434162 -0.007672416
0.0062588183 0.004245284 -0.0076700822
-0.0017411764 0.0047452836 -0.0076418016
-0.0057430798 0.0047312756 -0.0076448508
-0.0057411785 0.004245284 -0.0076700822
-0.0037647053 0.0037735847 -0.0076700803
-0.0037647069 0.0032547158 -0.0076700812
0.00075294124 0.0027358502 -0.0077172089
0.00075294165 0.0022641527 -0.0077172089
0.00075516448 0.0032432019 -0.0076830722
0.00075294147 0.0037735843 -0.0076700812
-0.0042352965 0.004245284 -0.007670084
-0.0037647078 0.004753897 -0.0076639298
0.0017415643 0.0042437254 -0.0076720277
0.0012235296 0.0037735843 -0.0076700822
0.00075294112 0.004245284 -0.0076700831
-0.00075294159 0.0022641527 -0.0077172108
-0.00027983187 0.0027232151 -0.0076953312
-0.00075019989 0.0027303551 -0.0076769469
-0.00122353 0.0027358504 -0.0076700831
0.0072091939 0.004683367 -0.0072654048
0.0072371527 0.0045655393 -0.006729939
0.0076919775 0.0045819017 -0.0057527018
0.0067630196 0.0047506737 -0.0062561464
0.0057411785 0.0047641508 -0.0052663917
0.0042352928 0.0047641513 -0.0067745904
0.0047529484 0.0047641499 -0.0067745894
0.0052705947 0.0047641508 -0.0067745922
0.0047529498 0.0047641513 -0.006256137
0.0052705938 0.0047641518 -0.0072459048
0.0052705952 0.0047641508 -0.0062561454
0.0047565643 0.004759864 -0.0076697497
0.0080000004 0.0042452831 -0.0073401639
0.0080000004 0.0030660378 -0.0062561473
0.007717656 0.0042452849 -0.0042295107
0.0067630196 0.0047506751 -0.00474795
0.0022588244 0.0047641518 -0.005737707
-0.0027294126 0.001226415 -0.0077172108
-0.0032470548 0.0017452821 -0.0077172136
-0.0027294138 0.001745282 -0.0077172108
-0.0022588263 0.0017452816 -0.0077172127
0.0057351445 -0.0022701994 -0.00082881446
0.0052667498 -0.0022670412 -0.00079182
0.0017411767 -0.0007547164 -0.0007889343
0.0012335423 -0.00074969896 -0.00079795951
0.00075294112 -0.00028053625 -0.00083358539
0.00075294124 -0.00075471733 -0.00083606597
0.00075294153 0.00075471686 -0.0007889343
0.00075294153 0.0012264162 -0.00078893406
0.00024552419 0.0012264156 -0.00079508149
-0.0022588228 -0.00075471686 -0.0007889343
-0.0012705883 -0.0038207539 0.0022745887
-0.0012705886 -0.0038207551 0.00076639326
-0.0042312397 0.00022852959 -0.00079380977
0.00075294107 0.0042452831 -0.0008360655
-0.00075294118 0.0042452831 -0.00083606574
-0.00028002897 0.0037642666 -0.00082210056
-0.00075171888 0.0037686841 -0.00083116884
0.00023795773 0.0037735854 -0.00080760848
-0.00029318064 0.0032568034 -0.00079769315
0.00075541809 0.0037711023 -0.00083358539
-0.0012235296 0.0037735843 -0.00083606597
-0.00075044238 0.0032476198 -0.00079769315
-0.0042629759 0.0044339625 -0.00033703004
-0.0037647057 0.003773585 -0.00078893406
-0.0037687274 0.0032599573 -0.00079255993
-0.004235296 0.0032547161 -0.00078893406
-0.0042294138 0.0017579171 -0.00079903379
-0.0037647081 0.0017452819 -0.0007889343
-0.00075294171 0.001732822 -0.00080760894
-0.0012235297 0.0022641532 -0.0007889343
-0.0077647106 -0.002735849 -0.0032397541
-0.0077647069 -0.0022641513 -0.0032397548
-0.0077647115 -0.0027358497 -0.0027213106
0.00024117639 -0.00076159573 -0.00082428264
-0.00029136409 -0.00075270981 -0.00079795951
0.0002244343 -0.0012273231 -0.00081068696
-0.004235296 -0.0027358504 -0.00083606597
-0.0042352965 -0.0032547177 -0.00083606574
-0.0037647046 -0.0032547177 -0.0008360655
-0.0032470571 -0.0027358506 -0.0008360655
-0.005270591 -0.0012264156 -0.00083606574
-0.0042352965 -0.0017452824 -0.00083606597
-0.0047439276 -0.00074969896 -0.00082804332
-0.0032651569 -0.0012282302 -0.0008106872
-0.0027137259 -0.0012264162 -0.00080464478
-0.0052705933 -0.0047641518 -0.00074180285
-0.0047529484 -0.0047641508 -0.00074180309
-0.0052392161 -0.0044339625 -0.00031762314
-0.0072470587 -0.0042452831 -0.00083606574
-0.0076884828 -0.0047196383 -0.00084137637
-0.0072470577 -0.0047641518 -0.0008360655
-0.00527232 -0.0032594767 -0.00080320332
-0.005271724 -0.0037883602 -0.0008178947
-0.0072470587 -0.0022641518 -0.00083606597
-0.0077647106 0.00075471587 -0.0022500008
-0.0077647096 0.0012264159 -0.00083606574
-0.0032504175 0.001227258 -0.00079903379
-0.0022607248 0.0027339449 -0.00079036271
-0.0017407674 0.0022584109 -0.00079508149
-0.002258823 0.00023386712 -0.0007901222
0.00024552422 0.00075471646 -0.00079508172
0.0057411785 0.0022641527 -0.0077172108
0.0037647076 0.0022641527 -0.0077172108
0.0032470552 0.002264152 -0.0077172108
0.0032470557 0.00075471582 -0.0077172127
0.0037647067 -0.0002830188 -0.0077172136
0.0077012866 0.0022764585 -0.0027213106
0.0076644574 0.0017555365 -0.0027213106
0.0062588183 0.00075471587 -0.0077172071
0.0062588197 0.0017452817 -0.0077172052
0.0072470559 0.002264153 -0.0076700831
0.0075893016 0.00077186991 -0.0062561482
0.0075915935 0.00076819432 -0.0067779589
0.0080000004 -0.00031446543 -0.0075443992
0.0076309606 -0.00029294938 -0.0067894738
0.0057411781 -0.00075471628 -0.0077172117
0.0052705933 -0.00075471628 -0.0077172127
0.0052705929 -0.0002830188 -0.0077172108
0.0076817991 -0.0012354007 -0.0042295111
0.0076817996 -0.0012354007 -0.0037581953
0.0077176546 -0.0017452819 -0.0042295069
0.0077176546 -0.0017452819 -0.0037581946
0.0080000004 0.0017075471 -0.0073778694
0.0080000004 0.00075471692 -0.0076229507
0.0080000004 0.0030660378 -0.0057377047
0.007701288 0.0022764576 -0.0062561464
0.0080000004 -0.0012500001 -0.0076150959
0.0076644593 0.0017555361 -0.0047479486
0.0076644584 0.0017555364 -0.0052663931
0.0077012861 0.0022764581 -0.0052663931
0.0076168054 -0.00029649603 -0.003758196
0.0076456773 -0.00077136524 -0.0037581958
0.0076456773 -0.00077136536 -0.0052663963
0.0080000004 -0.0022641507 -0.005266394
0.0076456806 -0.0007713649 -0.0047479481
0.0076168096 -0.00029649603 -0.0047479477
0.0075764698 0.00023584906 -0.0062561492
0.0075764675 0.00023584905 -0.0057377052
0.0080000004 0.0030660378 -0.0012602459
0.0077012861 0.0022764588 -0.0017786894
0.0072470554 0.0032547179 -0.00083606574
0.0072470587 0.0027358504 -0.00083606597
0.0072363629 0.0046623084 -0.0022564279
0.0072375396 0.0046724626 -0.0017649201
0.006352941 0.0038207546 0.0012377049
0.0067764674 0.0022641532 -0.00078893453
0.006776466 0.0017452816 -0.00078893406
0.0042352965 0.00023584907 -0.0007889343
0.006776467 0.0012264162 -0.0007889343
0.0077176522 0.0037735843 -0.0012602466
0.0077176555 0.0037735836 -0.002249999
0.007717656 0.0042452849 -0.0027213106
0.0077062356 0.0012292744 -0.00083749392
0.0076644584 0.0017555365 -0.0022500001
0.0067630177 0.0047506751 -0.0057377038
0.0077176513 0.0042452868 -0.0062561445
0.0077176555 0.0037735843 -0.0057377084
0.0067764656 0.0032547158 -0.0076700831
0.007645682 -0.0007713649 -0.0032397532
0.0080000004 -0.0030660378 -0.0022500001
0.0080000004 -0.0030660378 -0.0042295079
0.0080000004 -0.002735849 -0.0042295083
0.0065882355 -0.003773585 0.00024795067
0.0077176504 -0.0032547177 -0.0008360655
0.0072470545 -0.0032547177 -0.0008360655
0.0077124899 -0.00075988658 -0.00083606597
0.0062588183 -0.0012264161 -0.0008360655
0.0076235305 0.0012264157 -0.0027213115
0.0080000004 -0.0022641504 -0.0022500001
0.0080000004 -0.0022641509 -0.0042295074
0.005270591 -0.0042353538 -0.0076626418
0.0047509633 -0.0042436989 -0.0076688919
0.0062588248 -0.0047641508 -0.0032397551
0.0062588197 -0.0047641508 -0.0022500011
0.001741176 -0.0012264154 -0.00078893406
0.0032470555 -0.0047641508 -0.0042295065
0.0037647057 -0.0047641518 -0.0037581958
0.0032470545 -0.0047641508 -0.0037581972
0.0027294124 -0.0047641513 -0.0042295093
-0.0032470548 0.0032547151 -0.0076700794
-0.002257172 0.0022517401 -0.0076990211
-0.0062588206 0.00023584883 -0.0077172099
-0.0062588174 -0.00028301863 -0.0077172089
-0.0057411785 0.00023584897 -0.0077172061
0.00024552425 0.0017452814 -0.00079508102
0.00075294124 0.0017420293 -0.00079380977
0.0007529413 0.0047641508 -0.0027213111
0.0012235307 0.0047641508 -0.0017786887
0.0017411747 0.0047641513 -0.0017786892
0.006258822 0.0047641518 -0.0037581963
0.0047529498 0.0047641508 -0.0057377047
0.0052705952 0.0047641513 -0.0042295102
0.0052705952 0.0047641518 -0.0012602466
0.0057411776 0.0047641504 -0.0012602466
0.00023529428 0.0047641504 -0.004229506
0.00075294153 0.0047641518 -0.0042295079
-0.00028235291 0.0032547161 -0.0076700784
-0.0012235297 0.003773585 -0.0076700822
-0.0017411757 0.0037735852 -0.0076700775
-0.0047529405 0.0042452845 -0.0076700831
-0.0047619552 0.0027298275 -0.0077051762
-0.0047529414 0.003773585 -0.0076700803
-0.0052705924 0.0032547163 -0.0076700831
-0.0052664266 0.0027241623 -0.007697192
-0.0052705915 0.003773585 -0.0076700822
0.0077010454 -0.0046448405 -0.0047479481
0.0067663793 -0.0047473046 -0.0052663903
0.0077010393 -0.00464484 -0.0042295107
0.0072342213 -0.0046912534 -0.0042295116
0.0072342209 -0.0046912539 -0.0047479505
0.007717656 -0.0042452849 -0.0042295116
0.0067663789 -0.0047473046 -0.0047479533
0.0077010407 -0.0046448396 -0.0037581949
0.0072342218 -0.0046912534 -0.0052663945
0.0077176555 -0.0042452845 -0.005737707
0.0077010407 -0.00464484 -0.0072459038
0.0077176541 -0.0042452868 -0.0062561454
0.0077176555 -0.0042452849 -0.0067745913
0.0067663803 -0.0047473051 -0.0067745913
0.0067663798 -0.0047473046 -0.0062561417
0.0067663798 -0.0047473051 -0.0057377084
0.0072342185 -0.004691253 -0.0062561464
0.0062588206 -0.0047641508 -0.0057377093
0.0062588267 -0.0047641508 -0.0062561482
0.0052705938 -0.0047641508 -0.005266394
0.0057411785 -0.0047641504 -0.005737708
0.0052705933 -0.0047641518 -0.0022500018
0.0047529493 -0.0047641504 -0.0027213106
0.0052705938 -0.0047641513 -0.0017786887
0.0080000004 -0.0027358497 -0.0057377052
0.0080000004 -0.0027358485 -0.0062561464
0.0080000004 -0.002735849 -0.0052663935
0.0076818014 -0.0012354 -0.0047479505
-0.0032470573 -0.0037735859 -0.0008360655
-0.00075294136 -0.0047641518 -0.0008360655
-0.00075070048 -0.00422956 -0.00081586628
-0.00028235285 -0.0047641508 -0.00083606574
0.0022557869 -0.0047717593 -0.0008299842
0.001741176 -0.0047641522 -0.00083606504
0.0012235309 -0.0047641508 -0.0012602462
0.0017411738 -0.0047641508 -0.0012602459
0.0012235296 -0.0047641518 -0.00083606574
0.00075294159 -0.0047641508 -0.0012602468
0.00075294194 -0.0047641513 -0.0052663898
0.00075294165 -0.0047641513 -0.0057377075
0.00023529428 -0.0047641518 -0.005266387
0.003247055 -0.0047641508 -0.0052663907
0.0037647013 -0.0047641508 -0.0047479528
0.0037647036 -0.0047641513 -0.0042295107
0.0047529507 -0.0047641513 -0.0032397532
0.0037647041 -0.0047641518 -0.0052663917
0.0057411781 -0.0047641508 -0.0067745904
0.0062588202 -0.0047641513 -0.0052663903
0.0042352891 -0.0047641508 -0.0047479514
0.0042352909 -0.0047641518 -0.0057377066
0.0037647029 -0.0047641513 -0.0067745922
-0.0027294138 -0.0047641508 -0.0032397548
-0.0017411755 -0.0047641508 -0.0037581949
-0.001741174 -0.0047641518 -0.0032397558
-0.00075294217 -0.0047641504 -0.0017786892
-0.00028235302 -0.0047641513 -0.0017786899
0.0027294138 -0.0047641508 -0.0032397537
0.0022588244 -0.0047641499 -0.0032397548
0.0022588235 -0.0047641513 -0.0037581939
-0.0032470555 -0.0047641508 -0.0057377066
-0.0032470557 -0.0047641513 -0.0052663907
0.0047529498 -0.0047641513 -0.0012602468
0.0052705952 -0.0047641508 -0.0012602462
-0.0042352909 0.0047641508 -0.0012602457
-0.003774924 0.0047593983 -0.00077249319
-0.0052705915 0.003773585 -0.00078893406
-0.0067764618 0.0047641508 -0.0012602466
-0.0052705952 0.0047641504 -0.0012602468
-0.0062402594 0.0047495356 -0.00078561483
-0.0052705947 0.0047641508 -0.0022500004
-0.0052705961 0.0047641513 -0.0032397558
-0.0052705933 0.0047641513 -0.0037581956
-0.0047529489 0.0047641513 -0.0037581983
-0.0057411781 0.0047641513 -0.0037581958
-0.002258824 0.0047641513 -0.0022499997
-0.0027294138 0.0047641518 -0.0022499999
-0.0022588244 0.0047641518 -0.0027213106
-0.0017411745 0.0047641508 -0.0012602457
-0.0017411757 0.0047641513 -0.0008360655
-0.0012235299 0.0047641513 -0.00083606574
-0.0017411748 0.0047641513 -0.0022499994
-0.0072470554 0.0047641518 -0.0057377093
-0.0067764642 0.0047641504 -0.0057377075
-0.0042352909 0.0047641508 -0.0062561454
-0.0037647036 0.0047641518 -0.0062561473
-0.003247055 0.0047641508 -0.0067745866
-0.0027294133 0.0047641518 -0.0067745922
-0.0027294138 0.0047641518 -0.0072459029
-0.0027294145 0.0047641508 -0.0062561492
-0.0077647106 0.002264152 -0.0052663907
-0.0077647059 0.0022641513 -0.0047479528
-0.0077176564 0.0037735847 -0.0047479505
-0.0057411781 0.0012264152 -0.0077172127
-0.0062588169 0.0012264143 -0.0077172099
-0.0077647115 -0.00028301863 -0.0042295107
-0.0077647096 -0.00075471587 -0.0042295088
-0.0077647134 -0.0012264143 -0.0022499987
-0.0077647069 -0.00075471558 -0.0012602459
-0.0065882355 0.003773585 0.00024795067
-0.0072470531 0.0032547177 -0.00083606574
-0.0062588197 0.0022641527 -0.00083606574
-0.0057370863 0.001747334 -0.00083196745
-0.0062588188 0.0027358509 -0.0008360655
-0.0063731098 0.003814016 0.0012377044
-0.0077647078 0.0017452821 -0.001778689
-0.0077647087 0.0022641516 -0.0012602459
-0.0077647106 0.0017452822 -0.0012602464
-0.0077647096 0.0032547142 -0.0042295074
-0.0077647059 0.0017452827 -0.0047479547
-0.007764705 0.0017452821 -0.0042295074
-0.0077033555 -0.0047241463 -0.0062561445
-0.0077018491 -0.004724903 -0.0057362658
-0.0072470536 -0.0047641518 -0.0067745959
-0.0072470563 -0.0047641518 -0.0052663912
-0.0072470563 -0.0047641504 -0.0047479505
-0.0076956525 -0.004728009 -0.0047455011
-0.0076972279 -0.0047272206 -0.0052620089
-0.0077647078 -0.0032547142 -0.0042295088
-0.0067764698 -0.0047641518 -0.00083606574
-0.0077647106 0.00023584883 -0.0072459048
-0.0077647087 0.00075471587 -0.0072459029
-0.0072470522 0.0017452822 -0.0076700794
-0.0067764688 0.0022641532 -0.0076700822
-0.0072470545 -0.003773585 -0.0076700822
-0.0077461093 -0.0032514245 -0.0076536397
-0.0077647115 -0.00028301863 -0.0017786897
-0.0077647115 0.00075471587 -0.0017786897
-0.0067764712 0.00076026662 -0.00081388629
-0.0062588188 0.0007547171 -0.00083606574
-0.0062588197 -0.00028301892 -0.0008360655
-0.0067777117 -0.00028053625 -0.00083358539
-0.007247061 -0.00028301886 -0.00083606574
-0.0067662653 -0.0012241427 -0.0008178947
-0.0063731098 0.003814016 0.0022745901
-0.0065882355 0.003773585 0.0022745901
-0.0052582631 0.0012331546 -0.00081586698
-0.0065882355 0.003773585 0.0017561475
-0.0042342953 0.0022541168 -0.00079795974
-0.0057411785 0.00075471739 -0.00083606574
-0.0077647078 0.00023584883 -0.0057377075
-0.0077647115 -0.0027358495 -0.0057377042
-0.0077647031 -0.002735849 -0.0062561445
-0.007764705 -0.0017452823 -0.0032397537
-0.0072470563 -0.0047641508 -0.0072459038
-0.0067764632 -0.0047641518 -0.0067745885
-0.0057411781 -0.0047641518 -0.0076700822
-0.0052705919 -0.004245284 -0.0076700822
-0.0057411776 -0.004245284 -0.0076700794
-0.0052705947 -0.0047641513 -0.0072459029
-0.0077647078 -0.002735849 -0.0047479495
-0.004746967 0.001738543 -0.00080913259
-0.0077647087 0.0032547147 -0.0027213111
0.0022588263 -0.0047641518 -0.0062561436
0.0042352933 0.00023584897 -0.0077172099
0.0042352951 -0.0002830188 -0.0077172136
0.0037647057 0.00023584897 -0.0077172089
0.0067668939 -0.0012240169 -0.0077060293
0.0077176527 -0.0022641532 -0.0076700812
0.0072470545 -0.00075471686 -0.0076700812
0.00770981 -0.0012283815 -0.0076681189
-0.0047529484 -0.0047641504 -0.0057377107
-0.0047529493 -0.0047641508 -0.0052663912
-0.0042352919 -0.0047641513 -0.0072459076
-0.0037647048 -0.0047641513 -0.0067745913
-0.0037647022 -0.0047641513 -0.0062561492
-0.003247055 -0.0047641508 -0.0067745922
-0.00075294159 -0.0047469991 -0.0076572271
-0.0012217542 -0.0047445721 -0.0076514054
-0.0017411757 -0.004245284 -0.0076700784
-0.0012235296 -0.0042452835 -0.0076700812
-0.00028070167 -0.0047525666 -0.00766264
-0.0027294138 -0.0047641518 -0.0067745931
-0.003247055 -0.0047641513 -0.007245901
-0.0012235299 -0.0047641513 -0.0067745922
-0.0012235302 -0.0047641513 -0.0057377112
-0.0002823532 -0.0047641513 -0.0052663935
0.0027294145 -0.0047641508 -0.0062561436
-0.0047529447 -0.0022641523 -0.0077172099
-0.0052705938 -0.0027358502 -0.0077172127
-0.0052705938 -0.0022641527 -0.0077172099
-0.0052705938 -0.0032547149 -0.0077172127
-0.0052705929 -0.0017452816 -0.0077172108
-0.0047529484 -0.001745282 -0.0077172099
-0.0077647087 0.00023584868 -0.0062561464
-0.0077647069 -0.00028301845 -0.0062561426
-0.0067668934 0.00075391692 -0.0077060284
-0.0037647064 0.001226415 -0.0077172127
-0.0032470548 0.00075471587 -0.0077172117
-0.0032470559 -0.00028301863 -0.0077172127
-0.004235296 0.00023584897 -0.0077172117
-0.0012235296 -0.00075471628 -0.0077172117
-0.00028235302 -0.0022641527 -0.0077172155
-0.0012235302 -0.0002830188 -0.0077172117
-0.0017411751 -0.00075471587 -0.0077172117
-0.0017411759 -0.00028301863 -0.007717208
-0.0017411753 0.00023584883 -0.0077172099
-0.0012235306 0.00023584897 -0.0077172108
-0.00075294176 -0.0022641525 -0.0077172108
-0.00075064576 -0.0027327819 -0.007714144
-0.0012235299 -0.0022641527 -0.0077172108
-0.0012258443 -0.0027312101 -0.0077125737
-0.0017496214 -0.0032516913 -0.0076882066
-0.0012235297 -0.003773585 -0.0076700831
-0.0012265656 -0.0032516725 -0.0076776799
-0.00075294147 -0.0037735847 -0.0076700812
-0.0057411785 -0.00075471628 -0.0077172117
-0.0047529456 -0.00028301863 -0.0077172099
-0.0042352956 -0.0002830188 -0.0077172099
-0.0042352956 -0.00075471628 -0.0077172117
-0.0047529452 -0.00075471582 -0.007717208
-0.0077647096 -0.00075471558 -0.0062561445
-0.0077647115 -0.00075471587 -0.0067745922
-0.0077490271 -0.0012281154 -0.0076586176
-0.0072470568 -0.0012264163 -0.0076700812
-0.0067650066 -0.00075799786 -0.0077008205
-0.0067639737 -0.0012239111 -0.0076971902
-0.0062588179 -0.0012264143 -0.0077172108
-0.0077176555 0.0042452849 -0.0067745931
-0.0077176522 0.0037735847 -0.0062561454
-0.006773754 0.0047360319 -0.0076528611
-0.0067764674 0.004245284 -0.0076700822
-0.0062588206 0.0017452817 -0.0077172071
-0.0057411785 0.0047641513 -0.001778689
-0.0076875351 0.0047320761 -0.0032397544
-0.0072470559 0.0047641504 -0.0032397544
-0.0067764642 0.0047641508 -0.0032397532
-0.0062588206 0.0047641513 -0.0027213106
-0.0062588267 0.0047641513 -0.0032397555
-0.0057411785 0.0047641513 -0.0027213106
-0.007717656 0.0042452854 -0.0022500013
-0.0076867095 0.0047247354 -0.0012628289
-0.0077176522 0.0042452863 -0.0012602466
-0.0077176532 0.0037735847 -0.0012602459
-0.0077647059 0.0032547142 -0.0012602457
0.0080000004 -0.0017667238 -0.0069202678
-0.00075294153 0.0047641504 -0.0012602462
0.0052705943 0.0047641504 -0.00074180285
0.0052705896 0.0037735847 -0.0007889343
0.0057411781 0.0032547158 -0.00078893406
0.0062588248 0.0047641513 -0.0012602455
0.0012235299 0.00075471628 -0.0077172108
0.0017411751 0.00023584883 -0.0077172108
0.0017411759 -0.00028301863 -0.0077172089
0.002258823 -0.0002830188 -0.0077172089
0.00075294165 0.001226415 -0.0077172127
-0.0002823532 0.0017452816 -0.0077172117
0.0022588242 0.002264153 -0.0077172127
0.0027294138 0.0027358497 -0.0077172127
0.0027294143 0.0032547151 -0.007717208
0.003247055 0.0032547147 -0.007717208
0.0047529456 0.0037735843 -0.0077172117
0.0042352965 0.0027358499 -0.0077172108
0.0037647055 0.0027358502 -0.0077172089
0.0052705943 0.0032547151 -0.0077172071
0.0017411757 0.0012264143 -0.0077172117
0.0037647048 0.0017452819 -0.0077172071
-0.002258826 0.0047641513 -0.0017786892
-0.0017411752 0.0047641504 -0.0017786901
-0.0022588235 0.0047641508 -0.0047479533
-0.0022588237 0.0047641513 -0.0042295088
-0.00122353 0.0047641513 -0.0052663917
-0.0017411748 0.0047641518 -0.0057377066
-0.0037647048 0.0047641508 -0.0052663912
-0.0032470545 0.0047641508 -0.0052663907
-0.0027294143 0.0047641518 -0.0052663912
-0.0032470543 0.0047641518 -0.0047479528
-0.0057411781 0.0047641508 -0.0052663926
-0.0062588202 0.0047641513 -0.0052663907
-0.0057411785 0.0047641518 -0.0047479514
-0.0062588225 0.0047641513 -0.0047479528
-0.0062588197 0.0047641504 -0.0042295069
-0.0017411757 0.0047641508 -0.0042295074
-0.0017411737 0.0047641508 -0.0032397525
-0.0017411739 0.0047641508 -0.0062561547
-0.0012235298 0.0047641508 -0.0067745913
0.0002352942 0.0047641504 -0.0057377061
-0.0007529413 0.0047641518 -0.0057377056
0.0062588202 0.0047641504 -0.0072459085
0.0057411785 0.0047641508 -0.0067745922
0.0062588174 0.0037735838 -0.007670084
-0.0022588233 0.0047641513 -0.0072459057
-0.0037647053 0.004245284 -0.0076700849
-0.0042352965 0.0037735843 -0.0076700812
0.00023529421 0.0022641523 -0.007717208
0.0017411762 0.0027358495 -0.0077172099
0.0012235298 0.0022641527 -0.0077172117
0.0012235304 0.0027358499 -0.0077172089
-0.0047529456 0.0022641523 -0.0077172127
-0.0052705924 0.0022641527 -0.0077172089
-0.0052705943 0.0017452819 -0.0077172071
-0.0047529489 0.001745282 -0.007717208
0.0037647062 0.0037735854 -0.0077172071
0.002258823 0.004245284 -0.0076700822
0.0012269908 0.0032401481 -0.0076978058
-0.0017411753 0.0042452854 -0.0076700794
0.0072303615 0.0046013384 -0.0062272605
0.0037647029 0.0047641518 -0.0072459038
0.003247055 0.0047641508 -0.0067745894
0.0037647048 0.0047641513 -0.0067745931
0.00423529 0.0047641513 -0.0062561436
0.0032470548 0.0047641504 -0.0072459048
0.007717656 0.0037735852 -0.0042295121
0.0077176541 0.0037735836 -0.0047479519
0.0022588249 0.0047641513 -0.0062561464
0.0042352946 0.0017452813 -0.0077172099
-0.0017411748 0.0017452817 -0.0077172099
0.0057382975 -0.002739701 -0.00079181977
0.002258823 -0.00075471686 -0.00078893453
-0.0027183909 -0.0017508061 -0.00080039841
-0.0022588233 -0.0027358502 -0.0007889343
-0.0017587637 -0.0027348977 -0.00081892684
-0.0042251763 -0.00027591805 -0.00079957675
0.00075077772 0.0027336818 -0.00081006205
0.00023137247 0.0032531435 -0.00081721297
-0.00028975535 0.0027294906 -0.0008064101
-0.00075294147 0.0027358504 -0.00078893406
-0.0027294115 0.0047615594 -0.00083399354
-0.0032624232 0.004245284 -0.00082067563
-0.0047529447 0.0032547156 -0.00078893383
-0.0027294131 0.0047641518 -0.0017786887
-0.0027294131 0.00023584897 -0.007717208
-0.0032470545 0.00023584883 -0.007717208
-0.003768225 -0.0042373491 -0.0076855002
-0.0032470564 -0.0042452845 -0.0076700794
-0.0042352942 -0.0032547151 -0.0077172071
-0.0037659938 -0.0032495458 -0.0077120466
-0.0032470557 -0.0027358495 -0.0077172136
-0.0037687987 -0.0037735845 -0.0077008177
-0.0042352942 -0.0012264152 -0.0077172099
-0.0037647085 -0.001226415 -0.0077172089
-0.0042352951 -0.0017452816 -0.0077172108
-0.0037647062 -0.00075471628 -0.0077172127
-0.0037647048 -0.0017452819 -0.0077172071
-0.0077647134 -0.0027358492 -0.0022499992
-0.0077647106 -0.0032547142 -0.0022499978
-0.0077647096 -0.0032547142 -0.0027213101
0.00022375133 -0.00027856888 -0.00080760848
-0.0042389152 -0.0037808414 -0.00082881469
-0.0032470571 -0.0032547165 -0.0008360655
-0.0047529396 -0.0017452823 -0.0008360655
-0.0057476372 -0.0017388084 -0.00081388629
-0.0047529391 -0.0012264161 -0.0008360655
-0.0057366663 -0.0047667357 -0.0007469682
-0.0047572167 -0.0032564318 -0.00083263777
-0.0052694548 -0.0027244843 -0.0008178947
-0.0077647115 0.00075471587 -0.0027213101
-0.0077647115 0.0012264142 -0.0022499978
-0.0077647106 0.0012264136 -0.0012602462
-0.0077647069 0.00075471558 -0.0012602475
-0.0012261688 0.0017492496 -0.00080611301
-0.0017405041 0.001751346 -0.00079297344
-0.0027177604 0.00024528301 -0.00080913352
0.003764706 0.00075471628 -0.0077172127
0.0042352951 0.0022641527 -0.0077172108
0.0047529447 0.0022641523 -0.0077172089
0.0027294126 0.00023584897 -0.0077172099
0.0027294136 -0.0002830188 -0.0077172108
0.0032470559 -0.00028301863 -0.007717208
0.0027294138 0.0012264152 -0.0077172108
0.002729414 0.00075471628 -0.0077172099
0.0075893016 0.00077186991 -0.0032397537
0.0067650075 0.00075799786 -0.0077008186
0.0072470531 0.00023584903 -0.0076700822
0.0072470559 0.00075471686 -0.007670084
0.0067668948 0.001224017 -0.0077060293
0.0072470517 0.0017452819 -0.0076700803
0.0067764674 0.0027358509 -0.0076700822
0.0076644588 0.001755536 -0.0057377047
0.0076235305 0.0012264157 -0.0052663959
0.0077012861 0.0022764581 -0.0057377066
0.0062588169 0.0012264143 -0.0077172071
0.0076847067 -0.00029127358 -0.0076453406
0.0076816948 0.00024485902 -0.0076346025
0.0052705938 0.002264153 -0.0077172099
0.0077176513 -0.003773584 -0.0032397523
0.0080000004 -0.002735849 -0.0037581965
0.0080000004 0.001745283 -0.0076229507
0.0076705883 0.0012288984 -0.0076527186
0.0080000004 0.00020754717 -0.0075475415
0.0080000004 0.0028773583 -0.0057377047
0.0080000004 0.0030660378 -0.0052663935
0.007701287 0.0022764588 -0.0067745904
0.0080000004 -0.0012794812 -0.007298924
0.0080000004 0.0028773583 -0.0042295079
0.0077012866 0.0022764576 -0.0047479495
0.0076168054 -0.00029649597 -0.0052663963
0.0075893025 0.00077186985 -0.0052663949
0.0077012875 0.0022764585 -0.0037581944
0.0080000004 0.0027762805 -0.0011996487
0.0067672501 0.0047539254 -0.0017780296
0.0072298194 0.0047090105 -0.0012589181
0.0072332881 0.002260701 -0.00081997202
0.0062588183 0.0022641532 -0.0007889343
0.0062588179 0.0017452815 -0.00078893383
0.0052705882 0.00075471727 -0.00083606597
0.0062716529 0.00076329289 -0.00080178818
0.0080000004 0.0031918241 -0.0018415304
0.007717656 0.0037735838 -0.0017786885
0.0057411781 0.0047641508 -0.0017786899
0.0027352343 0.0022612351 -0.00079330779
0.0032470557 0.0017452817 -0.00078893406
0.0027294138 0.0017452815 -0.00078893406
0.0038928112 0.0047327038 -0.0003542807
0.0022588233 0.0047641518 -0.00083606574
0.0022588235 0.0042452826 -0.00083606597
0.0027294131 0.0042452826 -0.00083606574
0.0012130724 0.0012159339 -0.00080464454
0.0012092694 0.0017495706 -0.00081892707
0.0032496436 0.0042473571 -0.00083399401
0.0032640605 0.0047677187 -0.00081863836
0.0022588235 0.0047641508 -0.0012602464
0.0017411764 0.0042452831 -0.0008360655
0.00172689 0.0037761126 -0.00079903379
0.0062588202 0.0047641513 -0.0057377089
0.0067630187 0.0047506746 -0.0052663917
0.0077176532 0.0037735857 -0.0062561473
0.007717656 0.003773584 -0.0052663931
0.0072470522 -0.0027358504 -0.0076700822
0.0072470545 -0.0022641534 -0.0076700831
0.007717655 -0.0017452816 -0.0076700812
0.0077176564 -0.0037735843 -0.0042295097
0.0080000004 -0.0027358492 -0.002721312
0.0077176467 -0.0037735857 -0.00083606597
0.007717656 -0.0037735847 -0.0022500004
0.0063565611 -0.003819545 0.0012401221
0.0072470587 -0.0027358504 -0.00083606574
0.0077176467 -0.0027358502 -0.0008360655
0.0065882355 -0.003773585 0.00076639326
0.0076886853 -0.0002830188 -0.00083606597
0.0067764735 -0.0012264159 -0.00083606597
