# .PCD v0.7 - Point Cloud Data file format
VERSION 0.7
FIELDS x y z
SIZE 4 4 4
TYPE F F F
COUNT 1 1 1
WIDTH 709
HEIGHT 1
VIEWPOINT 0 0 0 1 0 0 0
POINTS 709
DATA ascii
-0.0035169229 -0.0035395976 -0.00095184211
-0.0030622582 -0.0045903297 -0.0008057896
-0.0030663181 -0.0046256105 -0.00032381574
-0.0030773073 -0.0045517464 -0.001057
0.0012602303 0.005060744 -0.0012439474
0.0011136923 0.0046219537 -0.0015068421
0.0025204616 0.0050461204 -0.0012731579
0.00090853847 0.0046219537 -0.0015068421
-0.0026467666 -0.0047605294 0.0012400938
-0.0026157124 -0.0050534341 0.0017647372
-0.0026489161 -0.0047563943 0.0017647374
-0.0023815071 -0.0047393772 0.0012373106
-0.0026119382 -0.0050527696 -0.00072700949
0.0036158364 -0.00090196368 -0.00035546056
0.0032531489 -0.0012578738 -0.00025078934
0.0032386037 -0.00088413258 -0.00027816126
-0.0036451435 -0.00077154487 -0.0012439484
-0.0036163132 -0.00088171999 -0.0016976623
-0.003624219 -0.00027527468 -0.0012432546
-0.0035975194 -0.00092146569 -0.0020691452
-0.0036566558 -0.0017606288 -0.0017324155
0.0036386312 -0.0017520047 -0.0021891014
0.0036634619 -0.001257874 -0.0017405249
0.0036272844 -0.0012647301 -0.0021869
0.0036634617 -0.0017551717 -0.0017405266
-0.0036447139 -0.00224873 -0.00074416446
-0.0036619371 -0.0017576045 -0.00074785424
-0.0036634612 -0.0017551718 -0.001243948
-0.0036344544 -0.0027335256 -0.00073895801
-0.0017584595 0.0042416719 -0.0012439466
-0.0022566961 0.0042416714 -0.001243947
-0.0022530395 0.0047164876 -0.001254995
-0.0036634605 -0.001257874 -0.0012439477
0.003550858 -0.0036181184 -0.00095952908
0.0031043191 -0.0045886873 -0.00069925701
0.0030773073 -0.0045341947 -0.0010613817
0.0035462293 -0.0036016137 -0.001156316
-0.0022566922 0.0042416677 -0.00098105217
-0.0026572305 0.0045745918 -0.00098105276
-0.0022566919 0.0045927009 -0.00098105287
-0.0026701982 0.0046671643 -0.0012496137
0.0013872307 0.004114904 -0.0015068421
-0.002615713 -0.0050534341 0.0022613159
-0.0023921705 -0.0050579878 0.0022530491
-0.0036255256 -0.00087580469 -0.00079363119
-0.00014165384 -0.0050587966 0.0022545001
8.0210535e-05 -0.005053049 0.0025764825
0.00011497632 -0.0050592469 0.0022590687
0.00012290324 -0.0050598038 0.0017653654
-0.00012874449 -0.0050523891 0.0017678667
0.00014447444 -0.0047418512 0.002260494
0.00014470654 -0.004741889 0.0017648615
0.0024032311 -0.0044464376 0.001764737
0.0023773063 -0.0047389674 0.0017671726
0.002372416 -0.0047307941 0.002249503
0.0025955627 -0.0044391239 0.0022485363
0.002587162 -0.0044464376 0.0017667514
0.0025871617 -0.0044464376 0.0012530488
0.0024032309 -0.0044464376 0.0012389474
-0.0023951456 -0.00505873 0.0017647372
-0.0023718833 -0.0047448915 0.0017669575
-0.0023990434 -0.0050597019 0.0012379043
-0.0023628869 -0.0047562523 0.002255057
-0.0023743738 -0.0047506685 0.00074326852
-0.002645405 -0.0047704461 0.00074168621
-0.0032233284 -0.0031424088 -0.0021977683
-0.0035921044 -0.0031071629 -0.0021050221
-0.0027096206 -0.0046549924 -0.0011740088
0.003663461 -0.0022524723 -0.0012439481
0.0036634672 -0.0022524726 -0.00074736844
0.0036634624 -0.0017551719 -0.0012439472
0.003630053 -0.0017568084 -0.00031002716
0.0036267177 -0.0022524716 -0.00029700279
0.0032531477 -0.0017551716 -0.00025078916
0.0036606991 -0.00076499057 -0.0012439475
0.0036211279 -0.00027627713 -0.00098105276
0.0036211284 -0.00027627731 -0.0012439474
0.0036489461 -0.00083919812 -0.0017117769
0.0036087367 -0.00090502715 -0.002166535
0.0032531477 -0.0012578741 -0.0022078948
0.0032410885 -0.00086229085 -0.002206939
-0.0036311361 -0.0012568709 -0.0017338505
0.0036616949 -0.0026787501 -0.00077358761
0.003620177 -0.0027340162 -0.00031100761
0.0036207864 -0.0027105077 -0.0021891913
0.0032055289 -0.0030587513 -0.0022334533
0.0032513251 -0.0027362965 -0.0022243769
0.0036310107 -0.0022519105 -0.0021832723
0.0032508357 -0.0022533704 -0.0022119952
0.0017532286 -0.00313293 -0.0022282377
0.0012525327 -0.0031345058 -0.0022148951
0.00076038582 -0.0027473534 -0.0022135212
0.0012561948 -0.0027522217 -0.0022075437
0.0017584617 -0.0027497702 -0.0022078876
0.0027496619 -0.0042361571 -0.001237915
0.0027244429 -0.0030984669 -0.0022371046
0.0022566915 -0.0031300578 -0.002237106
0.0027209553 -0.0046045529 -0.0011473275
0.0022583653 -0.0022532421 -0.0022119926
0.001758461 -0.0017551716 -0.0022078892
0.0022581362 -0.0017557464 -0.0022101877
0.0027534286 -0.0022523634 -0.0022266523
-0.0032531549 0.0012578731 -0.00098105217
-0.0027549227 0.0012578731 -0.00098105252
-0.0032531547 0.00076057424 -0.00098105252
0.0026853168 0.00070938224 -0.0015068422
0.0023126437 0.00092811394 -0.0015068423
0.002256694 -0.00084833382 -0.0022078925
0.0027549239 -0.00084833463 -0.0022078955
0.0022566947 -0.0012578741 -0.0022078925
0.001764323 0.0016674139 -0.001506842
0.0023885767 0.001740546 -0.0015068421
0.0014653846 0.0018721838 -0.0015068421
-0.0032531538 -0.0022524726 -0.0022078946
-0.003253151 -0.0017551716 -0.0022078922
-0.0027549213 -0.0017551718 -0.0022078902
-0.0035950756 -0.0022680725 -0.0021144215
-0.0035792405 -0.0017557883 -0.0020984325
-0.0036379718 -0.0022480201 -0.0017398907
-0.0036082538 -0.0027406984 -0.0021001103
-0.0032450883 -0.0027452877 -0.0022028133
-0.0017584586 0.0012578741 -0.0012439445
-0.0011942885 0.00073863508 -0.001506842
-0.0022566954 0.0012578738 -0.0012439466
-0.0017584582 0.0017551715 -0.0012439447
-0.0027549246 0.0037443684 -0.00098105276
-0.0022566924 0.0037443684 -0.00098105252
-0.0027549239 0.0032470678 -0.00098105252
-0.001758461 0.0047265496 -0.0012563398
-0.0017424022 0.0050531337 -0.001254751
-0.0012602297 0.0042416709 -0.0012439475
0.0031525672 -0.004184484 -0.0011774524
0.0035535577 -0.0030715519 -0.0015214473
0.0036155931 -0.0032100142 -0.00095671025
0.0036076189 -0.0032192599 -0.0012255561
0.00075922534 -0.0031527316 -0.00026219687
0.0012556034 -0.0031531525 -0.00033749844
0.00076199992 -0.0027497704 -0.00025078922
0.0017557362 -0.0031379927 -0.00029200094
0.0017744461 -0.0027497702 -0.00026672235
0.0036248162 -0.0012679702 -0.00032368611
0.0027505811 -0.00086582464 -0.00027026306
0.0027549267 -0.001257874 -0.00025078916
8.874487e-05 -0.0047384198 0.0026618023
0.0026717843 -0.0047354996 0.0017648587
0.00014470668 -0.004741889 0.001238827
-0.0031347512 -0.0042627295 -0.0009553472
-0.0035169229 0.0015504023 -0.00098105264
-0.0031156326 0.0032335669 -0.00098105287
-0.0035169234 0.0015504023 -0.0011855265
0.0007620001 0.0050607426 -0.0012439472
-0.0027383026 0.0042316257 -0.00098105229
-0.002168769 0.0050385152 -0.0012474525
0.00077502552 0.0031593102 -0.001506842
-0.00076199981 0.0027497709 -0.0012439451
-0.00076199981 0.0022524698 -0.0012439456
-0.0030479999 0.0040368964 -0.00098105264
-0.0030689335 0.0037025777 -0.00098105252
-0.002754923 0.0027497695 -0.00098105276
-0.0036485074 -0.0012578738 -0.00075213693
0.0035731948 0.00020359992 -0.00098105287
0.0035329089 0.00069143146 -0.00098105252
-8.7923072e-05 -0.0050461204 0.0025680261
-0.0024105576 -0.0050461204 0.0025461186
-0.0026297432 -0.0047687157 0.0026212488
-0.0023972692 -0.0047568143 0.0026138225
-0.0026083845 -0.0050519714 0.0025738683
-0.001258956 -0.0022512001 -0.00033098191
-0.0017584568 -0.0017551717 -0.0002507894
-0.0017584587 -0.0022524698 -0.00025078957
-0.0012602304 -0.001755172 -0.00033257861
-0.0026117344 -0.0050540608 0.0012397821
-0.0026088657 -0.005054513 0.00074188947
-0.0027549241 -0.0031593118 -0.00025078934
-0.0026096595 -0.0050543877 0.00024494284
-0.0021980768 -0.0050314935 -0.0010686843
-0.002754923 -0.0031593088 -0.0022078941
0.003253154 -0.0022524705 -0.00025078922
0.0027549237 -0.0022524695 -0.00025078934
0.001770527 -0.00225247 -0.00026109896
0.0032354339 -0.0037294 -0.0012296807
0.0022566954 -0.0022524705 -0.00025078916
0.0017705285 -0.0017551711 -0.00026109896
0.0036503922 -0.00085011253 -0.00077815773
0.0035462305 -0.000468046 -0.0015068421
0.0036538467 -0.0026535855 -0.0016905195
0.0032497291 -0.0017574481 -0.0022124373
0.003204836 -0.00038582168 -0.0015163161
-0.003106615 -0.0035688505 -0.001506842
0.00076199952 -0.0012578741 -0.0022078939
0.0012552278 -0.001756242 -0.0022039737
0.00076200033 -0.0017551717 -0.0022078915
0.0012526331 -0.001257874 -0.0022024838
0.0027515204 -0.0027363794 -0.0022248593
-0.001758461 0.0012578734 -0.00098105252
-0.0012602309 0.0012578731 -0.00098105217
-0.0012602308 0.0017551724 -0.00098105252
-0.0017584579 0.00076057517 -0.0012439438
-0.0012602304 0.0012578741 -0.0012439475
-0.0017584614 0.0022524712 -0.00098105252
-0.0012602307 0.0022524712 -0.00098105217
0.0026670001 0.0014333907 -0.0015068421
0.0021520217 0.0012035468 -0.0015068423
-0.002754105 -0.0012586899 -0.0022076613
-0.0032358177 -0.0012770398 -0.0021866637
0.0012159281 0.00074424723 -0.0015068426
0.00076199992 0.003744368 -0.00098105276
0.00076200004 0.0032470678 -0.00098105252
0.00023446149 0.0032470678 -0.00098105252
0.00023446142 0.0037443684 -0.00098105276
-0.00025725638 0.0050574956 -0.0012114914
-0.00025612378 0.0046448484 -0.00098105241
0.0013115192 0.0050388072 -0.00098105252
0.00024245457 0.0046910979 -0.00098105229
-0.0022566975 0.0027497699 -0.0012439453
-0.0017584595 0.0027497709 -0.0012439458
-0.0022566963 0.0032470678 -0.0012439456
-0.0022566924 0.0027497695 -0.00098105252
-0.002754923 0.0022524712 -0.00098105252
-0.0032531533 0.00076057506 -0.0012439471
-0.002671187 0.00020059117 -0.0015360527
-0.0027549246 0.00076057506 -0.0012439444
-0.0027549248 0.0012578738 -0.0012439458
-0.0032507211 0.0012561395 -0.0012418688
-0.0022566954 0.0017551715 -0.0012439458
-0.0017584589 0.0022524695 -0.0012439459
-0.0012602294 0.0017551715 -0.0012439464
-0.00099646149 0.00076057471 -0.0015068421
-0.00076199952 0.0017551719 -0.0012439442
-0.0012602296 0.0022524712 -0.0012439485
-0.0012576334 0.0050544529 -0.001265763
-0.0036246495 -0.0002751351 -0.00098105264
-0.0036048468 0.00023402297 -0.00098105276
0.0031608914 -0.0042997105 -0.00080888101
0.0036634663 -0.0017551717 -0.00074736879
0.0027549255 -0.0017551717 -0.00025078922
0.0022566949 -0.00085897115 -0.00026672235
0.0022566956 -0.0012578738 -0.00025078928
0.0017705271 -0.001257874 -0.00026109896
0.0017716961 -0.00085871434 -0.00027717318
0.00266818 -0.0047182413 0.0022479598
0.0025790769 -0.005031494 0.0020568422
0.0026723633 -0.0047364659 0.0012382359
0.0025790769 -0.005031494 0.0012155791
0.0030976958 -0.0046181395 -0.00031683058
0.0026732343 -0.0047389655 0.00074237038
0.0023697359 -0.005031494 0.0021403008
0.0023908906 -0.0050314944 0.001777036
0.0024052518 -0.004701979 0.0026135212
0.0025790767 -0.005031494 0.0017881055
0.0022199017 -0.005050167 -0.00025451847
0.0017740928 -0.0050607445 -0.00028194737
0.0025790771 -0.0050314944 0.0007423684
0.0025790769 -0.0044464371 0.0007423684
-0.0017584616 0.0045927009 -0.00098105276
-0.0012602308 0.0042416677 -0.00098105217
-0.0017584608 0.0042416668 -0.00098105252
-0.0012602306 0.0045927013 -0.00098105287
-0.00026376935 0.0032470673 -0.00098105217
0.00023446149 0.0027497695 -0.00098105276
-0.00074734614 0.0046073282 -0.00098105264
-0.0035917878 -0.0012477365 -0.0021049348
-0.0032259668 -0.00089908578 -0.002146306
-0.00026376953 0.0037443652 -0.0012439457
-0.00026376912 0.0032470673 -0.0012439467
-0.00076200039 0.0037443647 -0.0012439453
0.00082061533 0.0017259195 -0.0015068421
-0.00026376909 0.0022524707 -0.0012439468
0.00023446172 0.0022524698 -0.0012439451
-0.0035920038 -0.0027471394 -0.00033152872
-0.0035897947 -0.0022595862 -0.00033921038
-0.0027549225 -0.0027497704 -0.00025078951
-0.0022566975 -0.0022524705 -0.00025078899
-0.0027549239 -0.0022524698 -0.0002507894
-0.0024325382 -0.0044464367 0.0022613159
-0.0022566924 -0.0027497704 -0.0002507887
-0.0035931256 -0.0017551724 -0.00033257878
0.0027549251 0.00076057424 -0.00098105276
0.0027549246 0.00023402285 -0.00098105276
0.0022566908 0.00023402285 -0.00098105252
0.0022338964 0.00014672859 -0.0015216793
0.0035731939 0.0002035998 -0.0012439475
0.0032531505 0.00023402367 -0.0012439437
-0.00012699999 -0.0050509963 0.0012389474
-0.00015857699 -0.0047457623 0.0012376221
-0.00013160813 -0.0050546764 0.00074291951
-0.0012277829 -0.0043921121 -0.00031964277
-0.0017627913 -0.0031566506 -0.00025410869
-0.0012556032 -0.0031531518 -0.00033749844
-0.0016699638 -0.0043844916 -0.00031379261
0.00023215624 -0.0031579956 -0.00025275862
-0.00076200056 -0.0017551713 -0.00025078922
-0.00076199992 -0.0012578741 -0.00025078916
-0.0012508103 -0.0012554365 -0.00032033812
-0.0001682156 -0.0047505642 0.0022601066
-0.0026157119 -0.0050534341 -0.00025078934
-0.0027549237 -0.0022524712 -0.0022078906
0.0032487796 -0.0027375452 -0.00026386871
0.0012579763 -0.0017574223 -0.00032975402
0.0012602304 -0.001257874 -0.00033257884
0.0012557715 -0.0027465881 -0.00032699062
0.0036634658 -0.0012578741 -0.00074736809
0.0025790767 -0.0050314944 -0.00068894739
0.0025790767 -0.0050314949 -0.00025078951
0.0022176146 -0.0050509968 -0.00068894727
0.003658552 -0.0027431911 -0.0012418506
0.0036634593 -0.0022524723 -0.0017405269
0.0027531087 -0.0017583941 -0.0022135205
0.00024319142 -0.00087011768 -0.0022078953
0.00076199981 -0.00084833393 -0.0022078941
-0.0036257792 -0.0027372304 -0.001243948
-0.0035762221 -0.0032017357 -0.0012379682
-0.0035915691 -0.0031543099 -0.00073937955
-0.0035722207 -0.0030952836 -0.0017526516
-0.0035169234 -0.0035373473 -0.0012012551
-0.0032303559 -0.0037237038 -0.0012353675
0.00075627724 -0.0031524147 -0.0022177296
0.00076130655 -0.0022536821 -0.0022092753
0.00023446143 -0.001755172 -0.0022078899
0.0012565022 -0.0022524726 -0.0022047069
0.001249725 -0.00084998959 -0.0021996272
0.00088125211 0.00085337693 -0.0015068424
0.0017584602 -0.0012578742 -0.0022078909
-0.0031233628 4.1789841e-05 -0.0015360526
-0.0035797246 0.00072953128 -0.0012117566
0.0017584612 0.00076057424 -0.00098105276
0.0012602301 0.00076057424 -0.00098105252
0.0012602303 0.00023402285 -0.00098105252
0.0022566915 0.00076057424 -0.00098105252
-0.00026376938 0.0027497695 -0.00098105252
-0.00076199987 0.0027497695 -0.00098105276
0.00023446155 0.0022524712 -0.00098105252
0.00076199998 0.0022524712 -0.00098105252
0.00076199981 0.0017551724 -0.00098105276
0.00076199981 0.0027497695 -0.00098105276
0.0012602299 0.0032470678 -0.00098105217
0.0012602296 0.0027497695 -0.00098105252
-0.0017584617 0.003744368 -0.00098105276
-0.0012602303 0.0027497699 -0.0012439465
-0.0022566919 0.0022524712 -0.00098105217
-0.0027549223 0.0017551722 -0.00098105276
-0.0022566917 0.0012578731 -0.00098105217
-0.002754922 0.00076057424 -0.00098105276
-0.0012514676 -0.00088542746 -0.000332097
-0.00075561262 -0.0008854625 -0.00027775281
-0.0007620001 0.0012578736 -0.0012439443
-0.00077629637 0.0001084496 -0.0015360526
-0.00027729588 6.7506568e-05 -0.0015360527
-0.00026376924 0.00076057506 -0.0012439465
0.0025595385 0.001589406 -0.0015068421
0.0031247749 0.0027304958 -0.0012447492
0.0031622252 0.0022472213 -0.0012439481
0.0032430657 0.0012506808 -0.001243945
0.0032531519 0.00076057517 -0.0012439435
0.0032430643 0.0012506798 -0.00098105217
0.0032053376 0.0017459346 -0.00098105229
-0.002756095 -0.00089607446 -0.002192239
0.00023446159 0.0042416723 -0.0012439465
0.00076200045 0.0042416723 -0.0012439451
0.00076200039 0.0037443656 -0.0012439447
0.0012602297 0.0037443684 -0.00098105252
-0.00026376921 0.0042416677 -0.00098105217
-0.00076199975 0.0042416677 -0.00098105252
-0.00076199992 0.0037443684 -0.00098105276
0.00023446152 0.0042416672 -0.00098105252
0.00076200016 0.0042416677 -0.00098105252
0.00023446155 0.0050607426 -0.0012439478
0.0017568223 0.0050605382 -0.0012453775
-0.0030479999 0.0040368964 -0.0011855264
-0.0031975899 0.00224455 -0.0012329936
-0.0031539453 0.0027319626 -0.0012319735
-0.0027549253 0.0022524698 -0.0012439465
-0.00026376886 0.0042416709 -0.0012439465
-0.00075027684 0.0050584073 -0.0012392733
-0.00075767661 0.0047306144 -0.0012540017
-0.0012602294 0.004726551 -0.0012563395
0.0022566961 -0.0017551718 -0.00025078916
0.0026265439 -0.0047002016 0.0026489366
0.0025204616 -0.0044464367 0.0025534211
0.0012602299 0.0042416668 -0.00098105217
0.00076961226 0.0047268099 -0.00098105264
9.525002e-05 -0.0044244961 0.0022321059
-8.7923072e-05 -0.0044288849 0.0022204211
0.0007620001 -0.0012578741 -0.00025078899
0.00076199969 -0.0017551713 -0.00025078934
0.0023781925 -0.0047412398 0.0012387581
0.0024032306 -0.0044464371 0.0007423684
0.0026755608 -0.0047351015 0.00024321862
0.0025790767 -0.005031494 0.00026915793
-0.0022566912 -0.005060744 -0.00025078951
0.00023446145 0.0037443643 -0.0012439463
0.0002344618 0.0032470673 -0.0012439453
0.00023446177 0.0017551719 -0.0012439457
0.0030850677 0.0032264194 -0.0012559751
0.0031236326 0.0027233483 -0.00098105287
-0.0035719867 -0.0031291696 -0.00033399515
-0.0032333289 -0.0031528573 -0.00027742231
-0.0032379916 -0.0027497704 -0.00026891968
-0.0027549223 -0.0017551719 -0.0002507891
-0.0022566933 -0.0017551719 -0.00025078905
-0.002254759 -0.0012739826 -0.00027317967
-0.003539467 0.0012241199 -0.00098105252
-0.0032223633 -0.00091979955 -0.00031216844
-0.0032531554 0.00023402285 -0.00098105252
-0.0017618292 -0.0012696425 -0.00026891992
-0.001760212 -0.00087845954 -0.00031008228
-0.0022436669 -0.00089058792 -0.00030921021
-0.0012602315 0.0027497695 -0.00098105252
-0.0035394658 0.0012241199 -0.0011855258
-0.0022566947 -0.00315931 -0.00025078922
-0.0023153073 -0.0044380771 -0.00025913527
0.0017584612 0.00023402285 -0.00098105276
0.0032531533 0.00023402285 -0.00098105252
0.0032531526 0.00076057424 -0.00098105252
0.0035329079 0.00069143111 -0.0012439478
0.00010171493 -0.0044223471 0.00074924144
-8.7923057e-05 -0.004423935 0.00074461545
9.5249983e-05 -0.0044244984 0.0012389476
-8.7923072e-05 -0.0044357996 0.0012336363
0.00023446136 -0.0027497706 -0.00025078905
-0.00026376921 -0.0017551718 -0.00025078928
-0.00026376921 -0.0022524707 -0.0002507894
0.00023446126 -0.0022524698 -0.0002507894
-0.00016119222 -0.0047477428 0.0017686317
-0.0012602303 -0.0027497676 -0.00033257867
-0.00075235643 -0.0027478833 -0.00025870436
-0.00074627425 -0.00315717 -0.00026788813
-0.00076200004 -0.0043904763 -0.00028127001
-0.0026416508 -0.0047690561 0.00023865746
-0.0023760588 -0.0047397418 0.0002357302
-0.0025497694 -0.0040368964 -0.0015068421
-0.0031303361 -0.0041880654 -0.00118502
-0.0022566952 -0.0027497699 -0.0022078955
-0.0022566924 -0.0031593102 -0.0022078962
-0.0017584619 -0.0031593104 -0.0022078957
0.0022566936 -0.0027497709 -0.0002507891
0.0032131877 -0.0030582526 -0.0003092105
0.0027244431 -0.0030984669 -0.00030921045
0.0027245299 -0.0035731841 -0.0015068424
0.0012504616 -0.0022524721 -0.00032033812
0.0026204523 7.5713266e-05 -0.0015274612
0.0036634607 -0.001257874 -0.0012439481
0.0016861277 -0.004395402 -0.00032661262
0.0012428849 -0.0044022612 -0.00033544051
0.0026213573 -0.0044291723 0.0002046075
0.0027549246 -0.0012578737 -0.0022078932
0.0022522961 -0.003628819 -0.0015068424
0.0017306963 -0.0036373644 -0.0015222164
0.0022566956 -0.0042416719 -0.001243946
-0.0022566952 -0.0012578743 -0.002207895
-0.0017584624 -0.0012578738 -0.0022078904
-0.0017584618 -0.0017551718 -0.0022078895
-0.0012602302 -0.001257874 -0.0022078953
-0.0012602303 -0.0017551715 -0.0022078915
-0.0036384424 -0.0022474781 -0.0012439474
-0.0036254791 -0.0027306934 -0.0017416468
0.00023446142 -0.0012578736 -0.0022078925
-0.00026376912 -0.0012578738 -0.0022078948
0.0017584621 -0.0022524707 -0.0022078922
0.0022578051 -0.002742646 -0.002214655
0.00075418461 0.0011077086 -0.0015068422
0.00019653392 3.0973577e-05 -0.0015360526
-0.0022566915 0.00023402285 -0.00098105252
-0.002754922 0.00023402285 -0.00098105276
-0.0017584622 0.00023402285 -0.00098105276
-0.0035856455 0.00073434797 -0.00098105287
-0.0035988961 0.00022830418 -0.0012294519
0.0012602299 0.0022524712 -0.00098105217
0.0017584619 0.0027497695 -0.00098105276
0.0017584616 0.0022524714 -0.00098105252
0.0012602299 0.0017551722 -0.00098105252
0.003162225 0.0022472211 -0.00098105264
0.0017584568 0.0022524695 -0.0012439464
0.0022566961 0.0022524712 -0.0012439466
0.00075929507 -0.00085958559 -0.00026966381
0.0012602301 0.0012578731 -0.00098105217
0.001758461 0.0012578734 -0.00098105252
0.0017584612 0.0017551722 -0.00098105276
0.0022566917 0.0012578731 -0.00098105217
-0.00026376956 0.0027497699 -0.0012439464
0.00023446148 0.0027497704 -0.0012439436
-0.00026376935 0.0022524712 -0.00098105217
0.0017584568 0.0027497709 -0.0012439445
-0.0017584612 0.0032470678 -0.00098105252
-0.0012602314 0.0032470678 -0.00098105217
-0.0012602297 0.0037443656 -0.0012439471
-0.00076199998 0.0032470678 -0.00098105252
-0.0017584619 0.0017551724 -0.00098105276
-0.0022566912 0.0017551724 -0.00098105252
-0.00026376941 -0.001257874 -0.0002507894
-0.00076199987 0.0017551719 -0.00098105276
-0.00076200004 0.0012578734 -0.00098105252
-0.00011202057 -0.0047463337 0.0026523033
0.00023446149 0.0017551722 -0.00098105276
-0.00026376947 0.0017551724 -0.00098105252
-0.00026376909 -0.00088733737 -0.00027026318
0.00023446133 -0.001257874 -0.00025078951
0.00076200004 0.00023402285 -0.00098105276
0.0032053373 0.0017459341 -0.001243946
0.0019733845 0.0013261302 -0.0015068421
-0.0027549248 0.0017551715 -0.0012439445
-0.0027549267 0.0032470673 -0.0012439454
-0.0022566975 0.0037443656 -0.0012439466
-0.0027549288 0.0037443656 -0.0012439443
-0.0022566952 0.0022524707 -0.001243947
0.0022566926 0.0032470673 -0.0012439466
0.0027549264 0.0032470673 -0.0012439458
0.0020515383 0.003919885 -0.0015068421
0.0027549251 0.0027497704 -0.0012439457
-0.00026376921 0.0037443684 -0.00098105252
0.00023446117 0.0047389572 -0.0012439463
0.0022173759 0.0050578937 -0.0012539215
-0.0027391561 0.0042336946 -0.0012430247
-0.0030663174 0.0036968328 -0.0012147367
-0.003238332 0.0017485979 -0.0012354114
-0.00076200016 0.0042416719 -0.001243946
0.0030597229 0.0032119653 -0.00098105252
0.0027549237 0.0027497695 -0.00098105276
0.0012602302 0.004738966 -0.00098105252
0.0017584617 0.0047389655 -0.00098105276
0.0017584616 0.0042416672 -0.00098105252
0.0024325382 -0.0044464367 0.0025534211
9.5250005e-05 -0.0044244984 0.0017647372
0.0012476705 -0.00086087035 -0.0003459322
0.0023908906 -0.0050314944 0.0012266483
0.002380901 -0.0050314944 0.0002374436
-0.0012602309 -0.0050314949 -0.0010978949
-0.00076438481 -0.004703247 -0.0012086235
-0.0012594627 -0.0047024307 -0.0012083584
-0.0012609654 -0.0031588906 -0.0022072662
-0.0012504612 -0.0036468576 -0.0015360521
-0.0017374835 -0.0036452166 -0.0015302098
-0.0022566917 -0.0050590225 -0.00073362258
-0.0023878557 -0.0050593084 0.00022950827
-0.0012710284 -0.0050653652 -0.00032458449
-0.000263769 0.0017551717 -0.0012439468
0.001775829 0.0042167478 -0.0015068424
0.0019050001 0.0039637643 -0.0015068421
0.002751993 0.0037421715 -0.0012452238
0.0021492306 0.0042741699 -0.0015068422
0.002695648 0.0042293621 -0.0012448727
0.0026219191 0.0046670674 -0.0012525101
-0.0026489175 -0.0047563952 0.0022613159
-0.0032379916 -0.0022524719 -0.00026891963
-0.0032368174 -0.001757715 -0.00027503498
-0.0031611423 0.0027320823 -0.00098105252
-0.0035870958 -0.0012739423 -0.00034047809
-0.0032491344 -0.0012624771 -0.00030327903
-0.0027549225 -0.00090683927 -0.00030921045
-0.0012322653 -0.0046916264 -0.00032169715
-0.00016160301 -0.004746621 0.00074537261
0.00076018722 -0.004394569 -0.00024898275
-0.0002637693 -0.0027497702 -0.0002507891
0.0002344613 -0.0017551719 -0.00025078928
-0.0002637693 -0.00315931 -0.00025078963
-0.0022494192 -0.0046893139 -0.0012035494
-0.0012602307 -0.0042416709 -0.0012439474
-0.0017584597 -0.0042416728 -0.0012439461
-0.0027549262 -0.0027497704 -0.0022078899
-0.0017584604 -0.0027497706 -0.0022078902
0.002753092 -0.0027468451 -0.00025298033
0.0022527457 -0.0031238692 -0.00029123476
0.0031474687 -0.0044038882 -0.00032691384
0.0024138878 -0.0044357996 0.00023693778
0.00012105351 -0.0050601112 0.00024134433
0.00023446156 -0.0050607426 -0.0002507894
0.00070478016 -0.0050593545 -0.00030364661
-0.0017584623 -0.00088855647 -0.0021969415
-0.0007620001 -0.0012578741 -0.0022078948
0.00076291594 -0.0036895194 -0.0015360515
0.0012409305 -0.0036344924 -0.0015360528
0.0017672541 -0.00085272221 -0.0022005911
0.0017555011 0.00023047708 -0.0015180538
-0.0022566915 0.00076057436 -0.00098105252
-0.0035462305 -0.00032178161 -0.0015068421
0.0022566931 0.0027497695 -0.00098105252
0.0022566931 0.0032470678 -0.00098105217
0.0022566931 0.0022524714 -0.00098105217
0.00076199992 0.00076057424 -0.00098105276
0.00023446175 0.0012578738 -0.0012439457
0.0011371383 0.0032061148 -0.0015068421
0.0017584597 0.0032470673 -0.0012439463
0.0012602325 0.0022524712 -0.0012439458
-0.0017584619 0.0027497695 -0.00098105276
-0.0022566926 0.0032470678 -0.00098105217
-0.0012602308 0.003744368 -0.00098105252
-0.0017584587 0.0037443652 -0.0012439459
-0.00076199998 0.0022524709 -0.00098105252
-0.00026376921 0.0012578731 -0.00098105217
0.00023446165 0.00076057424 -0.00098105276
0.00023446161 0.00023402285 -0.00098105276
-0.0012602308 0.00023402285 -0.00098105252
-0.001260231 0.00076057424 -0.00098105252
0.0027549237 0.0017551724 -0.00098105276
0.0027549239 0.00225247 -0.0012439464
-0.0027549281 0.0027497709 -0.0012439449
-0.00026376892 0.0047389586 -0.001243946
-0.0031102812 0.0032324418 -0.0012293414
-0.0007611828 -0.0022517557 -0.00025139999
0.0027549239 0.0032470678 -0.00098105252
0.0027427441 0.0037367702 -0.00098105264
0.0017154769 0.0050587961 -0.00098105252
0.0022566931 0.0037443684 -0.00098105252
0.0017584612 0.0032470678 -0.00098105252
0.0024116044 -0.0044464371 0.0022627069
-8.7923072e-05 -0.004425542 0.0017730825
0.00076199975 -0.0022524698 -0.00025078945
0.0012664474 -0.0050634062 -0.00035169866
0.0012396073 -0.0047060312 -0.00033950253
0.00075390126 -0.004725487 -0.00025770743
0.00012290321 -0.0050598038 0.001238319
0.002378755 -0.0047402531 0.00074226258
-0.00076199992 -0.0050314944 -0.0010978946
-0.00027268895 -0.0050314949 -0.0010953547
-0.00076066796 -0.0031566515 -0.0022039094
-0.00026376933 -0.0031593107 -0.002207896
-0.0012664472 -0.0050598569 -0.00073763169
-0.0017584619 -0.0050590211 -0.0007336227
-0.002396334 -0.0050590266 0.00074294128
-0.0017618121 -0.0050607421 -0.000255797
-0.00026376909 0.0012578741 -0.0012439477
0.0030480009 0.0036442918 -0.001276233
0.00254 0.0045244442 -0.00098105264
-0.0035169229 -0.00099459768 -0.0003092105
-0.003206607 0.0022438676 -0.00098105241
-0.0027527236 -0.0012732316 -0.00028584187
0.0016672821 0.00060455932 -0.001506842
0.0012717312 0.00022809824 -0.0015157165
-9.6715354e-05 -0.0044171833 0.00023702625
-0.00076199952 -0.0042416723 -0.0012439463
-0.0002637693 -0.0042416723 -0.0012439458
-0.0017584566 -0.0027497702 -0.0002507894
-0.0012602312 -0.0022524726 -0.0022078941
0.0030773077 -0.0035103448 -0.0015068421
0.0022441314 -0.0046350579 -0.0011696235
0.0010843846 -0.005031494 -0.0010394737
0.0017534506 -0.0046591265 -0.0011749577
-0.0017329765 -0.0050314949 -0.0010877346
0.00075547246 -0.0046817912 -0.0011938917
-0.0022504376 -0.00089570135 -0.0021956719
-0.0017158322 8.2439859e-05 -0.0015360527
-0.0012393974 0.00012969936 -0.0015357005
-0.0012559623 -0.00089746702 -0.002164505
-0.00025666427 -0.0008846781 -0.0022025823
-0.0022566924 -0.0017551716 -0.0022078939
-0.0022566933 -0.0022524728 -0.0022078964
0.00024314523 -0.003657693 -0.001536052
0.00023277078 -0.0031581852 -0.0022095786
-0.00025759925 -0.0036211978 -0.0015360527
-0.00026376953 -0.0017551719 -0.0022078922
-0.00026376903 -0.0022524726 -0.0022078918
-0.00076199975 -0.0022524714 -0.0022078929
0.00023446174 -0.0022524707 -0.0022078906
-0.00076199957 -0.0027497704 -0.0022078911
0.0022566929 0.0027497699 -0.0012439463
0.0022566929 0.0017551724 -0.00098105252
0.00023446162 0.0012578734 -0.00098105252
0.00076199998 0.0022524698 -0.0012439454
-0.00076200051 0.0032470683 -0.0012439461
-0.0012602296 0.0032470673 -0.0012439461
-0.0017584587 0.0032470673 -0.0012439463
0.00024411573 -0.00087999576 -0.00026934658
-0.00076200016 0.00076057413 -0.00098105276
-0.0017584622 0.00076057424 -0.00098105276
0.0027549239 0.0012578734 -0.00098105252
0.0027549237 0.0022524712 -0.00098105252
0.0022013327 0.0046382062 -0.00098105276
0.0026848146 0.0042181504 -0.00098105241
0.001758461 0.0037443684 -0.00098105276
0.0017539875 -0.0050596269 -0.00069786666
0.00011940174 -0.0050603859 0.00074489275
0.0023973694 -0.0050314944 0.0007423684
-0.00075266312 -0.0050584157 -0.00075564033
-0.00025627192 -0.0050582495 -0.00073242385
-0.0032472934 0.0017493214 -0.00098105241
0.00084284868 0.00016139518 -0.0015149004
0.00013005288 -0.0044202353 0.0002384868
-0.00077396201 -0.003641685 -0.0015360519
0.0017584589 -0.0042416728 -0.0012439465
-0.0022480723 0.00035791739 -0.0015360526
-0.0007620001 -0.00089268503 -0.0021965874
-0.0017584608 -0.0022524709 -0.0022078915
-0.00076200016 -0.0017551717 -0.0022078918
0.00023446155 -0.0027497706 -0.0022078906
0.00076199998 0.0012578734 -0.00098105252
-0.00026376921 0.00076057424 -0.00098105252
-0.00026376935 0.00023402285 -0.00098105252
0.0022566926 0.0042416672 -0.00098105217
0.00023446154 -0.0050590211 -0.00073362282
0.0012582093 -0.0050612497 -0.00072470529
0.0001441247 -0.0047428207 0.00074285071
-0.0017573257 -0.0047016176 -0.0012101039
0.00023446156 0.00076057506 -0.0012439453
-0.00014172676 -0.0050568176 0.0002335821
-0.0024032306 -0.0040368964 -0.0015068421
-0.0012602306 -0.0027497699 -0.0022078909
0.0012602294 -0.0042416723 -0.001243946
0.00023446175 -0.0042416714 -0.0012439453
-0.0002642365 -0.0046955207 -0.0012050227
-0.00026376895 -0.0027497704 -0.0022078904
-0.00076200021 0.00023402285 -0.00098105276
-0.00026376918 -0.0050607435 -0.0002507894
0.00074288622 -0.0050577749 -0.00074482837
0.0012574437 -0.0046762461 -0.0011782026
-0.00068580004 -0.0050587966 -0.00031700003
0.00076200021 -0.0042416719 -0.0012439446
0.00023446174 -0.004689367 -0.001206922
0.00076199998 -0.005031494 -0.0010394737
0.00020881731 -0.005031494 -0.0010650329
