# .PCD v0.7 - Point Cloud Data file format
VERSION 0.7
FIELDS x y z
SIZE 4 4 4
TYPE F F F
COUNT 1 1 1
WIDTH 1167
HEIGHT 1
VIEWPOINT 0 0 0 1 0 0 0
POINTS 1167
DATA ascii
0.0022465708 -0.0027060758 -0.0022418606
-0.0007702529 -0.0027060758 -0.0022418606
-0.0042363908 -0.0027060753 -0.0022418604
-0.0047498918 -0.0032215191 -0.0022418604
-0.0032093865 -0.0022550628 -0.0022418606
-0.003209387 -0.0018040509 -0.0022418604
-0.0032093867 -0.0012886076 -0.0022418604
-0.0026958846 -0.0012886077 -0.0022418604
-0.0026958846 -0.00087441225 -0.0022234223
-0.0047498918 -0.0027060758 -0.0022418601
-0.0052633937 -0.0032215191 -0.0022418601
-0.0052633933 -0.0035436708 -0.0022418604
-0.00029131345 -0.0012886076 -0.00027602853
-0.00077025266 -0.0018040505 -0.00024127908
0.0012837541 -0.0012886077 -0.00024127902
0.0017972566 0.0018040508 -0.00088662806
0.00025675091 0.0018040508 -0.00088662806
0.0017972568 0.00025772152 -0.000886628
-0.0042363899 -0.003543671 -0.0021773255
0.0063545848 -0.0050899996 0.0012430233
0.006611336 -0.0050899996 0.00081279071
0.006611336 -0.0050899996 0.0012430233
0.0063545848 -0.0050899992 0.00079127913
0.0040438268 -0.0050899996 0.0024046511
0.0090504698 -0.0050899996 0.0016947676
0.011617979 -0.0050899996 0.0016947676
0.011425414 -0.0050899996 0.0022110464
0.0088193938 -0.0050899992 0.0021981397
0.011617979 -0.0050899996 0.00079127913
0.011617978 -0.0050899996 0.0021465118
0.011425415 -0.0050899996 0.0025337213
0.0066113351 -0.0047678477 0.00079127913
0.0072456631 -0.0043206252 -0.00025266752
0.0063545848 -0.0044456958 0.00079127913
-0.0012837546 -0.0050899992 -0.0012093023
-0.00077025266 -0.0050899992 -0.0012093025
-0.0012837546 -0.0050899992 -0.00075755804
0.0037228877 -0.0050899992 -0.00075755804
-0.0026958846 -0.0047034174 -0.0015965116
-0.0026958843 -0.0050899992 -0.0012093025
0.0047498923 -0.0050899992 -0.0012738372
0.00025675094 -0.0050899992 -0.0012093022
-0.00025675091 -0.0050899992 -0.00075755804
0.00025675091 -0.0050899992 -0.0007575581
0.0026958846 -0.0050899992 -0.00075755798
0.0022465701 -0.0050899992 -0.00075755804
0.0026958846 -0.0050899992 -0.0012093023
0.0017972563 -0.0046389871 -0.0015965113
0.0037228887 -0.002255063 -0.00024127908
0.0042363913 -0.002706076 -0.00024127902
0.0052648876 -0.0032080333 -0.0022268521
-0.016624622 -0.0050899996 0.0016947676
-0.01643206 -0.0050899996 0.0012430233
-0.016624622 -0.0050899996 0.0012430233
-0.016624622 -0.0050899996 0.00027500011
-0.016432058 -0.0050899996 0.000275
-0.016624622 -0.0050899996 0.00079127913
-0.016624622 -0.0050899996 -0.00024127902
-0.017097041 -0.004193129 -0.0011989764
-0.017114474 -0.0042354488 -0.00075416151
-0.01752325 -0.0035758861 -0.00082209299
-0.0063545848 -0.0050899996 0.0012430233
-0.0057768952 -0.0035436708 -0.0022418604
-0.0042363903 -0.0047034179 -0.0015965116
-0.016667416 -0.0048108017 0.0012430233
-0.011350959 -0.0047678477 0.0016973495
-0.011347717 -0.0047678472 0.0012498169
-0.0090504698 -0.0047839559 0.0026143896
-0.0090504698 -0.0050899996 0.0025337213
-0.0090504717 -0.0047678482 0.0016947674
-0.0088579059 -0.0050899996 0.0025337213
-0.0090504708 -0.0047678477 0.0012430233
-0.0090504717 -0.0047678477 0.00079127902
0.00096281589 -0.0047034174 0.0021465118
0.001270917 -0.0044199238 0.0025595347
0.0012681413 -0.0047765546 0.0026383721
0.0012837546 -0.0050899996 0.0025982559
0.0012837546 -0.0050899992 0.0022110469
-0.0012195668 -0.0050899992 0.0016947674
0.0012837542 -0.0047678463 0.0022110464
0.0012837548 -0.0047678482 0.00079127937
0.0012837545 -0.0050899992 0.0012430233
0.0016046931 -0.0047678477 8.1395381e-05
-0.0017931157 -0.0032152841 -0.00024752429
-0.0012452418 -0.0044070375 0.00022337213
-0.0012837545 -0.0032215195 -0.00024127902
-0.00077025266 -0.0032215191 -0.00024127902
-0.0007702529 -0.0043812655 -0.00024127896
0.00025675091 -0.0042094509 -0.0016395345
0.00025675091 0.0027060753 -0.00088662806
-0.0007702529 0.001804051 -0.000886628
-0.0007702529 0.0012886077 -0.00088662811
0.003722887 -0.0022550628 -0.0022418606
0.0022208954 -0.002255063 -0.00026709295
0.0027250613 -0.0018040508 -0.00030581397
0.0027215595 -0.0022550633 -0.00033162785
0.002722499 -0.0012933221 -0.00032470218
0.0027215602 -0.0027060753 -0.00033162785
0.0037228875 -0.0018040504 -0.00024127902
0.0047370549 -0.0012886077 -0.00025418604
0.0040438259 -0.0047678482 0.0016947676
0.0047323862 -0.003543671 -0.00031754753
0.0040438259 -0.0047678482 0.00079127913
0.0047399076 -0.0043254262 -0.00025131775
0.003209387 -0.0032215191 -0.00024127902
0.0037228875 -0.0032215193 -0.00024127902
0.015787389 -0.0031234727 -0.0021913552
0.016295204 -0.0042390316 -0.0012336557
0.015256621 -0.0022590901 -0.0022257268
0.014763177 -0.0018040505 -0.0022418604
0.015251003 -0.0018040506 -0.0022160462
0.014776794 -0.0022472534 -0.0022301271
0.015267049 -0.0026899679 -0.0022160464
0.014769013 -0.0027002185 -0.0021831924
0.014249674 -0.0027060756 -0.0021773258
0.014249674 -0.0022550633 -0.0021773258
0.014763177 0.0050899992 -0.0012738372
0.015276678 0.0050899992 -0.0012738372
0.014763175 0.0047678472 -0.0012738374
0.014249672 -0.00083759491 -0.0022418604
0.014249675 -0.0012886078 -0.0022418604
0.013736174 -0.00083759491 -0.0022418604
0.011297042 0.0047678472 -0.0012738376
0.010783538 0.0047678472 -0.0012738376
0.0097565325 -0.0012886076 -0.0022418608
0.009243031 -0.0018040505 -0.0022418604
0.0097565344 -0.0018040505 -0.0022418604
0.012195666 0.0018040505 -0.0012738376
0.011104477 0.001868481 -0.0015965116
0.012195664 0.0022550628 -0.0012738374
0.011746353 0.0018040508 -0.0012738376
0.016303686 0.0027060758 -0.0012738369
0.016752997 0.0012886075 -0.0012738372
0.016752996 0.0018040505 -0.0012738372
0.016303685 0.0018040505 -0.0012738372
0.015276675 0.0037369619 -0.0012738374
0.014763176 0.0037369623 -0.0012738367
0.0057768952 -0.0027060753 -0.0022418604
0.0092430338 0.00025772152 -0.00088662811
0.0092287697 0.00075168768 -0.00093682157
-0.017572626 0.00075829588 -0.0012738369
-0.014222167 -0.003543671 -0.0021681064
-0.015148303 -0.0035436708 -0.0021127907
-0.014245577 -0.00322289 -0.0022391144
-0.015790179 -0.0031893034 -0.0021934593
-0.015790183 -0.002255063 -0.0022418604
-0.017566042 -0.0031839351 -0.00076831388
-0.015797311 -0.0032072011 -0.00027713174
-0.015789013 -0.0027142758 -0.00027295982
-0.017100362 -0.0042296639 -0.00027544453
-0.011254247 -0.003543671 -0.0022848835
-0.01129704 -0.0032215191 -0.0022418606
-0.0107652 -0.0050899992 -0.0012461795
-0.011297042 -0.004763552 -0.00126093
-0.010783537 -0.003543671 -0.0023063952
-0.01129704 -0.0027060758 -0.0022418601
-0.0089220945 -0.0044456962 0.0012430233
-0.0090504698 -0.0044456962 0.00079127902
-0.0092430338 -0.003543671 -0.00024127902
-0.0097464006 -0.0032113458 -0.00026505505
-0.0092430301 -0.0032215191 -0.00024127902
-0.014121298 -0.0047678472 0.0016947672
-0.014121298 -0.0047678477 0.0012430233
0.016688811 -0.0047678482 0.0022110469
0.016661301 -0.0047494397 0.0026166947
0.017202314 -0.0018040508 -0.00024127908
0.016752996 -0.0018040505 -0.00024127902
0.016694646 -0.0047658952 0.00026913313
0.016303683 -0.002706076 -0.00024127902
0.016752997 -0.0027060753 -0.00024127896
0.015251003 -0.0050899992 -0.00033162785
0.015270843 -0.0046917032 -0.00031754747
0.016379543 -0.004750276 0.00079127937
0.014744299 -0.0047211037 -0.00024507515
0.014763177 -0.004252404 -0.00024127902
0.014205238 -0.0050899992 -0.0007724507
0.014121297 -0.0047678477 0.0016947672
0.015790181 -0.002706076 -0.00024127902
0.017587436 -0.0022550633 -0.0012738369
0.016303683 -0.0012886074 -0.00024127908
-0.016299754 -0.0027100204 -0.00030054577
0.014249675 0.00077316468 -0.00095116254
0.014224 0.0011984052 -0.0009511626
0.015276675 0.0027060758 -0.0012738372
0.014763176 0.0027060758 -0.0012738372
0.013708664 0.0032675404 -0.0009511626
0.01354361 0.0028993671 -0.00095116271
0.012709175 0.0032215195 -0.0012738374
0.016752999 0.0037369619 -0.0012738374
0.015276675 0.0047678472 -0.0012738374
0.014262512 0.0050899992 -0.0012609302
0.013222672 0.0050899992 -0.0012738372
0.012723982 0.0037815676 -0.00095116254
0.016752999 0.002255063 -0.0012738372
0.012195664 0.0027060758 -0.0012738372
0.011746353 0.0032215186 -0.0012738374
0.011746353 0.0027060753 -0.0012738376
0.016741328 -0.00027529342 -0.00095116254
0.010270036 0.0045745568 -0.00095116271
0.010270037 0.0042524049 -0.00095116254
0.010783538 0.0045745568 -0.00095116271
0.010783539 0.0042524049 -0.00095116254
0.0097565353 0.0032215191 -0.00095116254
0.0090504698 -0.0047678477 0.0025982559
0.0090504698 -0.0050899996 0.0025337213
0.0072532133 -0.0018040509 -0.00024127902
0.0068038972 -0.0018040505 -0.00024127902
0.0072415438 -0.00083759491 -0.00025887939
0.0037870756 -0.0044199233 0.0021981397
0.0087295314 0.0027060758 -0.00095116254
0.0087295314 0.0018040508 -0.00095116254
0.0092430329 0.0018040505 -0.00095116254
0.0092430329 0.002255063 -0.00095116254
0.0092430301 -0.0012886077 -0.00024127902
0.0077083632 -0.0012886076 -0.00031754753
0.0077083646 -0.0018040505 -0.00031754759
0.0057768952 0.0037369619 -0.0012738372
0.0057768961 0.004252404 -0.0012738376
0.0057768957 0.0047678482 -0.0012738379
0.0047498923 0.0012886075 -0.0015965118
0.0052633933 0.0012886075 -0.0015965118
0.0047498923 0.0018040505 -0.0015965118
0.0057768947 -0.0018040504 -0.0022418604
0.0068039 -0.0012886076 -0.0022418606
0.009243031 -0.0027060758 -0.0022418604
0.009243031 -0.0012886076 -0.0022418604
0.0087295314 -0.0012886077 -0.0022418604
0.0087295305 -0.00083759497 -0.0022418608
0.009243031 -0.00083759491 -0.0022418604
0.0067983186 -0.003213115 -0.0022362489
0.0072532143 -0.0032039471 -0.0022301269
0.0076822583 -0.0032215188 -0.0022078946
0.0077025262 -0.0018040505 -0.0022418604
0.0087295296 -0.0022550633 -0.0022418604
0.013208085 -0.0026972895 -0.0022301266
0.013222675 -0.002255063 -0.0022418604
0.013214971 -0.0031725517 -0.0021644188
0.0082308417 -0.0032033464 -0.0022120753
0.0041538631 0.0031939058 -0.0015965113
0.0046215164 0.0031570888 -0.0015965116
0.0045573288 0.0027060763 -0.0015965116
0.0047498913 0.0042524049 -0.0012738372
0.0042363894 0.002255063 -0.0015965116
0.0042363894 0.0018040508 -0.0015965118
0.007702528 0.0042524049 -0.00095116254
0.0068038991 0.0047678482 -0.00095116254
0.0072532133 0.0047678482 -0.00095116254
0.0072532133 0.0042524058 -0.00095116254
0.0047148811 0.0032039469 -0.00091596186
0.0047498918 0.0037369614 -0.00095116254
0.0042363899 0.0042524049 -0.00095116254
0.0037143296 0.0037240756 -0.0008909303
0.0017972566 0.0032215191 -0.00088662806
0.0037228877 0.0012886077 -0.00088662806
0.0037228875 0.00077316468 -0.00088662806
0.0047353031 -0.00084052334 -0.00025887945
0.0047498923 0.00025772152 -0.00088662806
0.0052633942 0.00025772152 -0.00088662811
0.0053042402 -0.00083759491 -0.00030581391
0.008216029 0.00073021115 -0.00090813957
0.007702528 0.0012886077 -0.00095116254
0.0082160281 0.0032215191 -0.00095116254
0.0077025271 0.0027060758 -0.00095116254
0.0077025276 0.0032215191 -0.00095116254
0.0068038991 0.0037369619 -0.00095116254
0.0077025271 0.002255063 -0.00095116254
0.0072532129 0.002255063 -0.0009511626
0.0072532133 0.0018040505 -0.00095116254
0.0017972562 0.0042524049 -0.0015965118
0.0097565316 -0.00083759491 -0.0022418604
0.0092430329 0.0050899992 -0.0012738372
0.0097565353 0.0037369619 -0.00095116254
0.0092430329 0.0045745568 -0.00095116271
-0.00025675091 0.0032215195 -0.00088662806
0.0017972562 0.0032215191 -0.0015965118
0.0012837546 0.0037369619 -0.0015965118
0.0012837546 0.0032215186 -0.0015965118
-0.0037228875 0.00025772152 -0.00088662806
-0.0037228884 0.00077316444 -0.00088662806
-0.0042363899 0.0050899992 -0.0012738372
-0.0037080757 0.0042078001 -0.00095116254
-0.0072532147 0.0037369619 -0.0012738372
-0.0077025294 0.0037369619 -0.0012738374
-0.0077025266 0.0032215195 -0.0012738374
-0.0037228877 0.0032215191 -0.0015965118
-0.0042363899 0.0027060763 -0.0015965118
-0.0042363899 0.0012886075 -0.0015965118
-0.0042363903 -0.00087441219 -0.0022234223
-0.0047498918 0.00025772152 -0.0015965118
-0.0047498923 0.00077316468 -0.0015965118
0.015777342 0.00024483551 -0.00095116254
0.012195666 -0.0032215191 -0.00024127908
0.012195668 -0.003543671 -0.00030581391
0.011746354 -0.0032215193 -0.00024127902
0.013864549 -0.0050899996 0.0025337213
0.0087937182 -0.0047678477 0.0022110459
0.0077173403 -0.0047678472 -0.00028595707
0.0097565353 0.0018040505 -0.00095116254
0.0097565344 0.0012886077 -0.00095116254
0.0097565344 0.00077316468 -0.00095116254
0.0092430338 0.0012886077 -0.00095116254
0.010270037 0.0018040508 -0.00095116254
0.01129704 0.0032215195 -0.00095116254
0.012195664 0.0037369619 -0.0012738372
0.013205167 0.00069701951 -0.0015965116
0.013222672 0.00025772152 -0.0015965118
0.012709167 0.00025772152 -0.0015965118
0.01322267 -0.00083759497 -0.0022418606
0.013222676 -0.0012886077 -0.0022418606
0.0052633933 0.0022550633 -0.00095116254
0.0052633937 0.0027060758 -0.00095116254
0.010783538 0.0012886075 -0.00095116254
0.010783537 -0.00083759491 -0.00024127902
0.010291434 -0.0012886076 -0.00029505807
0.01129704 0.0012886075 -0.00095116254
0.011746353 0.0012886075 -0.00095116254
0.011361227 -0.0044272868 0.0016947676
0.0090504698 -0.0044456962 0.0016947676
0.011361227 -0.00443281 0.0012301164
0.011617979 -0.0044456962 0.0016947676
0.01136123 -0.0047678477 0.0022110459
0.01166077 -0.0047678482 0.0016947674
0.012195663 -0.0018040506 -0.00024127902
0.012195665 -0.0022550628 -0.00024127902
0.011746353 -0.0018040506 -0.00024127902
0.012694357 -0.00083759491 -0.00028595695
0.0090504698 -0.0044456962 0.0012430233
0.0090504698 -0.0044456962 0.00079127913
0.0087937191 -0.0047678468 0.00079127925
0.0087295305 -0.0022550628 -0.00024127902
0.0092430329 -0.0027060758 -0.00024127902
0.0087295296 -0.002706076 -0.00024127902
0.008216029 -0.002706076 -0.00024127902
0.0057768952 0.0050899992 -0.0012738372
-0.0045573288 0.0027705065 -0.0015965116
-0.0052633937 0.0027060758 -0.0012738376
-0.0052633933 0.0017396202 -0.0015965113
-0.0068038986 0.0012886075 -0.00095116254
-0.0042363899 0.0027060758 -0.00088662811
-0.0062903967 -0.0012886077 -0.0022418601
-0.0057768947 -0.0018040506 -0.0022418604
-0.0052633951 -0.0018040506 -0.0022418604
-0.013736174 0.00077316468 -0.00095116254
-0.013222672 0.0012886075 -0.00095116254
-0.013222672 0.00077316444 -0.00095116254
-0.013736176 0.0018040508 -0.00095116254
-0.011643653 -0.0047463709 0.0012344186
-0.014089205 -0.0044456962 0.0012107558
-0.015276678 0.0037369619 -0.0012093028
-0.015276678 0.00077316468 -0.00095116254
-0.015790181 0.00077316468 -0.00095116254
-0.015790179 0.00025772152 -0.00095116254
-0.017173786 0.0017968917 -0.0012666667
-0.016753003 0.0018040505 -0.0012738374
-0.017095329 0.0026784625 -0.0012523253
-0.016303688 0.00077316444 -0.0012738369
-0.015770646 -0.00087121082 -0.0021913552
-0.0052633937 0.0050899992 -0.0012738372
-0.0047498918 0.0050899992 -0.0012738372
-0.0077055851 0.0042493362 -0.0012707643
-0.0026958841 0.0027060758 -0.000886628
-0.0032093863 0.0027060758 -0.00088662806
-0.003209386 0.0036940088 -0.00090813957
-0.0026887523 0.0037059395 -0.00089857884
-0.00077025284 0.0037369623 -0.000886628
-0.0022465703 0.0042524058 -0.00095116254
-0.0017972565 0.0037369614 -0.000886628
-0.00077025278 0.0042137466 -0.00092534872
-0.012709171 -0.002255063 -0.00030581397
-0.013220461 -0.0012930512 -0.00026130705
-0.013736178 -0.0018040504 -0.00024127908
-0.010783538 -0.0027060756 -0.00024127902
-0.011297044 -0.002706076 -0.00024127902
-0.011746353 -0.0012886076 -0.00024127902
-0.011746353 -0.002255063 -0.00024127902
-0.011746354 -0.0027060753 -0.00024127902
-0.013222671 0.0022550628 -0.0012738372
-0.012709167 0.0027060758 -0.0012738369
-0.012709172 0.0022550628 -0.0012738372
-0.011746355 -0.00080785784 -0.00025617162
-0.010783538 0.0012886075 -0.00095116254
-0.010270036 0.0012886077 -0.00095116254
-0.010270036 0.0018040505 -0.00095116254
-0.011746355 0.0037369623 -0.0012738372
-0.010270036 0.0002301085 -0.00089584733
-0.0097565334 0.00077316468 -0.00095116254
-0.0097565334 0.0018040508 -0.00095116254
-0.0097565344 0.002255063 -0.00095116254
-0.013222673 -0.002706076 -0.00024127908
-0.014763176 -0.0018040506 -0.0022418606
-0.015790178 -0.0018040504 -0.0022418601
-0.003209387 -0.0022550628 -0.00024127896
-0.0047350787 -0.0012886077 -0.00028595701
-0.015276674 -0.0032131148 -0.00031142565
-0.0072532133 0.00077316468 -0.0015965116
-0.0077025276 0.00077316444 -0.0015965118
-0.0072532133 0.00025772152 -0.0015965116
-0.0072532129 0.0011597467 -0.0015965113
-0.0087295305 0.001868481 -0.0015965116
-0.0080876537 0.0010953164 -0.0015965116
-0.0087295305 0.00077316468 -0.0015965118
-0.0092430329 -0.00085370254 -0.0022257271
-0.0077102305 -0.00083759485 -0.00218507
-0.0082160281 0.00025772152 -0.0015965118
-0.008216029 0.00077316468 -0.0015965118
-0.012182829 -0.0022550626 -0.00025418599
-0.0092430329 -0.0040591136 -0.0015965116
-0.0095639713 -0.0040591136 -0.0015965116
-0.0092430301 -0.0032215186 -0.0022418604
-0.014246622 -0.0032204965 -0.00024435215
-0.016303683 0.0022550628 -0.0012738374
-0.016303679 -0.0012886074 -0.0021773253
-0.016688809 -0.00045101263 -0.0015965116
-0.014763177 0.00025772152 -0.00095116254
-0.010270036 0.0022550628 -0.0012738374
-0.010270037 0.0018040505 -0.0012738372
-0.0097565344 0.001868481 -0.0015965116
-0.010783536 0.0018040505 -0.0012738374
-0.0092430292 0.0037369619 -0.0012738374
-0.0092430329 0.001868481 -0.0015965116
-0.0087295324 0.0032215191 -0.0012738374
-0.0087295305 0.0032215191 -0.00095116254
-0.0072532124 0.0032215186 -0.0012738372
-0.0077025276 0.0032215186 -0.00095116254
-0.008216029 0.0027060758 -0.00095116254
-0.010270036 0.002255063 -0.00095116254
-0.010783538 0.0022550633 -0.00095116254
-0.0097565344 0.0027060758 -0.00095116254
-0.0077385344 -0.0032230907 -0.00031840615
-0.0082288664 -0.003543671 -0.00025418599
-0.0082190866 -0.0032184508 -0.00024435209
-0.0077239238 -0.0035436708 -0.00034883717
-0.0072415429 -0.0027060758 -0.0002588795
-0.0072403764 -0.0032215193 -0.00027999998
-0.017651621 -0.0012886076 -0.0012738374
-0.015751667 0.0016365317 -0.00095116266
-0.00025675091 0.00077316444 -0.000886628
-0.00077025295 0.00077316468 -0.00088662811
-0.0017972563 0.00025772152 -0.00088662806
-0.0022366955 -0.0012935639 -0.00028595701
-0.0012837546 0.0012886075 -0.000886628
-0.00077025284 -0.0022550628 -0.00024127902
0.0007702529 0.0037369619 -0.00088662794
-0.0026958846 0.0027060758 -0.0015965118
-0.0047498918 0.0041235443 -0.0009511626
-0.0042363913 0.00025772152 -0.00088662806
-0.0047498913 0.00025772152 -0.00088662806
-0.0047498923 0.00077316468 -0.00088662806
-0.0052236579 0.001813255 -0.00092043192
-0.0057768947 0.0012499492 -0.00092534872
-0.0077025276 0.0012886075 -0.00095116254
-0.0072532129 0.002255063 -0.0009511626
-0.0062790695 0.0012772374 -0.00094357016
-0.0057768947 0.0018040508 -0.00095116254
-0.0052206023 0.002255063 -0.00090813939
-0.0062903962 0.0032215191 -0.00095116254
-0.0062903962 0.0018040508 -0.00095116254
-0.0068038991 0.0027060763 -0.0012738372
-0.0068039 0.0032215191 -0.0012738374
-0.0068038991 0.001868481 -0.0015965116
-0.0062903976 0.001868481 -0.0015965116
-0.0035945126 0.0040591136 -0.0015965116
-0.0072371676 -0.0022550633 -0.0022257271
-0.00821603 -0.0018040505 -0.0022418606
-0.0068038986 -0.002255063 -0.0022418601
-0.0026958846 0.00025772152 -0.000886628
-0.003209386 0.00025772152 -0.00088662806
-0.003722888 0.00077316444 -0.0015965118
-0.0022465708 -0.00083759497 -0.00030581385
-0.006303234 -0.0047807335 0.0012430233
-0.0052837464 -0.0043294076 -0.00026803737
-0.0053042402 -0.003543671 -0.00030581391
-0.0057768952 -0.003543671 -0.00024127902
-0.0047498918 -0.003543671 -0.00030581391
-0.0040438259 -0.0047678477 0.00079127913
-0.0037870761 -0.0044456958 0.00079127913
-0.0032093863 -0.003543671 -0.00024127896
-0.0027380651 -0.0043205167 -0.00029106304
-0.003209387 -0.0043168357 -0.00024127908
-0.0052766739 -0.003214854 -0.00026130711
-0.0052762325 -0.0022550628 -0.00025418604
-0.0052775377 -0.0018073266 -0.00025768625
-0.0057768952 -0.0018040502 -0.00024127902
-0.0057768952 -0.0022550628 -0.00024127902
-0.010290097 -0.0022590901 -0.0022257268
-0.0097424434 -0.0032230907 -0.0022198241
-0.009243031 -0.0022550628 -0.0022418606
-0.008216029 -0.0012886077 -0.00024127902
-0.0077261766 -0.0012818255 -0.00033977965
-0.0077289585 -0.0008034847 -0.00032859086
-0.0082160309 -0.00080785755 -0.00025617168
-0.0076926528 0.00073847128 -0.0009015206
-0.008216029 0.0022550633 -0.00095116254
-0.014249675 0.0037369623 -0.0012093028
-0.014763177 0.003206651 -0.0012291595
-0.013736171 0.0047678472 -0.0012093029
-0.013222673 0.0042524049 -0.0012093029
-0.0068038991 -0.0042395187 -0.0016223257
-0.0062903953 -0.0032215186 -0.0022418601
0.01270917 -0.0050899992 -0.00075755804
0.013222672 -0.0050899992 -0.00075755804
0.010783538 -0.0035436708 -0.0021127907
0.0097520556 -0.0032020402 -0.0022268521
0.01129704 -0.0035436708 -0.0021127907
0.010783538 -0.0050899992 -0.0012093023
0.01129704 -0.0050899992 -0.0012093022
0.012195665 -0.0047268462 -0.0012093027
0.0040438268 -0.0050899996 0.00079127913
0.0037870759 -0.0050899992 0.00079127913
0.0037673255 -0.0050899992 0.00026010734
0.0068038991 -0.0045745568 -0.0015965116
0.008216029 -0.0050899992 -0.0012093022
0.0077025276 -0.0050899992 -0.0012093023
0.0077173403 -0.0050899992 -0.00028595701
0.0090761445 -0.0050899996 0.0002362791
-0.0012837546 -0.0050899992 -0.00024127902
-0.0047498918 -0.0050899992 -0.0012093023
-0.0052633937 -0.0050899992 -0.0012093022
-0.0042363899 -0.0050899992 -0.00075755798
0.00025675091 -0.0046389867 -0.0015965113
0.00024892311 -0.0032073758 -0.0022198241
0.00077025284 -0.0042094509 -0.0016395347
-0.00077025272 -0.0046389871 -0.0015965113
-0.0037228882 -0.0042094509 -0.0016395347
0.00028884478 -0.0050899992 -0.00029505807
0.0012837546 -0.0050899992 0.00079127913
0.00078859209 -0.0050899992 -0.00026893686
0.0012837546 -0.0050899992 -0.00075755804
-0.002233733 -0.0050899992 -0.00027999992
-0.002738676 -0.0050899992 -0.00028430228
-0.0037870761 -0.0050899992 0.00079127913
-0.0012195668 -0.0050899992 0.00079127913
-0.00029131351 -0.0050899992 -0.00027602859
-0.00029131345 -0.0047678472 -0.00027602859
0.012195668 -0.0050899992 -0.00024127902
0.011617978 -0.0044456962 0.0012430233
0.012195664 -0.002706076 -0.00024127902
0.011746354 -0.0027060753 -0.00024127902
0.0026900491 -0.0018040508 -0.0022301269
-0.0022465708 -0.0012886076 -0.0022418606
-0.0017972565 -0.0012886075 -0.0022418606
-0.0026958848 -0.0018040506 -0.0022418606
0.00025091559 -0.0027060756 -0.0022301266
0.00077025284 -0.0018040504 -0.0022418608
0.0012837546 -0.0012886076 -0.0022418604
0.0012837546 -0.0018040504 -0.0022418606
0.0017972568 -0.0022550628 -0.0022418606
0.0026996604 -0.00084517495 -0.0022342682
0.0022465701 0.0027060758 -0.0015965116
0.0022465703 0.0022550633 -0.0015965113
0.003722888 0.0018040508 -0.0015965118
-0.001797257 -0.00083759497 -0.0022418601
-0.0012837544 -0.00083759485 -0.0022418606
-0.0017972562 0.00025772152 -0.0015965118
-0.0017972562 0.0018040508 -0.0015965118
-0.0017972562 0.0012886075 -0.0015965118
-0.0012837546 0.0037369619 -0.0015965118
0.00077025295 -0.00083759497 -0.0022418604
0.00077025272 0.0042524049 -0.0015965118
0.0012837546 0.0042524049 -0.0015965118
-0.00025675091 0.0042524049 -0.0015965118
0.0017972562 0.0018040508 -0.0015965118
0.0022465701 0.00025772152 -0.0015965116
0.0022465701 0.00077316468 -0.0015965116
-0.00026807812 -0.00084138499 -0.0022342682
0.00025675091 0.0027060758 -0.0015965118
0.0032185558 -0.0032031108 -0.0022234218
0.0022465703 -0.0042524054 -0.0015965116
0.0012837545 -0.0018040503 -0.00024127902
-0.0012837542 -0.0027060753 -0.0022418604
-0.0017972561 -0.0018040505 -0.0022418606
-0.0012837542 -0.0018040506 -0.0022418604
-0.0012837545 -0.0012886076 -0.0022418604
-0.0007702529 -0.0018040506 -0.0022418604
-0.003209387 -0.0027060753 -0.0022418604
-0.0037228875 -0.002255063 -0.0022418604
0.00077025278 -0.0012886076 -0.00024127902
0.00077025284 -0.00083759491 -0.00024127896
-0.00077025261 -0.0012886077 -0.00024127908
0.0012837542 -0.00083759474 -0.00024127896
-0.00029053382 -0.00084098597 -0.00028203789
0.00028884472 -0.00083759491 -0.00029505818
0.00025675088 0.00077316444 -0.00088662806
0.00025675088 0.00025772152 -0.00088662806
0.00025675091 0.0012886077 -0.000886628
0.0017972564 0.00077316444 -0.000886628
0.0027228019 -0.00083343819 -0.000322468
-0.0022465705 -0.0042094509 -0.0016395347
0.0089220945 -0.0050899996 0.0025337213
0.006611336 -0.0047678482 0.0025337213
0.0063224914 -0.0044456962 0.0025659888
0.0063501582 -0.0047834003 0.0026271855
0.0062903953 -0.0047678477 0.0022110469
0.0090504698 -0.0050899996 0.00079127913
0.0063545848 -0.0050899996 0.0025659883
0.006611336 -0.0050899996 0.0022110464
0.006611336 -0.0050899996 0.0016947676
0.011617978 -0.0050899996 0.0012430233
0.006611336 -0.0047678477 0.0012430233
-0.0017972562 -0.0050899992 -0.0012093022
0.0032136654 -0.0050899992 -0.00025418599
0.0042363899 -0.0050899992 -0.0007575581
-0.0032093867 -0.0047034179 -0.0015965116
-0.0032093863 -0.0050899992 -0.0012093023
-0.0037228884 -0.0050899992 -0.0012093023
-0.0057768952 -0.0050899992 -0.00075755798
0.0047498909 -0.0047678463 -0.00024127902
-0.00025675091 -0.0050899992 -0.0012093023
0.0012837546 -0.0050899992 -0.0012093023
0.0017972562 -0.0050899992 -0.00075755804
0.0032222241 -0.0050899992 -0.0012609302
0.0022465705 -0.0046389871 -0.0015965113
0.0062903948 -0.0027060758 -0.00024127908
0.0057768961 -0.0027060758 -0.00024127902
0.0062903971 -0.0022550628 -0.00024127902
0.0068038995 -0.0027060758 -0.00024127908
0.0053042406 -0.0012886075 -0.00030581397
0.0062903971 0.00025772152 -0.000886628
0.0057768938 0.00025772152 -0.00088662806
0.0062903962 -0.00083759474 -0.00024127902
0.0057768952 0.00077316468 -0.00088662806
0.0063545853 -0.0050899992 0.00027500011
0.0057768966 -0.0032215188 -0.00024127902
0.0053042411 -0.0032215193 -0.00030581391
-0.010288375 -0.0050899992 -0.0012461795
-0.016432058 -0.0050899996 0.00079127902
-0.015276678 -0.0050899996 -0.0011447675
-0.013736174 -0.0036081008 -0.00024127896
-0.014249676 -0.0036081008 -0.00024127896
-0.011746354 -0.0050899996 -0.0012093023
-0.014763177 -0.0050899996 -0.0011447675
-0.014249675 -0.0050899996 -0.0011447675
-0.014082788 -0.0050899996 0.0002362791
-0.014763178 -0.0035436708 -0.0021127907
0.012709169 -0.0050899996 -0.0011447675
0.014249675 -0.0050899996 -0.0010802326
0.013736174 -0.0050899992 -0.0007575581
0.013708664 -0.0050899996 -0.0011355483
-0.010255223 -0.0037320049 -0.0016511178
-0.0057677254 -0.0042309277 -0.0016272424
-0.0057768952 -0.0045745568 -0.0015965116
-0.01710603 -0.0035758859 -0.00030581391
-0.016379541 -0.0047502751 0.0012430233
-0.016303679 -0.0036173053 -0.0002689368
0.010288375 -0.0050899992 -0.0002689368
0.0097565353 -0.0050899992 -0.00024127902
0.011404019 -0.0050899996 0.00025348843
0.010270036 -0.0050899992 -0.00075755804
-0.0090504698 -0.0050899996 0.0022110464
0.0012837546 -0.0050899992 0.0016947674
-0.0012837545 -0.0047678472 0.0016947679
-0.00096281589 -0.0046481909 0.00081893697
0.0016046931 -0.0044456962 8.1395381e-05
0.0037357241 -0.0047549601 0.00079127925
0.0022349001 -0.0047678477 -0.0002588795
0.0022465705 -0.0043398454 -0.00026432716
-0.00077025284 -0.0042094509 -0.0016395347
-0.00077025266 0.0018040508 -0.0015965118
-0.00077025266 0.0012886075 -0.0015965118
-0.00025675091 0.0012886077 -0.0015965118
-0.00025675091 0.0018040508 -0.00088662811
-0.00077025284 0.0022550633 -0.00088662794
0.0042363908 -0.0018040504 -0.0022418601
0.0022208956 -0.0032215193 -0.00026709295
0.00272156 -0.0035436708 -0.00033162785
0.003722887 -0.0012886076 -0.00024127902
0.0062903962 -0.0047678477 0.0012430229
0.0053115343 -0.003543671 -0.00035421504
0.0047498904 -0.0032215193 -0.00024127902
0.0042363903 -0.0032215191 -0.00024127902
0.0037870756 -0.0044134804 0.00079127913
0.015265009 -0.0031570883 -0.0021597254
0.016303683 -0.0047034179 -0.0011539866
0.015786912 -0.0042382078 -0.0012574301
0.015790178 -0.0012886076 -0.0022418604
0.015251006 -0.0012886076 -0.0022160464
0.015790179 -0.0022550628 -0.0022418606
0.013736174 -0.0018040504 -0.0022418604
0.015790181 -0.00085600367 -0.0022049837
0.014757343 -0.00084930944 -0.0022301271
0.016297039 -0.00084203843 -0.002210706
0.010783537 0.0050899992 -0.0012738369
0.010270036 0.0050899992 -0.0012738372
0.011746354 0.0047678482 -0.0012738376
0.011746354 0.004252404 -0.0012738379
0.011297042 0.004252404 -0.0012738369
0.011297042 0.0037369614 -0.0012738372
0.010783536 0.0037369619 -0.0012738374
0.010270035 -0.0012886076 -0.0022418608
0.010783541 -0.0012886076 -0.0022418604
0.010783541 -0.00083759491 -0.0022418606
0.010268203 -0.00084127672 -0.002238173
0.011297041 -0.0012886076 -0.0022418604
0.01269453 -0.0027094672 -0.00026505505
0.013226816 -0.0032152839 -0.00024752435
0.017202314 0.0012886077 -0.0012738376
0.01752325 0.0016107594 -0.0012738372
0.016753001 0.00077316444 -0.0012738374
0.017174801 -0.00037737796 -0.0015965113
0.0057768952 -0.0032215193 -0.0022418604
0.0062903971 -0.0032215191 -0.0022418604
0.0062903976 -0.003543671 -0.0021773255
0.0062903967 -0.0027060751 -0.0022418604
0.0068214047 -0.003543671 -0.0022301269
-0.015272664 -0.0032094384 -0.0021853927
-0.016303683 -0.0022550628 -0.0022418606
-0.016298985 -0.0026825033 -0.0022198244
-0.017587435 -0.0027060753 -0.00075755804
-0.016752996 -0.0036081013 -0.00030581385
-0.016379539 -0.0047502755 0.0022110469
-0.015276675 -0.002255063 -0.00030581391
-0.015790179 -0.002255063 -0.00030581391
-0.012709168 -0.0027060753 -0.0022418604
-0.010783539 -0.0032215191 -0.0022418604
-0.0090504698 -0.0044456962 0.0012430233
-0.0089220945 -0.0044456962 0.00079127902
-0.0087295305 -0.0032215191 -0.00024127902
-0.0092430292 -0.0027060763 -0.00024127902
-0.0087295314 -0.0022550628 -0.00024127902
-0.0092430301 -0.0022550628 -0.00024127902
-0.014099904 -0.0050899996 0.0017162791
-0.014057112 -0.0050899996 0.0012430233
0.017537512 -0.0026273273 -0.00034883717
0.017202314 -0.0027060758 -0.00024127908
0.016688813 -0.0047678477 0.0016947672
0.016752999 -0.0022550633 -0.00024127902
0.0152722 -0.0042658905 -0.00031782041
0.016752997 -0.0036081013 -0.00030581391
0.016432058 -0.0050899996 0.00079127902
0.015795119 -0.003603145 -0.00028595701
0.016300632 -0.0032184515 -0.00024435215
0.015798736 -0.0032150762 -0.00025418604
0.014249675 -0.0022550628 -0.00024127902
0.015283809 -0.0018088232 -0.00027713168
0.016303683 -0.0018040504 -0.00024127902
-0.016303681 -0.0022550628 -0.00030581385
0.014750343 0.00076027866 -0.00095116254
0.015276674 0.0012886077 -0.0012738369
0.013736173 0.00025772152 -0.00095116254
0.013736175 0.00077316468 -0.00095116254
0.013222672 0.00025772152 -0.00095116254
0.015276674 0.0032215191 -0.0012738372
0.015276674 0.0018040505 -0.0012738374
0.013222672 0.0032215191 -0.0009511626
0.013222678 0.0042524049 -0.0012738374
0.013736176 0.004252404 -0.0012738374
0.014249677 0.004252404 -0.0012738369
0.014249677 0.0037369619 -0.0012738369
0.01373617 0.0047678463 -0.0012738374
0.017184809 0.0022433484 -0.0012738372
0.012195666 0.0032215191 -0.0012738367
0.01270917 0.0027060758 -0.0012738372
0.01172068 0.002564329 -0.00095116266
0.011297041 0.0027060763 -0.0012738369
0.016303681 0.0012886077 -0.0012738374
0.01626089 0.00010738394 -0.00095116266
0.01630369 0.00077316444 -0.0012738374
0.013736173 -0.0027060753 -0.0021773255
0.01027004 0.0047678463 -0.0012738374
0.010783538 0.0037369619 -0.00095116254
0.0092430329 0.0032215191 -0.00095116254
0.0068038986 -0.0012886076 -0.00024127908
0.0057768952 0.0027060758 -0.00095116254
0.0068039 0.002255063 -0.00095116254
0.0057768957 0.0032215191 -0.00095116254
0.0062903976 0.0027060763 -0.00095116254
0.0042363903 -0.0022550628 -0.00024127896
0.0047498913 -0.0022550628 -0.00024127902
0.0092430301 -0.0018040505 -0.00024127908
0.0097565362 -0.0018040506 -0.00024127902
0.0097565362 -0.0012886075 -0.00024127908
0.0077043599 -0.00083391322 -0.0003095016
0.0068039005 0.0042524049 -0.0012738374
0.0062903953 0.004252404 -0.0012738372
0.0062903976 0.0031570888 -0.0015965116
0.0042363899 0.00025772152 -0.0015965118
0.0057768938 -0.0012886077 -0.0022418604
0.0068038981 -0.00083759497 -0.0022418606
0.0072532143 -0.00083759497 -0.0022418608
0.0068038991 0.00025772152 -0.0015965118
0.0062903971 0.00025772152 -0.0015965118
0.0062903971 0.00077316468 -0.0015965118
0.0062903976 0.0028027215 -0.0015965116
0.0068038991 0.0027060758 -0.0015965116
0.0068038991 0.0031570888 -0.0015965116
0.0052652285 -0.0008412766 -0.002238173
0.0052633937 0.00077316444 -0.0015965118
0.0097565344 -0.0027060758 -0.0022418601
0.01024436 -0.0027060756 -0.0022160462
0.0072532143 -0.0022550633 -0.0022418608
0.0072532138 -0.0018040506 -0.0022418601
0.0092430329 -0.0022550628 -0.0022418608
0.0087295305 -0.0018040505 -0.0022418604
0.008216029 -0.003543671 -0.0021773255
0.0082384953 -0.0027028543 -0.0022160467
0.008216029 -0.0041879746 -0.0015965116
0.0082112765 -0.0047511435 -0.0012379847
0.0037080755 0.0032661243 -0.0015965116
0.0052633947 0.0037369619 -0.0012738369
0.0077025271 0.0047678482 -0.00095116254
0.0077025285 0.0037369619 -0.00095116254
0.0068038995 0.0047678472 -0.0012738367
0.008216029 0.0050899992 -0.0012738372
0.00821603 0.0047678472 -0.0012738369
0.0052633942 0.0037369619 -0.00095116254
0.0022465705 0.0032215191 -0.00088662806
0.0037228877 0.0012886077 -0.0015965118
0.0032093865 0.0012886075 -0.0015965118
0.0042363908 -0.00083759479 -0.00024127902
0.0047498913 0.00077316444 -0.00088662811
0.00821603 0.00025772152 -0.00088662811
0.0087295296 0.00025772152 -0.000886628
0.0076926504 0.00073847128 -0.0009015206
0.0068038991 0.0032215191 -0.00095116254
0.0077025271 0.0018040505 -0.00095116254
0.0062903976 0.0018040505 -0.0015965118
0.0068038991 0.0018040508 -0.0015965118
0.0068038986 0.0012886077 -0.0015965118
0.010291434 -0.0018040506 -0.00029505813
0.0087295314 0.0042524049 -0.00095116254
0.0097565344 0.0045745568 -0.00095116271
-0.003722888 0.00025772152 -0.0015965118
0.00077025266 0.0032215191 -0.0015965118
-0.00077025284 0.0032215191 -0.000886628
0.0017972562 0.0037369619 -0.0015965118
-0.003209386 0.00077316444 -0.00088662806
-0.0032093867 0.0012886075 -0.00088662817
-0.0042363908 0.0047678472 -0.0012738374
-0.0068038991 0.0037369619 -0.0012738376
-0.0040438268 0.0032215191 -0.0015965116
0.013222672 -0.0035436708 -0.0021127907
0.015790179 0.0012886077 -0.0012738372
0.016175307 6.4430409e-05 -0.0015965116
0.015790183 0.0018040505 -0.0012738372
0.013736173 -0.0042524044 -0.0012738374
0.0090504698 -0.0044456962 0.0022110464
0.0077025271 -0.0050899992 -0.00075755804
0.0082160281 -0.0050899992 -0.0007575581
0.0097565362 0.00025772152 -0.00088662811
0.012195665 0.0042524049 -0.0012738369
0.011746354 0.0037369619 -0.0012738376
0.013607798 0.0016107594 -0.00095116271
0.014249675 0.0022550628 -0.0012738374
0.013736176 0.0022550628 -0.0012738374
0.013222674 0.0027060763 -0.0012738367
0.013196995 0.0017138482 -0.0009511626
0.012195668 0.0012886077 -0.00095116254
0.0087295286 -0.0012886076 -0.00024127902
0.010270037 0.00025772152 -0.0015965118
0.0097565353 0.00025772152 -0.0015965118
0.007240376 0.0017653925 -0.0015965116
0.0057768957 0.0012886075 -0.0015965118
0.0057768952 0.0018040508 -0.0015965118
0.0052633937 0.00025772152 -0.0015965118
0.0047498923 0.00025772152 -0.0015965118
0.0047498918 0.00077316468 -0.0015965118
0.010270037 0.0012886077 -0.00095116254
0.010783539 0.00077316444 -0.00095116254
0.010775835 0.00021906325 -0.00090469763
0.010270037 0.00077316468 -0.0015965118
0.010783537 0.00077316468 -0.0015965118
0.0097565353 0.00077316468 -0.0015965118
0.011746355 0.00021906337 -0.00092534866
0.011746354 -0.0022550628 -0.00024127902
0.012181405 0.00023624476 -0.00093682157
0.012709171 0.00025772152 -0.00095116254
0.012702037 -0.0032143604 -0.00027474161
0.010270037 -0.0035436708 -0.0021127907
0.010291434 -0.003210149 -0.0002830369
0.0097565353 -0.0027060758 -0.00024127902
0.010293144 -0.00271123 -0.00028516277
0.009243032 -0.0022550628 -0.00024127902
0.0092430301 -0.0032215191 -0.00024127902
0.0087295305 -0.0032215191 -0.00024127908
0.0062903948 0.0047678472 -0.0012738369
-0.0052732686 -0.00087228813 -0.0022120753
-0.0052633937 -0.00027060759 -0.0016223257
-0.0047242166 0.0017396202 -0.0015965116
-0.0047498918 0.0012886075 -0.0015965118
-0.0062903957 0.0037369619 -0.0012738374
-0.0057768947 0.0012886075 -0.0015965118
-0.0057768947 0.00077316468 -0.0015965118
-0.0067863939 0.0012124626 -0.0015965116
-0.0062903967 0.00077316444 -0.0015965118
-0.0047498918 0.0022550633 -0.00088662788
-0.003209386 0.0022550633 -0.00088662794
-0.014249675 -0.0018040505 -0.00024127902
-0.014748538 -0.0018119633 -0.0002650551
-0.014249676 0.00077316468 -0.00095116254
-0.013222671 0.0018040505 -0.00095116254
-0.011425414 -0.0044456962 0.0012430233
-0.010783537 -0.003543671 -0.00024127902
-0.017183971 0.00028533454 -0.00095116254
-0.016752997 0.00025772152 -0.00095116254
-0.015790179 0.0037369614 -0.0012093028
-0.015790183 0.0012886077 -0.0012738376
-0.015276675 0.0012886077 -0.0012738374
-0.015266805 -0.00085741968 -0.0022021472
-0.015276675 0.00077316444 -0.0012738374
-0.017196104 0.0012823725 -0.0012738374
-0.016752997 0.00025772152 -0.0012738374
-0.015790181 0.0022550628 -0.0012738374
-0.015790185 0.0018040505 -0.0012738376
-0.0017972562 0.0042524049 -0.00095116254
-0.0032093863 0.0042524049 -0.00095116254
-0.0022465705 0.0037093495 -0.00089584728
-0.0012694907 0.0042309286 -0.00093682157
-0.01028332 -0.002712741 -0.00026130711
-0.011297043 -0.0032215195 -0.00024127902
-0.01028485 -0.0012886077 -0.00028595701
-0.010284848 -0.0018040506 -0.00028595701
-0.009738192 -0.0012886077 -0.00026893686
-0.0082160309 -0.0027060758 -0.00024127902
-0.0087295305 -0.00080785772 -0.00025617174
-0.013222679 0.0027060758 -0.0012738374
-0.013736173 0.0027060763 -0.0012738372
-0.013736174 0.0022550628 -0.0012738374
-0.011746354 0.002255063 -0.0009511626
-0.011746354 0.0026416457 -0.0009511626
-0.010783539 0.0018040505 -0.00095116254
-0.011746353 0.0032215186 -0.0012738372
-0.011742883 0.0042471802 -0.0012162793
-0.010261479 -0.00085477636 -0.0022160469
-0.010783538 0.00057987345 -0.0015965116
-0.011297042 0.0012886077 -0.0012738372
-0.010783536 0.0012886079 -0.0012738376
-0.012182823 -0.0032215188 -0.00025418599
-0.010783538 -0.00085370254 -0.0022257271
-0.010270037 0.00025772152 -0.0015965118
-0.010783537 0.00025772152 -0.0015965118
-0.014249676 0.0027060758 -0.0012738376
-0.015276674 0.0018040503 -0.0012738376
-0.014763176 0.0012886077 -0.0012738372
-0.014763177 0.0018040508 -0.0012738369
-0.015251003 -0.00034792401 -0.0015965116
-0.01475185 -0.002251273 -0.002234268
-0.015284142 -0.0018175358 -0.0022268516
-0.003722888 -0.0027060758 -0.00024127896
-0.0032093877 -0.0018040506 -0.00024127902
-0.0052817338 -0.0012886076 -0.00026893686
-0.00473325 -0.0017992778 -0.0002771318
-0.012709167 -0.0012886076 -0.00030581397
-0.0087295314 0.0012886075 -0.00095116254
-0.0072532129 0.001868481 -0.0015965116
-0.0077025276 0.001868481 -0.0015965116
-0.0072532138 0.00074555143 -0.00089584722
-0.008216029 0.001868481 -0.0015965116
-0.0077025276 0.00025772152 -0.0015965118
-0.016303683 0.0018040505 -0.0012738376
-0.016752996 0.0027060758 -0.0012093026
-0.015276679 0.00025772152 -0.00095116254
-0.008216029 0.0032215191 -0.0012738374
-0.0077025294 0.0027060763 -0.0012738374
-0.0087295296 0.0027060758 -0.00095116254
-0.0077025276 0.0027060758 -0.00095116254
-0.0092430338 0.00070873415 -0.0015965116
-0.007240376 -0.0035436708 -0.00027999992
-0.0068038991 -0.003543671 -0.00024127902
-0.016303683 -0.00086336711 -0.0021644188
-0.016303683 -0.00045101263 -0.0015965116
-0.016303683 0.0032215195 -0.0012093029
-0.0012837546 0.0012886075 -0.0015965118
-0.0012837546 0.00077316468 -0.0015965118
-0.0017972562 0.00077316444 -0.0015965118
-0.0022465703 0.0012886077 -0.0015965116
-0.0012837545 -0.0018040503 -0.00024127902
-0.0012837547 -0.0022550628 -0.00024127902
-0.0012837546 0.00077316468 -0.000886628
-0.0012837541 -0.002706076 -0.00024127902
0.0012837544 0.0037369614 -0.000886628
-0.0017972562 0.002255063 -0.0015965116
-0.0026958846 0.002255063 -0.0015965116
-0.0022465701 0.0018040508 -0.0015965116
-0.0022465703 0.0022550633 -0.0015965113
-0.0062903971 0.00025772152 -0.0015965118
-0.0057768943 0.00025772152 -0.0015965118
-0.0052633942 0.00077316468 -0.0015965118
-0.0057768966 0.00077316444 -0.000886628
-0.0057768952 0.00025772152 -0.000886628
-0.0037228875 0.0012886075 -0.00088662811
-0.0062755835 0.0012440018 -0.0015965116
-0.0057768947 0.0032215186 -0.00095116254
-0.0062903967 0.0027060758 -0.00095116254
-0.0062903962 0.002255063 -0.00095116254
-0.003722888 0.0037369619 -0.0015965118
-0.0087295314 -0.0018040505 -0.0022418601
-0.0068039 -0.0027060753 -0.0022418604
-0.0032093863 0.00025772152 -0.0015965118
-0.0042363899 0.00077316468 -0.0015965118
-0.0027319901 -0.00084162178 -0.0003138808
-0.0052728634 -0.0047710156 -0.00025080057
-0.0040438268 -0.0044456962 8.1395381e-05
-0.0057768943 -0.0012886075 -0.00024127902
-0.0057768947 -0.002706076 -0.00024127902
-0.0062903957 -0.002706076 -0.00024127902
-0.0037543979 -0.0047643329 0.00078071875
-0.0027386763 -0.0047678472 -0.00028430228
-0.010783538 -0.002255063 -0.0022418606
-0.011297038 -0.002255063 -0.0022418604
-0.010270038 -0.0032215186 -0.0022418604
-0.00821603 0.00073021092 -0.00090813963
-0.00821603 0.00025772152 -0.00088662811
-0.015272903 0.0032101495 -0.0012244876
-0.014763177 0.0037369619 -0.0012093029
-0.0042107147 0.0041622026 -0.0009511626
-0.0068039019 -0.0047678482 -0.0012738372
-0.0072532129 -0.0047678477 -0.0012738374
-0.0057768952 -0.0032215193 -0.0022418604
-0.0057768952 -0.0027060753 -0.0022418604
0.010270037 -0.0050899992 -0.0012093023
0.006272058 -0.0050899992 -0.0012461792
0.0068038986 -0.0050899992 -0.0012093022
0.0072532133 -0.0050899992 -0.00075755815
0.013222672 -0.0047678468 -0.00024127908
0.0097565344 -0.0040591136 -0.0015965116
0.011746354 -0.0035436705 -0.0021127907
0.012195666 -0.0031785651 -0.0021558141
0.010783538 -0.003193906 -0.0021681064
0.012195664 -0.0042524044 -0.0012738374
0.012709172 -0.0042524044 -0.0012738372
0.011746355 -0.0042524044 -0.0012738376
0.002733642 -0.0043244152 -0.0002982216
0.0032239745 -0.0043197637 -0.0002588795
0.0072532129 -0.0047678468 -0.00024127896
0.0087937191 -0.0050899992 0.00079127913
0.00078309048 -0.004381266 -0.00025418604
-0.0037228877 -0.0050899992 -0.00075755804
-0.0042363899 -0.0050899992 -0.0012093023
0.00077025272 -0.0046389871 -0.0015965113
-0.0012837546 -0.0046389871 -0.0015965113
-0.0017972562 -0.0050899992 -0.00024127902
-0.0026958846 -0.0050899992 -0.00075755804
-0.0022465701 -0.0050899992 -0.00075755815
0.012195668 -0.0050899992 -0.00075755804
0.0017972564 -0.0012886076 -0.0022418604
0.0002638828 -0.0018026186 -0.0022332557
0.0012837545 -0.002255063 -0.0022418604
0.0026958846 0.0027060758 -0.0015965118
0.0026958843 0.0018040505 -0.0015965118
-0.00077025266 0.00025772152 -0.0015965118
-0.00077025278 0.0037369619 -0.0015965118
0.0012837545 -0.00083759491 -0.0022418604
0.0012837546 0.00077316468 -0.0015965118
0.00077025278 0.0012886075 -0.0015965118
0.0012837546 0.0012886075 -0.0015965118
0.00077025255 0.00077316444 -0.0015965118
0.00025675088 0.00077316468 -0.0015965118
0.00077025278 0.00025772152 -0.0015965118
-0.00025675091 0.00025772152 -0.0015965118
0.00025675088 0.00025772152 -0.0015965118
0.00025675091 0.0042524049 -0.0015965118
0.0017972562 0.0012886075 -0.0015965118
0.0022465701 0.0012886075 -0.0015965116
0.0022465701 0.0018040505 -0.0015965116
-0.00025675091 0.00077316468 -0.0015965118
0.00025675091 0.0018040508 -0.0015965118
0.0017972566 -0.0022550628 -0.00024127902
-0.0012837545 -0.002255063 -0.0022418604
-0.00077025295 -0.0012886076 -0.0022418604
-0.0077261757 -0.001810833 -0.0022078946
-0.0057768947 -0.0022550633 -0.0022418604
-0.0068039005 -0.0032215191 -0.00024127902
-0.0068038995 -0.0027060758 -0.00024127902
-0.0068039005 -0.0022550628 -0.00024127902
0.00028884466 -0.0012886076 -0.00029505818
0.0012837544 0.0018040508 -0.00088662806
0.0012837548 0.00025772152 -0.00088662806
0.0066113351 -0.0047678482 0.0022110469
0.0088202767 -0.0047611827 0.0026405375
0.0062903953 -0.0047678482 0.0016947681
0.011361229 -0.0047678472 0.0012430236
0.010288379 -0.0047678468 -0.00026893691
0.0097565325 -0.0047678472 -0.00024127902
0.01136123 -0.0047678477 0.00079127925
0.003722888 -0.0050899992 -0.00024127902
0.0042363899 -0.0050899992 -0.00024127902
-0.0037228882 -0.0047034174 -0.0015965116
-0.0062903967 -0.0050899992 -0.00024127902
-0.0067910622 -0.0050899992 -0.00025418599
-0.0063545853 -0.0050899992 0.000275
-0.0068038995 -0.0050899992 -0.0007575581
0.00077025272 -0.0050899992 -0.00075755792
0.0032093865 -0.0050899992 -0.00075755798
0.0017972562 -0.0050899992 -0.0012093023
0.00077025266 -0.0050899992 -0.0012093023
0.0057768938 -0.0022550628 -0.00024127902
0.0047498913 -0.0027060758 -0.00024127902
0.0053042406 -0.002255063 -0.00030581385
0.0057768938 -0.00083759474 -0.00024127896
0.0052633937 0.00077316444 -0.00088662811
0.0057768952 -0.0018040505 -0.00024127902
0.0053042411 -0.0018040511 -0.00030581391
0.0057768957 -0.0012886076 -0.00024127902
0.0062903953 -0.0032215191 -0.00024127908
-0.014245749 -0.0047639017 -0.0012145709
-0.0057768947 -0.0050899992 -0.0012093025
-0.0062903967 -0.0050899992 -0.0012093023
-0.013222675 -0.0047604125 -0.0012291598
-0.013222671 -0.0050899992 -0.0012093023
0.013864548 -0.0050899996 0.000275
0.012709172 -0.0047268462 -0.0012093028
-0.016624622 -0.0050899996 -0.00062848831
-0.015751667 -0.0050899996 -0.0011060465
-0.017009748 -0.0045745568 -0.0010802326
-0.017009748 -0.0046389871 -0.00075755804
-0.0072532143 -0.0043168347 -0.00030581391
-0.0072532133 -0.0050899992 -0.00025887945
-0.0072532147 -0.004778021 -0.0002922276
-0.0052633933 -0.0042094509 -0.0016395347
-0.0047498918 -0.0042094509 -0.0016395347
-0.016667416 -0.0048108017 0.00079127913
-0.016670838 -0.0048013516 0.00026725582
0.0092430338 -0.0050899992 -0.00024127902
0.0097565334 -0.0050899992 -0.00075755804
0.01129704 -0.0050899992 -0.00075755798
0.011425414 -0.0050899996 0.00079127902
0.010783537 -0.0050899992 -0.00024127902
0.011617979 -0.0050899996 0.000275
-0.0012837542 -0.0047678463 0.00079127925
-0.0022515082 -0.0043366598 -0.00028595701
-0.00029131351 -0.004381266 -0.00027602853
0.0022348999 -0.0050899992 -0.00025887945
-0.00025675085 0.0012886077 -0.00088662811
0.002722499 -0.0032262334 -0.00032470218
0.0062934519 -0.0047647795 0.00079025479
0.0053011514 -0.0043357862 -0.00029442535
0.0057843574 -0.0043228292 -0.00026379118
0.0057768952 -0.003543671 -0.00030581391
0.0032093863 -0.003543671 -0.00030581391
0.014763176 -0.0031785655 -0.0021558141
0.014763176 -0.0042524049 -0.0012738374
0.015790183 -0.0047034174 -0.0011539866
0.011746352 -0.0031785655 -0.0021558141
0.012212559 -0.0026891201 -0.0022078946
0.011746355 -0.0027060758 -0.0021773258
0.015790181 -0.0018040506 -0.0022418604
0.013222672 -0.0018040505 -0.0022418608
0.013714779 -0.0022464723 -0.0022160464
0.015790181 0.0047678472 -0.0012738374
0.0092430338 0.00077316468 -0.0015965118
0.0097436961 0.0012757217 -0.0015965118
0.017202314 0.0018040505 -0.0012738374
0.014255256 -0.0017956466 -0.0022362485
0.014763177 -0.0012886076 -0.0022418604
0.016736951 -0.0003382595 -0.0015965113
-0.016743828 -0.0026876668 -0.0022049837
-0.016310818 -0.0031427708 -0.0021988375
-0.016303681 -0.0042395177 -0.0012609304
0.0068039005 -0.0027060753 -0.0022418604
-0.014763178 -0.0032286781 -0.0021988372
-0.016746882 -0.0042370637 -0.0012461797
-0.015276678 -0.0027060753 -0.00030581391
-0.015276675 -0.0018040506 -0.00030581391
-0.015794765 -0.0036127032 -0.00026893674
-0.0087295296 -0.003543671 -0.00024127902
-0.012195668 -0.0027060758 -0.0022418604
-0.012709168 -0.0032039471 -0.0022301269
-0.013222672 -0.0027060753 -0.0022418604
-0.013741751 -0.0032131153 -0.0022362492
-0.011297041 -0.0042524044 -0.0012738374
-0.011746353 -0.0042524044 -0.0012738372
0.016752997 -0.003208633 -0.00025418604
0.016379537 -0.0047502755 0.0016947676
0.017202314 -0.0022550628 -0.00024127902
0.015276675 -0.0042395187 -0.0012609307
0.015803019 -0.0050899992 -0.00025418599
0.014057112 -0.0044456962 0.0012430233
