# .PCD v0.7 - Point Cloud Data file format
VERSION 0.7
FIELDS x y z
SIZE 4 4 4
TYPE F F F
COUNT 1 1 1
WIDTH 314
HEIGHT 1
VIEWPOINT 0 0 0 1 0 0 0
POINTS 314
DATA ascii
-0.00094158121 0.0010613645 0.0021911766
-0.0010745625 0.00092879421 0.002560602
-0.00096907222 0.00091752579 0.0025735293
-0.0011562817 0.0010626022 0.0021756389
-0.0011425505 0.00086677069 0.0022072
-0.0017443824 -0.00073748926 -0.00043235318
-0.0017383313 -0.00073982112 -0.0007607888
-0.0017501743 -0.00024702234 -0.00043255324
-0.0017426936 -0.00024742316 -0.00076011784
-0.0011458023 0.00085982151 0.0007620313
-0.0015051547 0.00086597941 4.1176565e-05
-0.0011777235 0.00085910637 0.00022804213
0.0013608246 0.0019999992 -0.00076176465
0.00024742272 0.0019999992 -0.0017294122
0.0012835051 0.0020000003 -0.001721691
0.0020000015 -0.00024742304 -0.00076176482
0.0019999999 -0.00063917536 -0.0012558827
0.0020000015 -0.00024742301 -0.0012558826
-0.0012448176 -0.0017749087 -0.00029594114
-0.001656222 -0.0017102833 -0.00076171395
-0.0016365207 -0.0017271666 -0.00030931865
-0.0012420582 -0.0017426939 -0.00076176744
0.0020000013 -0.00024742307 -0.0017294118
0.0020000001 -0.00022268038 -0.00044470589
0.0020000001 0.00063917524 -0.000432353
0.0020000015 0.00024742301 -0.00076176442
0.0020000001 -0.0015567011 -0.00032941171
-0.0017362472 -0.00074062368 -0.0012557124
-0.0017179007 -0.0012323242 -0.0017289958
-0.00074123772 -0.0017656457 -0.00029286888
-0.0012420601 -0.0017426939 -0.0012558822
-0.0017067057 0.0016548892 -0.0012568524
-0.0017089982 0.0016558192 -0.00076105644
-0.00063917518 0.0020000001 -0.0015647059
-0.0012297056 0.0017052292 -0.0012558808
-0.0017088109 0.0016508164 -0.0017220678
-0.0012288801 0.0017044949 -0.0017286191
-0.0017032773 0.001660908 -0.00031391135
-0.0017443976 0.0012395671 -0.00075822079
-0.00174594 0.0011998639 -0.00031043362
-0.0017412551 0.00074146106 -0.00075895875
-0.0017250859 0.00079696975 -0.00035854423
-0.00094158121 0.0010652919 -0.0047558807
-0.0009476901 0.0010408555 -0.0051013073
-0.0011273691 0.0010462248 -0.0051317802
0.00086782791 0.0011126903 -0.0051535876
-0.00084732391 -0.00092194433 0.0017499992
-0.00092066382 0.00083639572 0.0012558828
-0.0008473245 -0.00092194421 0.0012558833
-0.00092233694 0.00083848747 0.0017541182
-0.0011456087 0.0010873913 0.00076270604
-0.001156571 0.0010728076 0.0017557911
-0.00094158133 0.0010652917 0.0017499999
-0.0011569614 0.0010727069 -0.0032517589
-0.0011648701 0.0010723158 -0.002737775
0.0015463918 0.0019999996 -0.00026764703
0.0015463919 0.0020000001 -0.0017294119
0.0015463918 0.0019999996 -0.00076176465
0.0016565403 0.0017097534 -0.00076171261
0.0016500573 0.0017252107 -0.0003090286
0.0013608249 0.0019999992 -0.0012558823
0.00073855004 0.0019999985 -0.001707136
-0.0011615107 0.0010715382 -0.0042617633
-0.00094158109 0.0010652919 -0.0042617647
-0.0017454668 0.001240672 -0.0017289683
-0.0015051547 0.00082474225 -0.0020382353
0.0019999999 0.00063917541 -0.00076176476
0.0020000015 0.00024742301 -0.0012558824
0.0016569981 0.0017098633 -0.0012559891
-0.0016928221 -0.0012127011 -0.00028921675
-0.0017052287 -0.0012297045 -0.00076176628
0.0012297024 -0.0017052294 -0.00076176506
0.00074302364 -0.0017425513 -0.00028165191
0.000742267 -0.001731971 -0.00076176552
0.0012273559 -0.0017101995 -0.00028439995
0.00024994297 -0.0017607199 -0.00028793089
0.00074226607 -0.0017319715 -0.0012558815
0.0020000001 -0.00067353959 -0.0017541175
0.0020000001 -0.001543548 -0.0017038542
0.0011560438 -0.00086678361 -0.0047660433
0.0011441134 -0.0010547179 -0.0051165372
0.0011313008 -0.00088689971 -0.0051369397
0.0019999994 0.00020459949 -0.00043710408
0.0010652917 0.00094158115 0.00076176471
0.0017038856 -0.001653439 -0.0012558827
0.0019999996 -0.0015463919 -0.0012558821
0.0019999992 -0.0013608248 -0.0012558828
0.0019999996 -0.0015463918 -0.00076176465
0.0020000013 -0.0012483598 -0.00074304803
-0.00024742272 -0.0017648578 -0.00029095868
-0.00087952847 -0.0011210586 0.0012558847
-0.0016595402 -0.0017078901 -0.0012587057
-0.0017354754 -0.00074091851 -0.0017288738
-0.0017379237 -0.00024742301 -0.0017284991
-0.0017362443 0.00074062357 -0.0012557136
-0.0017489569 0.00024651748 -0.00043265469
-0.00094158144 0.0010652918 -0.0032529421
-0.00094158133 0.0010652918 -0.0037676459
0.00088201766 0.0011248549 -0.0037676478
0.0009381444 -0.00084249716 -0.0050950139
0.00084131793 0.00092500524 -0.0050994242
0.0010602939 0.00094158103 -0.0050796783
0.0010466628 0.0011144869 -0.0050934223
-0.00085110537 -0.00092475791 0.0021977187
-0.0010561281 -0.00094387162 0.0021754904
-0.0010619417 -0.0011192928 0.0022242209
-0.0010309279 -0.0011065291 0.0025392161
-0.0010652918 -0.00094158127 0.0017499997
-0.00090813963 -0.0010798584 0.0025707646
-0.0010816803 -0.0011245038 0.0012558819
-0.00087952893 -0.0011210588 0.0017499983
-0.00087952928 -0.0011210586 0.00076176471
0.0017052279 0.0012297045 -0.00076176628
-0.0011421846 0.00085679413 0.0017555029
-0.0011487532 0.001084256 0.0012523212
0.00085253309 0.0011268478 -0.0047558853
0.00085863401 0.0011264355 -0.0042724125
0.0010727564 0.0011295398 -0.0037631062
-0.0017392187 -0.00024742313 -0.0012555991
0.0015463918 0.0019999996 -0.0012558824
0.0016495106 0.0017092389 -0.0017214135
0.0009257248 -0.00084487337 -0.004756697
-0.00086597935 -0.00093000528 -0.0050907112
-0.0017373498 0.0007424705 -0.0017291096
-0.0011531027 0.0010736991 -0.0037678676
-0.0011394083 0.00085523969 -0.003767129
0.0019999999 0.00063917541 -0.0012558822
0.0011589089 -0.00085121702 0.00075908389
0.0019999989 -0.00074226822 -0.00043235294
0.001183781 -0.00085201167 0.00024189393
0.0010652919 0.00094158115 0.0012558826
0.0011437739 -0.00085215643 0.0012522883
0.0012371124 0.00024742269 -0.000432353
0.00094387186 -0.0010561278 0.0021754899
0.0010863151 -0.00093187793 0.0025602076
0.001101031 -0.0010226804 0.0025488236
0.00094302831 -0.0010721646 0.0017467489
0.00094657997 -0.0010890344 0.0012558821
0.0011375839 -0.0010464551 0.0022245469
0.00092492468 -0.00084503694 -0.0037686951
0.00092540996 -0.00084487541 -0.0042600688
0.00084299041 0.00092356949 -0.0042638928
0.001067666 0.0009420811 -0.00426214
0.001067666 0.00094208104 -0.0037642778
0.0011393897 -0.0008617675 -0.0037671616
-0.00086597889 -0.00092783553 -0.0032529416
-0.00086597924 -0.00092783559 -0.0037676496
-0.00092468748 0.00084142573 -0.0037668631
-0.00086597924 -0.00092783524 -0.0042617647
-0.0017120544 -0.0012312847 -0.0012611547
0.0020000015 -0.00073149707 -0.00074640021
0.0017319695 0.00024742307 -0.0017294104
0.0017319692 -0.00024742316 -0.0017294093
0.0019999996 0.00022227816 -0.0016540892
0.0017076078 -0.0016544481 -0.00076104735
0.0017058001 -0.0016546613 -0.00029398757
0.0012297018 -0.0017052282 -0.0012558802
0.0017051818 -0.0016467241 -0.0017199998
-0.00092529727 0.00084218819 0.00076303177
-0.00024438099 -0.00025857706 -0.00043336581
-0.00074345613 -0.00024861013 -0.00043246109
-0.00024742333 -0.0017319696 -0.0017294154
-0.00024742351 -0.0017319715 -0.0012558823
0.00024742293 -0.0017319707 -0.0012558798
-0.0016576446 -0.0017058523 -0.0017226478
0.0002474236 -0.0017319687 -0.0017294161
-0.0017347325 0.0012383857 -0.0012577858
-0.0017426929 0.00024742325 -0.00076011766
-0.00089682615 -0.0011185968 -0.0051705604
0.00094158069 -0.0010378006 -0.0050441171
0.00094623369 -0.0010873906 -0.004752398
0.0011527931 -0.0010913068 -0.0047551887
-0.00094158121 0.0010652917 -0.0027382353
-0.00092439831 0.00084746064 0.002197606
0.0008451654 0.00092334038 0.0021962104
0.00088820473 0.001074039 0.002569519
0.0010542953 0.00094158074 0.0021823533
0.0010257732 0.0011494845 0.0025117649
0.0008629596 0.0011231622 0.0022162725
-0.0010804645 -0.0011233089 0.0017478605
-0.00084732426 -0.00092194456 0.00076176471
0.00024742263 -0.00024742272 -0.00043235323
0.00024742284 -0.00079777808 -0.00029932236
-0.00023987208 -0.00080412306 -0.00031056412
-0.0010798444 -0.0011226999 0.00076095772
-0.0010652919 -0.00094158127 0.00076176447
0.00024554168 0.0017587267 -0.00028594886
-0.00024742342 0.0017525895 -0.0002822181
0.00087052339 0.0011256316 0.00076350884
0.0007413564 0.0017621288 -0.00029287237
0.00085863384 0.0011264357 0.0012665306
-0.00021796755 0.0019999992 -0.0016117649
-0.0012252162 0.0017220745 -0.00028786657
-0.0007422691 0.0017525895 -0.00028221885
0.0016856325 0.0012258531 -0.0003072127
0.0017052279 0.0012297042 -0.0012558809
0.00074226473 0.0017319714 -0.00076176511
-0.0011467075 0.00085805031 0.001255883
-0.0010602939 -0.00094158103 -0.0050796778
-0.0010566206 -0.0011216491 -0.0051255184
-0.0011277488 0.00088973378 -0.0051494031
-0.0011597519 0.0010703867 -0.0047481935
-0.00092591776 0.00084296276 -0.0042612883
-0.00092093728 0.00083681295 -0.0047550634
-0.00093166123 0.00086831761 -0.0051245606
-0.0017379234 0.00024742307 -0.0017284976
-0.0011490335 0.00085932604 -0.0027376758
0.0010638288 0.0011296329 0.0012374838
0.0010638299 0.0011296325 0.0017469336
0.0010652919 0.00094158121 0.0017499999
0.0019999992 0.00063917553 -0.0016264708
0.00173197 0.00074226712 -0.0017294113
0.00090401515 -0.00083637191 0.00023898087
0.00024102401 0.0002602204 -0.00043448305
0.00092718628 -0.00084471115 0.001255558
0.0017319606 -0.00024742266 -0.00043235335
0.0019999999 -0.0012525177 -0.00033935095
0.0011253072 -0.0010918139 0.00076079799
0.00091844372 -0.00084125128 0.00076887116
0.00084536034 0.00092268101 0.00076208648
0.00084299035 0.00092356955 0.0012580127
-0.00088584493 -0.001119699 0.0022270763
0.0011239212 -0.0010659924 0.001743277
0.0011470984 -0.00085803971 0.0017508025
0.00092530478 -0.00084461586 -0.003253832
0.001146475 -0.00086302502 -0.0042675924
0.0011357192 -0.001093408 -0.0042729732
0.00094658002 -0.0010890346 -0.0042617661
0.001065292 0.00094158121 -0.0047558802
0.00084732421 0.00092194456 -0.0037676464
0.00084732386 0.00092194456 -0.0032529398
-0.0011427663 0.00085648301 -0.0032523759
-0.0010652919 -0.00094158133 -0.003767645
-0.0010652915 -0.00094158121 -0.0032529421
-0.00088979583 -0.0011247487 -0.0042622495
-0.0008891758 -0.0011237097 -0.0037676478
-0.0010652918 -0.00094158121 -0.0042617652
-0.001080722 -0.0011270173 -0.0042629298
-0.0010652918 -0.00094158121 -0.0047558802
-0.00024742351 0.00079777848 -0.00029932207
0.00024067165 0.00080478343 -0.00031212153
0.00024742304 -0.0017319714 -0.00076176738
-0.0007422652 -0.001731971 -0.0012558806
-0.00074226776 -0.0017319712 -0.00076177024
-0.0012371135 -0.00024742272 -0.00043235312
-0.00094473606 0.0010802768 0.0012521691
-0.00024515708 0.00025988455 -0.00043348462
-0.0010816801 -0.0011245037 -0.0037676487
-0.0010722306 -0.0011325614 -0.0047511826
-0.00074226776 -0.0017319695 -0.0017294133
0.0012284742 -0.0016977756 -0.0017208818
0.00094587682 -0.0010856953 -0.0037715072
0.00088201673 0.0011248549 -0.0027382318
0.0010661168 0.0011271714 -0.0027383058
0.00088201748 0.0011248548 -0.0032529393
0.0010567374 0.001127345 -0.0032556043
0.0013608246 0.0019999992 -0.00026764703
-0.0012297042 0.0017052285 -0.00076176616
-0.00074226747 0.0017319707 -0.00076176977
0.00024742365 0.0017319716 -0.00076176791
-0.0009455086 0.0010839467 0.00076274516
-0.0010652917 -0.00094158121 0.0012558819
-0.001146258 0.00085892994 -0.0042616292
-0.0017392177 0.00024742322 -0.0012555989
0.0010695099 0.0011303448 0.00076319103
0.00084161112 0.00092408678 0.0017499999
0.0010454757 0.001120833 0.0022206046
0.0017044975 0.001228878 -0.0017286178
0.0017319596 0.00024742269 -0.00043235335
0.0009448686 -0.0010900939 0.00076624018
0.0011538465 -0.00087378331 0.0022170562
0.0011164321 -0.0010946013 0.0012540674
0.0011533545 -0.00086058478 -0.0027388146
0.00084161136 0.00092408649 -0.0047558872
0.0010622639 0.0011298514 -0.0047517968
-0.00092664442 0.00084402045 -0.0032542776
-0.00085329753 -0.00092403963 -0.0027272955
-0.0010652917 -0.00094158121 -0.0027382353
-0.00086207845 -0.00092727825 -0.0047597792
-0.00088967604 -0.0011263252 -0.0047580339
-0.00024742319 -0.0017319712 -0.00076176249
-0.0010816795 -0.0011245036 -0.0032529426
-0.0012420637 -0.0017426921 -0.0017294135
-0.00088130916 -0.0011243217 -0.0027265497
0.00092623098 -0.00084375567 -0.0027381524
0.00094473606 -0.0010802768 -0.0027385736
0.00094524689 -0.0010827031 -0.0032547726
0.0011151424 -0.0010883999 -0.0037748828
0.00084732386 0.00092194445 -0.0027382295
0.00024742342 0.0002474231 -0.0017294134
0.0010652919 0.00094158133 -0.0032529412
0.0010652919 0.00094158121 -0.0027382341
0.00082630769 0.0009213108 0.00023220398
-0.00024742377 0.0017319696 -0.0017294144
0.00024742293 0.001731971 -0.0012558826
-0.0011453452 0.00085741974 -0.0047540506
0.00085253379 0.0011268478 0.0017500011
0.00024742415 -0.0002474231 -0.001729414
-0.0002474236 -0.00024742316 -0.0017294133
-0.00024742412 0.00024742313 -0.0017294163
0.00092980993 -0.00085479248 0.0021882686
0.0019999994 -0.0013227598 -0.0017579189
0.0011332367 -0.0010775834 -0.0027390718
0.0010655805 0.0011285214 -0.0042650159
-0.00092468748 0.00084174029 -0.0027380798
0.00074062229 -0.0017296136 -0.001727523
-0.00088917662 -0.0011237097 -0.0032529458
-0.0010797997 -0.0011294381 -0.0027351857
0.0011495076 -0.00086333504 -0.0032445379
-0.00024742278 0.0017319715 -0.00076176535
-0.00074226671 0.0017319692 -0.001729414
0.00024742281 0.0017319692 -0.001729415
0.00092718616 -0.00084471103 0.0017512968
0.0011257718 -0.0010831088 -0.0032501956
