# .PCD v0.7 - Point Cloud Data file format
VERSION 0.7
FIELDS x y z
SIZE 4 4 4
TYPE F F F
COUNT 1 1 1
WIDTH 1193
HEIGHT 1
VIEWPOINT 0 0 0 1 0 0 0
POINTS 1193
DATA ascii
-0.0048757931 0.0002377778 -7.7358491e-05
-0.0048757931 -0.00083222229 -7.7358491e-05
0.0052282601 -0.0001188889 -0.0026924529
0.0051107709 0.0001188889 -0.0026924529
-0.0048757931 -0.0010700001 -7.7358491e-05
-0.0049932818 0.0010700001 -7.7358491e-05
-0.0049932818 0.00083222229 -7.7358491e-05
0.012982533 0.0010700001 -0.00055283017
-0.0052282601 0 -0.0020981133
-0.0056982157 -0.00083222229 -7.7358491e-05
0.010045309 -0.0001188889 -0.0010283019
-0.0056982157 -0.0010700001 -7.7358491e-05
-0.0058157048 0.0010700001 -7.7358491e-05
-0.0058157048 0.00083222229 -7.7358491e-05
-0.0058157048 0.0002377778 -7.7358491e-05
-0.0058157048 -0.00083222229 -7.7358491e-05
0.0099278195 0 -0.0010283019
-0.0058157048 -0.0010700001 -7.7358491e-05
-0.005933194 0.0010700001 -7.7358491e-05
-0.005933194 0.00083222229 -7.7358491e-05
-0.005933194 0.0002377778 -7.7358491e-05
0.0091053965 0.0001188889 -0.0010283019
-0.0052282601 -0.0001188889 -0.0020981133
0.010045309 0.0002377778 -0.0010283019
0.003935881 -0.0001188889 -0.0026924529
-0.0051107709 -0.0001188889 -0.0020981133
0.010162797 0.0002377778 0.00051698112
-0.0051107709 0.0002377778 -0.0020981133
-0.005933194 -0.00083222229 -7.7358491e-05
-0.0074605504 0 -0.0029301888
-0.0074605504 -0.0001188889 -0.0029301888
0.0091053965 -0.0001188889 -0.0010283019
-0.0049932818 0.0002377778 -0.0020981133
-0.005933194 -0.0010700001 -7.7358491e-05
-0.0060506826 0.0010700001 -7.7358491e-05
-0.0060506826 0.00083222229 -7.7358491e-05
-0.0060506826 0.0002377778 -7.7358491e-05
-0.0062856609 0.0002377778 -0.0020981133
0.011220198 0.0001188889 -0.0010283019
-0.0053457487 -0.00083222229 -7.7358491e-05
-0.011455176 0.0010700001 -0.00043396227
-0.0053457487 -0.0010700001 -7.7358491e-05
-0.0054632379 0.0010700001 -7.7358491e-05
-0.0054632379 0.00083222229 -7.7358491e-05
-0.0054632379 0.0002377778 -7.7358491e-05
0.010397775 -0.0001188889 -0.0010283019
-0.0065206387 0 -0.0020981133
0.010280286 0.0002377778 -0.0010283019
-0.0064031496 0.0002377778 -0.0020981133
-0.0054632379 -0.00083222229 -7.7358491e-05
-0.0054632379 -0.0010700001 -7.7358491e-05
-0.005580727 0.0010700001 -7.7358491e-05
-0.0045233262 -0.00083222229 -7.7358491e-05
0.010162797 0.00035666669 -0.0010283019
-0.005580727 0.00083222229 -7.7358491e-05
-0.005580727 0.0002377778 -7.7358491e-05
-0.005580727 -0.00083222229 -7.7358491e-05
-0.005580727 -0.0010700001 -7.7358491e-05
-0.0048757931 0 0.00016037736
-0.0056982157 0.0010700001 -7.7358491e-05
0.010045309 0.00035666669 -0.0010283019
-0.0056982157 0.00083222229 -7.7358491e-05
-0.0056982157 0.0002377778 -7.7358491e-05
0.0073430617 0.0010700001 -0.00090943399
0.010280286 -0.0001188889 0.00051698112
0.011572666 0.0001188889 0.00099245284
-0.003935881 0.0001188889 -0.0029301888
-0.003935881 -0.0001188889 -0.0029301888
-0.0032309471 -0.0010700001 -7.7358491e-05
-0.0033484362 0.0010700001 -7.7358491e-05
-0.0065206387 0 0.00099245284
-0.0033484362 -0.0002377778 -7.7358491e-05
-0.012042621 0.0010700001 -0.00043396227
-0.0033484362 -0.0010700001 -7.7358491e-05
-0.0034659251 0.0010700001 -7.7358491e-05
0.0065206387 -0.0001188889 0.0012301886
0.0067556165 0.0010700001 -0.00090943399
0.0068731057 -0.0010700001 -0.00090943399
0.010045309 0.0002377778 -0.0026924529
-0.0034659251 -0.0002377778 -7.7358491e-05
-0.0032309471 -0.0002377778 -7.7358491e-05
-0.0034659251 -0.0010700001 -7.7358491e-05
-0.003583414 0.0010700001 -7.7358491e-05
0.012865044 -0.0009511112 -0.00055283017
0.0064031496 -0.0002377778 0.0012301886
0.0088704182 0.0002377778 -0.0026924529
-0.003583414 -0.0002377778 -7.7358491e-05
0.0088704182 -0.0002377778 -0.0026924529
-0.0065206387 -0.0001188889 0.00016037736
-0.003583414 -0.0010700001 -7.7358491e-05
-0.0037009032 0.0010700001 -7.7358491e-05
-0.011925132 0.0010700001 -0.00043396227
-0.0065206387 0 0.00016037736
0.0014686123 0 -0.0028113208
-0.0031134582 -0.0010700001 -7.7358491e-05
-0.0028784801 -0.0002377778 -7.7358491e-05
-0.0028784801 -0.0010700001 -7.7358491e-05
-0.002995969 0.0010700001 -7.7358491e-05
-0.013100022 -0.00059444451 -0.00090943399
0.011337687 0.0001188889 -0.0026924529
-0.002995969 -0.0002377778 -7.7358491e-05
-0.002995969 -0.0010700001 -7.7358491e-05
-0.003583414 -0.0001188889 -0.0029301888
-0.0031134582 0.0010700001 -7.7358491e-05
0.011337687 0 -0.0026924529
-0.0031134582 -0.0002377778 -7.7358491e-05
0.011337687 -0.0001188889 -0.0026924529
-0.01216011 0.0010700001 -0.00043396227
-0.0037009032 -0.0002377778 -7.7358491e-05
-0.011572666 -0.0001188889 -0.0020981133
-0.0076955287 0.0002377778 0.00016037736
-0.0032309471 0.0010700001 -7.7358491e-05
0.0011161454 0 -0.0028113208
0.0066381278 0.0010700001 -0.00090943399
-0.0075780395 -0.0002377778 0.00016037736
0.0067556165 -0.0010700001 -0.00090943399
-0.0038183921 -0.0001188889 -0.0029301888
-0.011455176 -0.0001188889 -0.0020981133
-0.011455176 0 -0.0020981133
-0.0065206387 -0.0001188889 0.00099245284
0.010280286 -0.0001188889 -0.0026924529
0.010162797 0.0002377778 -0.0026924529
0.0061681718 0.0001188889 0.0012301886
-0.0041708588 -0.0002377778 -7.7358491e-05
-0.0051107709 0.0002377778 -0.0029301888
-0.0051107709 -0.0001188889 -0.0029301888
-0.0041708588 -0.0010700001 -7.7358491e-05
-0.0042883479 0.0010700001 -7.7358491e-05
0.012630066 0.0001188889 -0.0010283019
-0.0052282601 0 -0.0029301888
-0.0052282601 -0.0001188889 -0.0029301888
0.012630066 0 -0.0010283019
-0.0042883479 -0.0002377778 -7.7358491e-05
0.0025260132 -0.0001188889 -0.0036433963
-0.011690154 0.0010700001 -0.00043396227
-0.0042883479 -0.0010700001 -7.7358491e-05
-0.004405837 0.0010700001 -7.7358491e-05
0.0062856609 -0.0002377778 0.0012301886
0.0065206387 -0.0001188889 -0.0026924529
-0.004405837 -0.0002377778 -7.7358491e-05
0.0074605504 0 0.00087358488
-0.004405837 -0.0010700001 -7.7358491e-05
-0.0045233262 0.0010700001 -7.7358491e-05
-0.0045233262 0.00083222229 -7.7358491e-05
-0.0045233262 0.0002377778 -7.7358491e-05
-0.0089879073 -0.0001188889 -0.0020981133
0.0064031496 -0.0002377778 -0.0026924529
0.0062856609 0.0002377778 -0.0026924529
0.0062856609 -0.0002377778 -0.0026924529
0.0061681718 0 -0.0026924529
-0.0088704182 0.0002377778 -0.0020981133
-0.003935881 -0.0002377778 -7.7358491e-05
0.0068731057 0.0010700001 -0.00090943399
0.0069905948 -0.0010700001 -0.00090943399
-0.0037009032 -0.0010700001 -7.7358491e-05
-0.0038183921 0.0010700001 -7.7358491e-05
-0.0064031496 0.0002377778 0.00016037736
-0.0038183921 -0.0002377778 -7.7358491e-05
-0.0038183921 -0.0010700001 -7.7358491e-05
-0.003935881 0.0010700001 -7.7358491e-05
0.003583414 0.0001188889 0.0013490566
-0.0061681718 0 0.00016037736
0.0026435021 0 -0.0036433963
0.0026435021 -0.0001188889 -0.0036433963
0.012865044 0 -0.0010283019
-0.011807643 0.0010700001 -0.00043396227
-0.0075780395 -0.0002377778 -0.0029301888
0.0076955287 -0.0002377778 -0.0026924529
-0.003935881 -0.0010700001 -7.7358491e-05
-0.0040533701 0.0010700001 -7.7358491e-05
0.0075780395 0.0002377778 -0.0026924529
-0.0040533701 -0.0002377778 -7.7358491e-05
0.012747555 0.0001188889 -0.0010283019
0.012982533 -0.0009511112 -0.00055283017
-0.0040533701 -0.0010700001 -7.7358491e-05
0.0074605504 0 -0.0026924529
-0.0041708588 0.0010700001 -7.7358491e-05
-0.0049932818 0.0002377778 -0.0029301888
0.0069905948 0.0010700001 -0.00090943399
0.011455176 0.0001188889 0.00099245284
0.0060506826 0.0010700001 -0.0010283019
0.013335 -0.0001188889 -0.00055283017
0.013335 0 -0.00055283017
0.0062856609 -0.0002377778 -0.0010283019
0.0024085243 0 0.00027924529
-0.0082829734 -0.00083222229 -7.7358491e-05
-0.0082829734 -0.0010700001 -7.7358491e-05
-0.0084004626 0.0009511112 -7.7358491e-05
-0.0084004626 0.0002377778 -7.7358491e-05
-0.0084004626 -0.00083222229 -7.7358491e-05
-0.0084004626 -0.0010700001 -7.7358491e-05
-0.0085179517 0.0009511112 -7.7358491e-05
-0.0085179517 0.0002377778 -7.7358491e-05
0.013335 0.0001188889 -0.00055283017
0.003583414 0.0001188889 -0.0020981133
-0.0037009032 0.0001188889 0.00016037736
0.0060506826 0.0004755556 -0.0010283019
0.0060506826 0.0001188889 -0.0010283019
0.0060506826 0 -0.0010283019
0.003935881 -0.0001188889 -0.0020981133
0.005933194 0.0010700001 -0.0010283019
-0.0085179517 -0.00083222229 -7.7358491e-05
-0.0086354408 0.0009511112 -7.7358491e-05
-0.0086354408 0.0002377778 -7.7358491e-05
0.0052282601 -0.0001188889 0.0012301886
-0.0086354408 -0.00083222229 -7.7358491e-05
-0.011337687 -0.0001188889 -0.0029301888
-0.008752929 0.0009511112 -7.7358491e-05
-0.008752929 0.0002377778 -7.7358491e-05
-0.0080479952 -0.00083222229 -7.7358491e-05
0.0011161454 0 -0.0026924529
0.0066381278 -0.0001188889 -0.0010283019
-0.0038183921 -0.0001188889 0.00016037736
0.0012336343 0.0001188889 0.0020622641
0.0014686123 0 -0.0020981133
-0.0078130178 -0.00083222229 -7.7358491e-05
-0.0078130178 -0.0010700001 -7.7358491e-05
-0.007930507 0.0009511112 -7.7358491e-05
-0.007930507 0.0002377778 -7.7358491e-05
0.0065206387 -0.0002377778 -0.0010283019
-0.007930507 -0.00083222229 -7.7358491e-05
-0.007930507 -0.0010700001 -7.7358491e-05
-0.0080479952 0.0009511112 -7.7358491e-05
-0.0080479952 0.0002377778 -7.7358491e-05
-0.011455176 0 -0.0029301888
0.0064031496 0.0002377778 -0.0010283019
-0.0080479952 -0.0010700001 -7.7358491e-05
-0.0081654843 0.0009511112 -7.7358491e-05
-0.0081654843 0.0002377778 -7.7358491e-05
0.0075780395 0.0010700001 -0.00090943399
0.0064031496 -0.00035666669 -0.0010283019
0.0011161454 0.0001188889 0.0020622641
-0.0081654843 -0.00083222229 -7.7358491e-05
0.0062856609 0.0002377778 -0.0010283019
-0.0081654843 -0.0010700001 -7.7358491e-05
-0.0082829734 0.0009511112 -7.7358491e-05
-0.0082829734 0.0002377778 -7.7358491e-05
0.0049932818 -0.0002377778 0.0012301886
-0.0092228856 -0.0009511112 -7.7358491e-05
0.0062856609 -0.0002377778 -0.0020981133
0.0053457487 -0.00035666669 -0.0010283019
0.0053457487 -0.0004755556 -0.0010283019
0.0053457487 -0.00059444451 -0.0010283019
0.0062856609 0.0002377778 -0.0020981133
0.0064031496 -0.0002377778 -0.0020981133
0.013335 0.0004755556 -0.00055283017
0.0053457487 -0.00071333337 -0.0010283019
0.0065206387 -0.0001188889 -0.0020981133
0.003583414 0.0001188889 0.00027924529
-0.0093403747 0.0002377778 -7.7358491e-05
-0.0093403747 -0.00083222229 -7.7358491e-05
-0.0093403747 -0.0009511112 -7.7358491e-05
-0.0092228856 -0.00083222229 -7.7358491e-05
-0.0094578629 0.0002377778 -7.7358491e-05
0.0052282601 -0.0002377778 -0.0010283019
0.0052282601 -0.00035666669 -0.0010283019
0.0052282601 -0.0004755556 -0.0010283019
-0.0094578629 -0.00083222229 -7.7358491e-05
-0.0094578629 -0.0009511112 -7.7358491e-05
-0.012630066 0.0001188889 -0.0029301888
-0.012630066 0 -0.0029301888
-0.012630066 -0.0002377778 -0.0029301888
0.0052282601 -0.00059444451 -0.0010283019
-0.0095753521 0.0002377778 -7.7358491e-05
0.011455176 0.0001188889 0.0017056604
0.011455176 0 0.0017056604
-0.0089879073 0.0002377778 -7.7358491e-05
-0.011455176 -0.0002377778 -0.0029301888
-0.008752929 -0.00083222229 -7.7358491e-05
-0.0088704182 0.0009511112 -7.7358491e-05
-0.0088704182 0.0002377778 -7.7358491e-05
-0.011572666 -0.0001188889 -0.0029301888
0.0049932818 -0.0002377778 -0.0020981133
0.0051107709 -0.0002377778 -0.0020981133
0.0051107709 0.0001188889 -0.0020981133
-0.0088704182 -0.00083222229 -7.7358491e-05
0.0052282601 -0.0001188889 -0.0020981133
0.0054632379 -0.0001188889 -0.0010283019
-0.0089879073 0.0009511112 -7.7358491e-05
0.013335 0.0002377778 -0.00055283017
0.0011161454 0 -0.0020981133
-0.0089879073 -0.00083222229 -7.7358491e-05
-0.0091053965 0.0002377778 -7.7358491e-05
0.0051107709 0.0001188889 0.0012301886
0.0053457487 0.00035666669 -0.0010283019
0.0051107709 -0.0002377778 0.0012301886
-0.0091053965 -0.00083222229 -7.7358491e-05
0.0053457487 0.0001188889 -0.0010283019
-0.0092228856 0.0002377778 -7.7358491e-05
0.011572666 0.0001188889 0.0017056604
0.013335 0.00035666669 -0.00055283017
0.0053457487 -0.0002377778 -0.0010283019
0.0061681718 0 -0.0020981133
0.0061681718 0.0001188889 -0.0020981133
-0.0027609912 -0.0001188889 -0.0020981133
-0.0065206387 0.0002377778 -7.7358491e-05
0.0086354408 0.0001188889 -0.0010283019
-0.0065206387 -0.00083222229 -7.7358491e-05
-0.0065206387 -0.0010700001 -7.7358491e-05
0.012630066 0 0.0017056604
-0.0066381278 0.00083222229 -7.7358491e-05
-0.0066381278 0.0002377778 -7.7358491e-05
0.012630066 -0.0001188889 0.0017056604
-0.0066381278 -0.00083222229 -7.7358491e-05
-0.0066381278 -0.0010700001 -7.7358491e-05
-0.0067556165 0.00083222229 -7.7358491e-05
0.0065206387 0.0001188889 0.00099245284
0.0065206387 -0.0001188889 0.00099245284
-0.0067556165 0.0002377778 -7.7358491e-05
-0.0065206387 0.00083222229 -7.7358491e-05
0.0078130178 0.0001188889 -0.0010283019
0.0075780395 0.0002377778 0.00087358488
-0.0025260132 0.0001188889 -0.0020981133
-0.0067556165 -0.00083222229 -7.7358491e-05
-0.0067556165 -0.0010700001 -7.7358491e-05
-0.0068731057 0.00083222229 -7.7358491e-05
-0.0068731057 0.0002377778 -7.7358491e-05
-0.0068731057 -0.00083222229 -7.7358491e-05
0.0024085243 -0.0001188889 -0.0026924529
-0.0068731057 -0.0010700001 -7.7358491e-05
-0.008752929 0 -0.0029301888
-0.008752929 -0.0001188889 -0.0029301888
-0.0069905948 0.00083222229 -7.7358491e-05
-0.0062856609 0.00083222229 -7.7358491e-05
-0.0060506826 -0.00083222229 -7.7358491e-05
-0.0060506826 -0.0010700001 -7.7358491e-05
-0.0061681718 0.0010700001 -7.7358491e-05
-0.0061681718 0.00083222229 -7.7358491e-05
-0.0076955287 0.0002377778 -0.0029301888
-0.0061681718 0.0002377778 -7.7358491e-05
0.010045309 0.0002377778 0.00051698112
0.010045309 0 0.00051698112
0.003583414 0.0001188889 -0.0026924529
0.0088704182 0.0002377778 -0.0010283019
-0.0061681718 -0.00083222229 -7.7358491e-05
0.003935881 -0.0001188889 0.0013490566
-0.0061681718 -0.0010700001 -7.7358491e-05
-0.0062856609 0.0010700001 -7.7358491e-05
-0.0069905948 0.0002377778 -7.7358491e-05
-0.0062856609 0.0002377778 -7.7358491e-05
0.0088704182 -0.0002377778 -0.0010283019
-0.0062856609 -0.00083222229 -7.7358491e-05
-0.0062856609 -0.0010700001 -7.7358491e-05
-0.0064031496 0.00083222229 -7.7358491e-05
-0.003935881 -0.0001188889 -0.0020981133
-0.003935881 0.0001188889 -0.0020981133
-0.0064031496 0.0002377778 -7.7358491e-05
-0.0038183921 -0.0001188889 -0.0020981133
-0.0037009032 0 -0.0020981133
-0.0037009032 0.0001188889 -0.0020981133
-0.0064031496 -0.00083222229 -7.7358491e-05
-0.0064031496 -0.0010700001 -7.7358491e-05
-0.0075780395 0.00083222229 -7.7358491e-05
0.0073430617 0.0001188889 -0.0010283019
-0.0073430617 0.0009511112 -7.7358491e-05
-0.0073430617 0.00083222229 -7.7358491e-05
-0.0073430617 0.0002377778 -7.7358491e-05
-0.0073430617 -0.00083222229 -7.7358491e-05
-0.0064031496 0.0002377778 0.00099245284
-0.0073430617 -0.0010700001 -7.7358491e-05
-0.0074605504 0.0009511112 -7.7358491e-05
-0.0074605504 0.00083222229 -7.7358491e-05
-0.0074605504 0.0002377778 -7.7358491e-05
-0.0074605504 -0.00083222229 -7.7358491e-05
-0.0074605504 -0.0010700001 -7.7358491e-05
-0.0075780395 0.0009511112 -7.7358491e-05
-0.0072255726 -0.0010700001 -7.7358491e-05
-0.0075780395 0.0002377778 -7.7358491e-05
0.0013511233 0.0001188889 0.0020622641
0.0013511233 0 0.0020622641
-0.0075780395 -0.00083222229 -7.7358491e-05
-0.0075780395 -0.0010700001 -7.7358491e-05
-0.0076955287 0.0009511112 -7.7358491e-05
-0.0076955287 0.00083222229 -7.7358491e-05
-0.0076955287 0.0002377778 -7.7358491e-05
0.0067556165 -0.00083222229 -0.0010283019
-0.0076955287 -0.00083222229 -7.7358491e-05
-0.0076955287 -0.0010700001 -7.7358491e-05
-0.0078130178 0.0009511112 -7.7358491e-05
-0.0078130178 0.0002377778 -7.7358491e-05
-0.0012336343 0.0001188889 0.00087358488
-0.003935881 -0.0001188889 0.00016037736
0.0074605504 0.0010700001 -0.00090943399
0.0076955287 -0.0002377778 -0.0010283019
-0.0088704182 0.0002377778 -0.0029301888
-0.0088704182 -0.0002377778 -0.0029301888
-0.0069905948 -0.00083222229 -7.7358491e-05
-0.0069905948 -0.0010700001 -7.7358491e-05
-0.0071080835 0.0009511112 -7.7358491e-05
-0.0071080835 0.00083222229 -7.7358491e-05
0.0011161454 0 0.00027924529
0.0075780395 0.0002377778 -0.0010283019
-0.0089879073 0.0002377778 -0.0029301888
-0.003935881 0.0001188889 0.00016037736
0.0014686123 0 -0.0026924529
-0.012982533 -0.00059444451 -0.00090943399
0.0075780395 -0.0002377778 -0.0010283019
0.0075780395 -0.00035666669 -0.0010283019
-0.0011161454 0.0001188889 -0.0020981133
-0.0071080835 0.0002377778 -7.7358491e-05
0.013217511 -0.0004755556 -0.00055283017
-0.0071080835 -0.00083222229 -7.7358491e-05
0.013217511 -0.00035666669 -0.00055283017
-0.0071080835 -0.0010700001 -7.7358491e-05
-0.0072255726 0.0009511112 -7.7358491e-05
-0.0072255726 0.00083222229 -7.7358491e-05
-0.0072255726 0.0002377778 -7.7358491e-05
0.013217511 -0.0002377778 -0.00055283017
-0.0072255726 -0.00083222229 -7.7358491e-05
-0.0076955287 0.0002377778 0.00063584908
0.0014686123 -0.0002377778 -7.7358491e-05
0.0014686123 -0.0010700001 -7.7358491e-05
0.0013511233 0.0010700001 -7.7358491e-05
0.0049932818 -0.0002377778 -0.002216981
0.0051107709 -0.0002377778 -0.002216981
-0.01098522 0.0002377778 -0.00090943399
0.0013511233 -0.0002377778 -7.7358491e-05
0.0052282601 -0.0001188889 -0.002216981
-0.01098522 0.0001188889 -0.00090943399
-0.01098522 0 -0.00090943399
0.0013511233 -0.0010700001 -7.7358491e-05
0.0012336343 0.0010700001 -7.7358491e-05
-0.0089879073 0.0002377778 -0.0025735849
0.0012336343 -0.0002377778 -7.7358491e-05
-0.0088704182 0.0002377778 -0.0025735849
0.0012336343 -0.0010700001 -7.7358491e-05
0.0011161454 0.0010700001 -7.7358491e-05
-0.0038183921 -0.0001188889 0.00099245284
-0.0089879073 -0.0001188889 -0.0025735849
0.0011161454 -0.0002377778 -7.7358491e-05
-0.011337687 0.0001188889 0.0011113208
-0.011337687 0 0.0011113208
0.0011161454 -0.0010700001 -7.7358491e-05
0.00099865638 0.0010700001 -7.7358491e-05
0.00099865638 -0.0002377778 -7.7358491e-05
-0.011102709 0.0002377778 -0.00090943399
0.00099865638 -0.0010700001 -7.7358491e-05
0.00088116742 0.0010700001 -7.7358491e-05
0.0015861014 0.0010700001 -7.7358491e-05
0.012630066 0.0001188889 4.1509433e-05
-0.010750243 0.0001188889 -0.00090943399
0.0088704182 0.0002377778 0.00016037736
-0.0025260132 0 0.0018245283
0.003935881 -0.0001188889 -0.002216981
-0.010750243 0 -0.00090943399
-0.010750243 -0.0001188889 -0.00090943399
-0.010750243 -0.0002377778 -0.00090943399
-0.010750243 -0.00035666669 -0.00090943399
0.0017035903 -0.0002377778 -7.7358491e-05
-0.0025260132 0.0001188889 0.0018245283
0.0058157048 0.0010700001 -0.00090943399
0.005933194 -0.0010700001 -0.00090943399
0.0017035903 -0.0010700001 -7.7358491e-05
0.005933194 0.0010700001 -0.00090943399
-0.003935881 -0.0001188889 0.00099245284
-0.010867732 0.00083222229 -0.00090943399
0.0015861014 -0.0002377778 -7.7358491e-05
-0.010867732 0.0002377778 -0.00090943399
-0.010867732 0.0001188889 -0.00090943399
0.0015861014 -0.0010700001 -7.7358491e-05
0.0014686123 0.0010700001 -7.7358491e-05
-0.003935881 0.0001188889 0.00099245284
-0.010867732 0 -0.00090943399
-0.010867732 -0.0001188889 -0.00090943399
-0.008752929 0 -0.0025735849
-0.010867732 -0.0002377778 -0.00090943399
-0.008752929 -0.0001188889 -0.0025735849
0.0076955287 -0.0002377778 -0.002216981
0.00052870042 0.0010700001 -7.7358491e-05
-0.012630066 -0.0002377778 0.0011113208
0.0061681718 -0.0010700001 -0.00090943399
-0.012747555 0.0001188889 0.0011113208
-0.0024085243 -0.0001188889 0.0018245283
0.0011161454 0 -0.0029301888
0.00052870042 -0.0002377778 -7.7358491e-05
0.00052870042 -0.0010700001 -7.7358491e-05
0.00041121145 0.0010700001 -7.7358491e-05
0.0074605504 0 -0.002216981
-0.0037009032 0 -0.0035245284
0.0075780395 0.0002377778 -0.002216981
-0.011337687 0.0002377778 -0.00090943399
0.00041121145 -0.0002377778 -7.7358491e-05
0.00064618944 -0.0010700001 -7.7358491e-05
-0.012747555 0 0.0011113208
0.00041121145 -0.0010700001 -7.7358491e-05
0.00029372246 0.0010700001 -7.7358491e-05
0.00029372246 -0.0002377778 -7.7358491e-05
-0.011455176 0.00071333337 -0.00090943399
0.00029372246 -0.0010700001 -7.7358491e-05
0.00017623347 0.0010700001 -7.7358491e-05
0.0061681718 0.0010700001 -0.00090943399
0.0062856609 -0.0010700001 -0.00090943399
0.00017623347 -0.0002377778 -7.7358491e-05
0.00017623347 -0.0010700001 -7.7358491e-05
5.8744492e-05 0.0010700001 -7.7358491e-05
0.012630066 -0.0001188889 0.00099245284
0.00088116742 -0.0010700001 -7.7358491e-05
0.0060506826 -0.0010700001 -0.00090943399
0.0061681718 0 -0.002216981
0.0061681718 0.0001188889 -0.002216981
-0.011455176 -0.0001188889 0.0011113208
-0.003935881 -0.0001188889 -0.0035245284
-0.003935881 0.0001188889 -0.0035245284
0.0062856609 0.0002377778 -0.002216981
-0.011572666 0 0.0011113208
0.0064031496 -0.0002377778 -0.002216981
0.012395088 -0.0010700001 -0.00055283017
0.00088116742 -0.0002377778 -7.7358491e-05
0.0065206387 -0.0001188889 -0.002216981
-0.012747555 0 0.00016037736
-0.012747555 0.0001188889 0.00016037736
0.012630066 0 4.1509433e-05
0.0007636784 0.0010700001 -7.7358491e-05
0.0007636784 -0.0002377778 -7.7358491e-05
0.0007636784 -0.0010700001 -7.7358491e-05
0.00064618944 0.0010700001 -7.7358491e-05
-0.0038183921 -0.0001188889 -0.0035245284
-0.012630066 -0.0002377778 0.00016037736
-0.011220198 0.0002377778 -0.00090943399
-0.012630066 0 0.00016037736
0.00064618944 -0.0002377778 -7.7358491e-05
-0.012630066 0.0001188889 0.00016037736
-0.012630066 0.0001188889 0.0011113208
-0.012630066 0 0.0011113208
0.0060506826 0.0010700001 -0.00090943399
-0.0049932818 0.0002377778 -0.0025735849
0.0025260132 0.0010700001 -7.7358491e-05
-0.010397775 0.00059444451 -0.00090943399
0.010280286 0.0002377778 4.1509433e-05
0.010397775 0 4.1509433e-05
-0.003583414 -0.0001188889 -0.0025735849
-0.010397775 0.0004755556 -0.00090943399
-0.0038183921 -0.0001188889 -0.0025735849
-0.010397775 -0.0002377778 -0.00090943399
0.0088704182 0.0002377778 0.0013490566
0.0025260132 -0.0002377778 -7.7358491e-05
0.0088704182 -0.0002377778 0.0013490566
-0.003935881 0.0001188889 -0.0025735849
0.0056982157 0.0010700001 -0.00090943399
-0.003935881 -0.0001188889 -0.0025735849
-0.010397775 0.00071333337 -0.00090943399
0.0058157048 -0.0010700001 -0.00090943399
-0.0051107709 0.0002377778 -0.0025735849
0.0025260132 -0.0010700001 -7.7358491e-05
0.0024085243 0.0010700001 -7.7358491e-05
-0.010515264 0.00083222229 -0.00090943399
-0.010515264 0.00071333337 -0.00090943399
-0.010515264 0.00059444451 -0.00090943399
-0.0051107709 -0.0001188889 -0.0025735849
0.0024085243 -0.0002377778 -7.7358491e-05
0.003583414 0.0001188889 -0.0029301888
0.012630066 -0.0001188889 0.00051698112
0.0024085243 -0.0010700001 -7.7358491e-05
0.0022910351 0.0010700001 -7.7358491e-05
0.0056982157 -0.0010700001 -0.00090943399
0.010162797 0.0002377778 0.0012301886
-0.0012336343 0.0001188889 0.00063584908
-0.0014686123 -0.0001188889 -0.0025735849
0.0028784801 -0.0010700001 -7.7358491e-05
0.0027609912 0.0010700001 -7.7358491e-05
-0.010280286 0.00071333337 -0.00090943399
-0.0038183921 -0.0001188889 0.00027924529
-0.010280286 0.00059444451 -0.00090943399
-0.010280286 0.0004755556 -0.00090943399
0.010045309 0 4.1509433e-05
0.0027609912 -0.0002377778 -7.7358491e-05
0.005580727 0.0010700001 -0.00090943399
0.0027609912 -0.0010700001 -7.7358491e-05
0.010045309 0.0002377778 0.0012301886
-0.010515264 0.0004755556 -0.00090943399
0.010045309 0 0.0012301886
0.010045309 0.0002377778 4.1509433e-05
0.0026435021 0.0010700001 -7.7358491e-05
0.010162797 0.0002377778 4.1509433e-05
-0.0025260132 0.0001188889 -0.0025735849
0.0026435021 -0.0002377778 -7.7358491e-05
-0.010397775 0.0009511112 -0.00090943399
-0.010397775 0.00083222229 -0.00090943399
0.003935881 -0.0001188889 -0.0029301888
0.0026435021 -0.0010700001 -7.7358491e-05
0.0011161454 0 -0.002216981
0.010280286 0 -0.0036433963
-0.0027609912 -0.0001188889 -0.0025735849
-0.0076955287 0.0002377778 -0.0025735849
-0.010632753 0.0004755556 -0.00090943399
-0.010632753 0.00035666669 -0.00090943399
-0.010632753 0.0002377778 -0.00090943399
0.0020560573 -0.0002377778 -7.7358491e-05
-0.010632753 0.0001188889 -0.00090943399
-0.010632753 0 -0.00090943399
0.0020560573 -0.0010700001 -7.7358491e-05
-0.0074605504 0 -0.0025735849
-0.0074605504 -0.0001188889 -0.0025735849
0.0019385683 0.0010700001 -7.7358491e-05
-0.010632753 -0.0001188889 -0.00090943399
-0.010632753 -0.0002377778 -0.00090943399
-0.010632753 -0.00035666669 -0.00090943399
-0.0075780395 -0.0002377778 -0.0025735849
-0.010632753 0.00059444451 -0.00090943399
0.0019385683 -0.0002377778 -7.7358491e-05
0.0019385683 -0.0010700001 -7.7358491e-05
0.0018210793 0.0010700001 -7.7358491e-05
0.012277599 -0.0010700001 -0.00055283017
-0.010750243 0.0009511112 -0.00090943399
0.0018210793 -0.0002377778 -7.7358491e-05
0.012630066 -0.0001188889 0.0014679246
-0.010750243 0.00059444451 -0.00090943399
-0.010750243 0.0004755556 -0.00090943399
-0.010750243 0.0002377778 -0.00090943399
0.0018210793 -0.0010700001 -7.7358491e-05
-0.012747555 -0.0001188889 -0.0035245284
0.0017035903 0.0010700001 -7.7358491e-05
0.0021735462 -0.0002377778 -7.7358491e-05
-0.0052282601 0 -0.0025735849
0.0025260132 -0.0001188889 0.00087358488
0.0022910351 -0.0002377778 -7.7358491e-05
-0.0052282601 -0.0001188889 -0.0025735849
-0.010515264 0.00035666669 -0.00090943399
0.0022910351 -0.0010700001 -7.7358491e-05
0.0021735462 0.0010700001 -7.7358491e-05
0.01216011 -0.0010700001 -0.00055283017
-0.010515264 0 -0.00090943399
-0.0037009032 0 0.00027924529
-0.0037009032 0.0001188889 0.00027924529
-0.010515264 -0.0001188889 -0.00090943399
-0.010515264 -0.0002377778 -0.00090943399
0.011337687 0 4.1509433e-05
-0.011455176 -0.00071333337 -0.00090943399
0.011337687 0.0001188889 4.1509433e-05
-0.012630066 -0.0001188889 -0.0035245284
0.0024085243 -0.0001188889 -0.002216981
-0.0064031496 0.0002377778 -0.0025735849
-0.0026435021 0.0001188889 0.0018245283
0.0021735462 -0.0010700001 -7.7358491e-05
-0.0065206387 0 -0.0025735849
0.0020560573 0.0010700001 -7.7358491e-05
-0.0065206387 -0.0001188889 -0.0025735849
0.011572666 -0.0001188889 4.1509433e-05
0.011572666 0.0002377778 4.1509433e-05
-0.003583414 -0.0001188889 0.00027924529
-0.010632753 0.00071333337 -0.00090943399
-0.012395088 -0.0010700001 -0.00090943399
-0.012395088 -0.0001188889 -0.00090943399
-0.012395088 -0.0002377778 -0.00090943399
-0.012395088 -0.00035666669 -0.00090943399
-0.0018210793 -0.0002377778 -7.7358491e-05
0.0088704182 0.0002377778 0.0012301886
0.0088704182 -0.0002377778 0.0012301886
0.012630066 0.0001188889 -0.0026924529
-0.0025260132 0 -0.0035245284
-0.0018210793 -0.0010700001 -7.7358491e-05
-0.0019385683 0.0010700001 -7.7358491e-05
-0.012395088 -0.00059444451 -0.00090943399
0.012630066 0 -0.0026924529
0.012630066 -0.0001188889 -0.0026924529
-0.0019385683 -0.0002377778 -7.7358491e-05
-0.012395088 0 -0.00090943399
-0.0019385683 -0.0010700001 -7.7358491e-05
-0.0020560573 0.0010700001 -7.7358491e-05
-0.012512577 0.0002377778 -0.00090943399
-0.0020560573 -0.0002377778 -7.7358491e-05
0.0065206387 0.0010700001 -0.00090943399
0.0066381278 -0.0010700001 -0.00090943399
-0.0020560573 -0.0010700001 -7.7358491e-05
-0.0021735462 0.0010700001 -7.7358491e-05
-0.012512577 -0.0002377778 -0.00090943399
-0.012512577 -0.00035666669 -0.00090943399
0.012630066 0 -0.002216981
-0.012512577 -0.0004755556 -0.00090943399
-0.0088704182 0.0002377778 0.00016037736
-0.012277599 0.0002377778 -0.00090943399
-0.0014686123 -0.0002377778 -7.7358491e-05
-0.0014686123 0 -0.0029301888
-0.012277599 0 -0.00090943399
-0.012277599 -0.0001188889 -0.00090943399
0.011337687 0.0001188889 -0.002216981
0.011455176 0.0001188889 0.00051698112
0.012630066 -0.0010700001 -0.00055283017
-0.0014686123 -0.0010700001 -7.7358491e-05
-0.0015861014 0.0010700001 -7.7358491e-05
-0.0088704182 -0.0002377778 0.00016037736
-0.012277599 -0.0002377778 -0.00090943399
0.011455176 0.0001188889 -0.002216981
-0.012277599 -0.0004755556 -0.00090943399
-0.0024085243 -0.0001188889 -0.0035245284
-0.010280286 0.0001188889 0.0015867924
0.011572666 0.0001188889 -0.002216981
-0.0015861014 -0.0002377778 -7.7358491e-05
-0.0015861014 -0.0010700001 -7.7358491e-05
-0.0017035903 0.0010700001 -7.7358491e-05
-0.0026435021 0.0001188889 -0.0035245284
-0.012277599 -0.0010700001 -0.00090943399
-0.0017035903 -0.0002377778 -7.7358491e-05
-0.0017035903 -0.0010700001 -7.7358491e-05
-0.0018210793 0.0010700001 -7.7358491e-05
-0.012395088 0.00035666669 -0.00090943399
-0.012395088 0.0002377778 -0.00090943399
-0.012395088 0.0001188889 -0.00090943399
0.0074605504 0 0.0012301886
-0.011455176 -0.0001188889 0.0018245283
0.0076955287 -0.0002377778 0.0012301886
-0.0025260132 -0.0010700001 -7.7358491e-05
-0.0026435021 0.0010700001 -7.7358491e-05
-0.012747555 -0.0009511112 -0.00090943399
0.0075780395 0.0002377778 0.0012301886
0.011337687 0.0001188889 0.00051698112
0.011337687 0 0.00051698112
0.011337687 -0.0001188889 0.00051698112
-0.012747555 0 -0.0020981133
-0.012747555 0.0001188889 -0.0020981133
-0.0026435021 -0.0002377778 -7.7358491e-05
0.011455176 0.0001188889 -0.0026924529
-0.012865044 -0.0004755556 -0.00090943399
-0.011455176 0 0.0018245283
-0.012630066 -0.0002377778 -0.0020981133
-0.012630066 0 -0.0020981133
-0.012630066 0.0001188889 -0.0020981133
-0.0026435021 -0.0010700001 -7.7358491e-05
-0.0027609912 0.0010700001 -7.7358491e-05
-0.011572666 0 0.0018245283
-0.012982533 -0.0001188889 -0.00090943399
-0.0027609912 -0.0002377778 -7.7358491e-05
-0.0012336343 0.0001188889 0.00027924529
-0.012982533 -0.00035666669 -0.00090943399
-0.012982533 -0.0004755556 -0.00090943399
-0.0027609912 -0.0010700001 -7.7358491e-05
-0.0028784801 0.0010700001 -7.7358491e-05
0.0037009032 0.0001188889 0.0018245283
-0.0021735462 -0.0002377778 -7.7358491e-05
0.012747555 0.0001188889 -0.002216981
-0.0021735462 -0.0010700001 -7.7358491e-05
-0.0022910351 0.0010700001 -7.7358491e-05
-0.012512577 -0.0010700001 -0.00090943399
-0.012630066 0.0002377778 -0.00090943399
-0.0022910351 -0.0002377778 -7.7358491e-05
-0.0025260132 0.0001188889 -0.0029301888
-0.0022910351 -0.0010700001 -7.7358491e-05
-0.0024085243 0.0010700001 -7.7358491e-05
-0.012630066 -0.00035666669 -0.00090943399
-0.012630066 -0.0004755556 -0.00090943399
-0.012277599 0.00035666669 -0.00090943399
-0.012630066 -0.00059444451 -0.00090943399
-0.012630066 -0.00071333337 -0.00090943399
0.0037009032 0 0.0018245283
-0.012630066 -0.0009511112 -0.00090943399
-0.0024085243 -0.0002377778 -7.7358491e-05
-0.012747555 0.0001188889 -0.00090943399
-0.012747555 0 -0.00090943399
-0.0024085243 -0.0010700001 -7.7358491e-05
0.011572666 0.0001188889 -0.0026924529
-0.0025260132 0.0010700001 -7.7358491e-05
-0.012747555 -0.0004755556 -0.00090943399
-0.012747555 -0.00059444451 -0.00090943399
-0.0025260132 -0.0002377778 -7.7358491e-05
-0.011690154 -0.00059444451 -0.00090943399
-0.011690154 0.0004755556 -0.00090943399
-0.00017623347 -0.0002377778 -7.7358491e-05
-0.011337687 -0.0001188889 -0.0025735849
-0.00017623347 -0.0010700001 -7.7358491e-05
-0.011690154 0 -0.00090943399
-0.0075780395 -0.0002377778 0.00063584908
-0.011690154 -0.0002377778 -0.00090943399
-0.011455176 -0.0002377778 -0.0025735849
-0.011572666 0 -0.0025735849
-0.00029372246 0.0010700001 -7.7358491e-05
-0.011690154 -0.00035666669 -0.00090943399
-0.011690154 -0.0004755556 -0.00090943399
-0.011690154 0.00059444451 -0.00090943399
-0.00029372246 -0.0002377778 -7.7358491e-05
0.0062856609 0.0010700001 -0.00090943399
-0.00029372246 -0.0010700001 -7.7358491e-05
-0.00041121145 0.0010700001 -7.7358491e-05
-0.011807643 0.00071333337 -0.00090943399
-0.011807643 0.0004755556 -0.00090943399
-0.011807643 0.00035666669 -0.00090943399
-0.011807643 0.0001188889 -0.00090943399
-0.00041121145 -0.0002377778 -7.7358491e-05
-0.011807643 -0.0002377778 -0.00090943399
-0.00041121145 -0.0010700001 -7.7358491e-05
-0.00052870042 0.0010700001 -7.7358491e-05
-0.011807643 -0.00035666669 -0.00090943399
-5.8744492e-05 -0.0002377778 -7.7358491e-05
-0.011455176 -0.0002377778 0.0014679246
-0.011455176 -0.00083222229 -0.00090943399
-0.011572666 0 0.00016037736
-0.0025260132 0.0001188889 0.00027924529
-0.011455176 -0.0002377778 0.00016037736
-0.0037009032 0 0.00099245284
-0.0037009032 0.0001188889 0.00099245284
5.8744492e-05 -0.0002377778 -7.7358491e-05
-0.011572666 0.00071333337 -0.00090943399
5.8744492e-05 -0.0010700001 -7.7358491e-05
-0.011572666 0.00059444451 -0.00090943399
-5.8744492e-05 0.0010700001 -7.7358491e-05
-0.011572666 0.0001188889 -0.00090943399
-0.011807643 -0.0004755556 -0.00090943399
-5.8744492e-05 -0.0010700001 -7.7358491e-05
0.0088704182 -0.0002377778 -0.002216981
-0.011337687 -0.0001188889 0.00016037736
-0.011572666 -0.0004755556 -0.00090943399
-0.011572666 -0.00059444451 -0.00090943399
0.0088704182 0.0002377778 -0.002216981
-0.00017623347 0.0010700001 -7.7358491e-05
-0.011572666 -0.00071333337 -0.00090943399
-0.011337687 0 0.00016037736
-0.011337687 0.0001188889 0.00016037736
-0.011572666 -0.00083222229 -0.00090943399
0.012512577 -0.0010700001 -0.00055283017
0.011572666 0.0001188889 0.00051698112
-0.012747555 0 -0.0025735849
-0.00088116742 -0.0010700001 -7.7358491e-05
-0.00099865638 0.0010700001 -7.7358491e-05
-0.012042621 -0.0001188889 -0.00090943399
-0.012042621 -0.0002377778 -0.00090943399
-0.00099865638 -0.0002377778 -7.7358491e-05
-0.00099865638 -0.0010700001 -7.7358491e-05
-0.0011161454 0.0010700001 -7.7358491e-05
-0.0064031496 0 0.0019433962
-0.0064031496 0.0001188889 0.0019433962
0.0064031496 0.0010700001 -0.00090943399
-0.0011161454 -0.0002377778 -7.7358491e-05
-0.0011161454 -0.0010700001 -7.7358491e-05
-0.0012336343 0.0010700001 -7.7358491e-05
-0.012042621 0.0004755556 -0.00090943399
0.0065206387 -0.0010700001 -0.00090943399
-0.0012336343 -0.0002377778 -7.7358491e-05
-0.0012336343 -0.0010700001 -7.7358491e-05
-0.0013511233 0.0010700001 -7.7358491e-05
-0.01216011 0 -0.00090943399
-0.01216011 -0.0001188889 -0.00090943399
-0.0012336343 0.0001188889 -0.0029301888
-0.01216011 -0.0002377778 -0.00090943399
-0.01216011 -0.00035666669 -0.00090943399
-0.0013511233 -0.0002377778 -7.7358491e-05
-0.01216011 -0.0010700001 -0.00090943399
-0.0013511233 -0.0010700001 -7.7358491e-05
-0.0014686123 0.0010700001 -7.7358491e-05
0.010162797 0.0002377778 -0.002216981
0.0064031496 -0.0010700001 -0.00090943399
-0.00052870042 -0.0002377778 -7.7358491e-05
-0.00052870042 -0.0010700001 -7.7358491e-05
-0.00064618944 0.0010700001 -7.7358491e-05
0.0011161454 0 0.0013490566
-0.011925132 0.0009511112 -0.00090943399
-0.00064618944 -0.0002377778 -7.7358491e-05
-0.011925132 0.00059444451 -0.00090943399
-0.00064618944 -0.0010700001 -7.7358491e-05
-0.0007636784 0.0010700001 -7.7358491e-05
-0.011925132 0.0002377778 -0.00090943399
0.010045309 0 -0.002216981
0.010045309 0.0002377778 -0.002216981
-0.011925132 -0.0002377778 -0.00090943399
-0.012747555 0.0001188889 -0.0029301888
-0.0007636784 -0.0002377778 -7.7358491e-05
-0.011337687 0 0.0014679246
-0.012630066 0.0001188889 -0.0025735849
-0.012630066 0 -0.0025735849
0.010280286 -0.0001188889 -0.002216981
-0.012630066 -0.0002377778 -0.0025735849
-0.0007636784 -0.0010700001 -7.7358491e-05
-0.00088116742 0.0010700001 -7.7358491e-05
0.0011161454 0 0.00087358488
-0.011337687 0.0001188889 0.0014679246
-0.012042621 0.00059444451 -0.00090943399
-0.012747555 0.0001188889 -0.0025735849
-0.00088116742 -0.0002377778 -7.7358491e-05
-0.0049932818 -0.0004755556 -0.00019622642
0.010867732 0.0010700001 -0.00090943399
-0.011220198 0.0009511112 -0.00079056603
-0.0089879073 0.00035666669 -0.00019622642
-0.007930507 0.00059444451 -0.00019622642
-0.010515264 0.00071333337 -0.00019622642
-0.010515264 0.00083222229 -0.00019622642
0.01216011 0 -0.00090943399
-0.010515264 0.0010700001 -0.00019622642
0.0051107709 -0.0002377778 -0.0031679245
-0.007930507 0.00083222229 -0.00019622642
-0.003935881 0.0001188889 0.00051698112
-0.0049932818 -0.00059444451 -0.00019622642
-0.011220198 0.0010700001 -0.00079056603
-0.003935881 -0.0001188889 -0.0031679245
0.012630066 0 -0.0031679245
0.0075780395 0.0002377778 -0.0011471699
0.003935881 -0.0001188889 -0.0032867924
0.0051107709 0.0001188889 -0.0031679245
0.0011161454 0 -0.0015037736
-0.011337687 0.0001188889 -0.0012660377
-0.0025260132 0.0001188889 0.00039811322
-0.010515264 0.0002377778 -0.00019622642
-0.011220198 0.00059444451 -0.00079056603
-0.012277599 0.0010700001 -0.00055283017
-0.0049932818 0.00059444451 -0.00019622642
-0.011220198 0.00071333337 -0.00079056603
-0.007930507 0.00035666669 -0.00019622642
0.012747555 0.0001188889 -0.0031679245
-0.011337687 0 -0.0012660377
0.012630066 0 -0.0017415094
-0.0049932818 0.00035666669 -0.00019622642
0.010045309 0.0002377778 -0.0034056604
0.010045309 0 -0.0034056604
0.003583414 0.0001188889 -0.0032867924
0.0051107709 -0.0002377778 -0.0016226415
0.0049932818 -0.0002377778 0.0015867924
0.0051107709 0.0001188889 -0.0016226415
-0.011220198 0.00083222229 -0.00079056603
-0.010397775 0.00071333337 -0.00019622642
0.0076955287 -0.0002377778 -0.0011471699
-0.012982533 0.0004755556 -0.00079056603
-0.011102709 0.00035666669 -0.00079056603
-0.012982533 0.00035666669 -0.00079056603
-0.010397775 0.00035666669 -0.00019622642
-0.012395088 0.0010700001 -0.00055283017
0.012865044 0.00035666669 -0.00090943399
-0.010045309 -0.0002377778 -0.0012660377
0.0076955287 -0.0002377778 0.00039811322
0.003935881 -0.0001188889 0.00063584908
-0.010397775 0.00083222229 -0.00019622642
0.0065206387 -0.0001188889 0.0018245283
-0.0089879073 0.0010700001 -0.00079056603
0.0052282601 -0.0001188889 -0.0031679245
-0.0089879073 0.0009511112 -0.00079056603
-0.011102709 0.0004755556 -0.00079056603
0.0075780395 0.0002377778 0.00039811322
-0.011102709 0.00059444451 -0.00079056603
-0.012630066 0 0.00075471698
0.012630066 0.0001188889 -0.0017415094
0.0052282601 -0.0001188889 -0.0016226415
-0.003935881 0.0001188889 -0.0031679245
-0.010397775 -0.00059444451 -0.00019622642
0.01098522 -0.00035666669 -0.00090943399
-0.012630066 0.0001188889 0.00075471698
-0.010397775 -0.0004755556 -0.00019622642
-0.0051107709 0.00059444451 -0.00019622642
-0.0076955287 0.0002377778 0.00051698112
-0.012982533 0.00059444451 -0.00079056603
-0.0051107709 0.00035666669 -0.00019622642
-0.012630066 -0.0002377778 0.00075471698
-0.0075780395 -0.0002377778 0.00051698112
-0.012747555 0.0001188889 0.00075471698
-0.012747555 0 0.00075471698
0.012747555 0.0001188889 -0.0017415094
0.01216011 -0.0010700001 -0.00031509434
0.0049932818 -0.0001188889 -0.0016226415
-0.004758304 0.00059444451 -0.00019622642
-0.0088704182 0.0010700001 -0.00079056603
-0.004758304 0.00035666669 -0.00019622642
-0.0088704182 0.0009511112 -0.00079056603
0.010750243 0.0010700001 -0.00090943399
-0.0088704182 0.00083222229 -0.00079056603
-0.011337687 0.0001188889 0.00087358488
-0.011337687 0 0.00087358488
0.01216011 0.0002377778 -0.00090943399
0.011337687 -0.0001188889 0.00087358488
0.003583414 0.0001188889 -0.0015037736
-0.0089879073 0.00083222229 -0.00019622642
-0.004758304 -0.0004755556 -0.00019622642
-0.004758304 -0.00059444451 -0.00019622642
0.0074605504 0 -0.0011471699
-0.0076955287 0.0001188889 0.0019433962
-0.0025260132 0.0001188889 0.0019433962
-0.0076955287 0 0.0019433962
-0.0046408148 -0.0004755556 -0.00019622642
-0.0046408148 0.00035666669 -0.00019622642
-0.012747555 0.0001188889 -0.0012660377
-0.0038183921 -0.0001188889 0.00051698112
-0.012630066 -0.0002377778 -0.0012660377
0.0049932818 -0.0002377778 0.0018245283
-0.012630066 0 -0.0012660377
0.0065206387 -0.0001188889 0.0011113208
0.012630066 0.0001188889 -0.0011471699
-0.012630066 0.0001188889 -0.0012660377
0.012277599 -0.0010700001 -0.00031509434
-0.0046408148 -0.00059444451 -0.00019622642
-0.011337687 0.00083222229 -0.00079056603
-0.0088704182 0.0002377778 -0.0034056604
0.012630066 0 -0.0011471699
-0.011337687 0.0009511112 -0.00079056603
-0.011337687 0.0010700001 -0.00079056603
0.011337687 0 0.00087358488
-0.01216011 0.0010700001 -0.00055283017
0.003935881 -0.0001188889 -0.0015037736
-0.011455176 -0.0001188889 -0.0012660377
-0.0048757931 0.00035666669 -0.00019622642
-0.0075780395 -0.0002377778 0.0017056604
-0.008752929 -0.0001188889 -0.0034056604
0.010867732 -0.0002377778 -0.00090943399
-0.0051107709 0.0002377778 0.0015867924
-0.012982533 0.0009511112 -0.00079056603
-0.010515264 -0.0004755556 -0.00019622642
-0.008752929 0 -0.0034056604
0.01216011 0.0001188889 -0.00090943399
0.0049932818 -0.0002377778 -0.0031679245
-0.0048757931 -0.0004755556 -0.00019622642
-0.011220198 0.00035666669 -0.00079056603
0.0089879073 0.0001188889 0.0018245283
-0.0048757931 -0.00059444451 -0.00019622642
-0.012982533 0.00083222229 -0.00079056603
-0.011220198 0.0004755556 -0.00079056603
0.0051107709 -0.0002377778 0.0015867924
-0.012982533 0.00071333337 -0.00079056603
0.012747555 0.0001188889 -0.0035245284
-0.0088704182 0.00071333337 -0.00079056603
-0.0089879073 0.00071333337 -0.00019622642
-0.0076955287 0.0002377778 0.0017056604
0.0052282601 -0.0001188889 0.0015867924
-0.0051107709 0.0002377778 0.0017056604
0.010045309 0.0002377778 -0.0011471699
-0.0012336343 0.0001188889 0.0011113208
0.012747555 0 -0.0035245284
-0.007930507 0.0010700001 -0.00019622642
-0.0089879073 0.00059444451 -0.00019622642
-0.0076955287 -0.0001188889 0.0019433962
-0.0025260132 0 0.0019433962
0.010280286 0.0001188889 -0.0034056604
0.0024085243 0 0.00063584908
-0.0048757931 0.00059444451 -0.00019622642
-0.010515264 -0.00059444451 -0.00019622642
-0.011572666 0 -0.0012660377
-0.011572666 0 0.00087358488
-0.0054632379 0.00035666669 -0.00019622642
-0.01098522 0.00083222229 -0.00079056603
-0.013100022 0.00071333337 -0.00079056603
0.0011161454 0 -0.0017415094
-0.0037009032 0.0001188889 -0.0015037736
-0.0037009032 0 -0.0015037736
-0.01098522 0.0009511112 -0.00079056603
-0.01098522 0.0010700001 -0.00079056603
0.0064031496 -0.0002377778 -0.0016226415
0.003935881 -0.0001188889 0.0015867924
-0.011572666 -0.0001188889 0.00087358488
-0.0038183921 -0.0001188889 -0.0015037736
-0.0054632379 -0.0004755556 -0.00019622642
-0.0054632379 -0.00059444451 -0.00019622642
0.011102709 0.0010700001 -0.00090943399
-0.010162797 0.00035666669 -0.00019622642
-0.003935881 0.0001188889 -0.0015037736
-0.012630066 0.0010700001 -0.00055283017
0.011102709 -0.00035666669 -0.00090943399
-0.0064031496 0.0002377778 -0.0036433963
-0.012512577 0.0010700001 -0.00055283017
-0.0064031496 0.0001188889 -0.0036433963
0.0062856609 0.0002377778 -0.0016226415
-0.0064031496 0 -0.0036433963
-0.013100022 0.00083222229 -0.00079056603
-0.0053457487 0.00059444451 -0.00019622642
-0.0053457487 0.00035666669 -0.00019622642
0.003583414 0.0001188889 0.0017056604
-0.008752929 -0.0001188889 -0.0012660377
-0.0011161454 0 0.0019433962
-0.0064031496 -0.0001188889 -0.0036433963
0.0011161454 0 -0.0011471699
-0.0053457487 -0.0004755556 -0.00019622642
-0.0089879073 -0.00059444451 -0.00019622642
-0.0053457487 -0.00059444451 -0.00019622642
-0.0054632379 0.00059444451 -0.00019622642
0.0061681718 0.0001188889 -0.0032867924
-0.013100022 0.00059444451 -0.00079056603
-0.0076955287 0.0002377778 -0.0012660377
0.011220198 -0.00035666669 -0.00090943399
-0.010045309 -0.00059444451 -0.00019622642
-0.010867732 0.0009511112 -0.00079056603
-0.005580727 -0.0004755556 -0.00019622642
-0.005580727 -0.00059444451 -0.00019622642
0.0051107709 0.0001188889 0.00075471698
0.0062856609 -0.0002377778 -0.0032867924
-0.0075780395 -0.0002377778 -0.0012660377
-0.0091053965 0.0010700001 -0.00019622642
-0.0091053965 0.0009511112 -0.00019622642
-0.010045309 -0.0004755556 -0.00019622642
-0.0075780395 -0.0002377778 0.00039811322
0.010162797 -0.0001188889 -0.0012660377
0.0051107709 -0.0002377778 0.00075471698
-0.0091053965 0.0010700001 -0.00079056603
0.010162797 0.0002377778 -0.0012660377
-0.003935881 -0.0001188889 -0.0015037736
0.0074605504 0 0.0014679246
-0.010867732 0.00035666669 -0.00079056603
-0.010867732 0.0004755556 -0.00079056603
-0.010867732 0.00059444451 -0.00079056603
-0.010867732 0.00071333337 -0.00079056603
-0.010162797 0.00071333337 -0.00019622642
0.0011161454 0 0.00075471698
-0.0037009032 0.0001188889 -0.0031679245
-0.010162797 0.00083222229 -0.00019622642
-0.0075780395 -0.0002377778 0.0011113208
-0.0076955287 0.0002377778 0.00039811322
0.0065206387 -0.0001188889 -0.0016226415
-0.010162797 0.0009511112 -0.00019622642
-0.005580727 0.00059444451 -0.00019622642
0.0061681718 0 -0.0032867924
-0.010162797 0.0010700001 -0.00019622642
-0.005580727 0.00035666669 -0.00019622642
-0.012747555 0.0001188889 -0.0017415094
-0.0051107709 -0.00059444451 -0.00019622642
0.0088704182 -0.0002377778 -0.0034056604
0.0049932818 -0.0002377778 -0.0032867924
-0.011455176 -0.0002377778 0.00087358488
-0.010280286 -0.00059444451 -0.00019622642
-0.0062856609 0.0001188889 -0.0036433963
-0.0012336343 0.0001188889 0.0014679246
0.01216011 -0.0001188889 -0.00090943399
-0.010280286 -0.0004755556 -0.00019622642
-0.012747555 0 -0.0017415094
0.0088704182 -0.0002377778 0.0018245283
-0.0064031496 0.0002377778 0.0012301886
-0.0075780395 -0.0002377778 0.00099245284
-0.012982533 0 -0.00079056603
0.0051107709 -0.0002377778 -0.0032867924
-0.0038183921 -0.0001188889 -0.0031679245
0.01098522 0.0010700001 -0.00090943399
-0.012630066 -0.0002377778 -0.0017415094
0.0074605504 0 0.00039811322
-0.003583414 -0.0001188889 0.0014679246
-0.012982533 0.0002377778 -0.00079056603
-0.011102709 0.00071333337 -0.00079056603
-0.011102709 0.00083222229 -0.00079056603
-0.010397775 0.0009511112 -0.00019622642
-0.011102709 0.0009511112 -0.00079056603
-0.0011161454 0.0001188889 -0.0015037736
-0.003935881 -0.0001188889 0.00051698112
-0.0051107709 -0.0001188889 0.0017056604
-0.0064031496 0.0002377778 -0.0011471699
0.0088704182 0.0002377778 -0.0034056604
-0.0037009032 0 0.0014679246
-0.0065206387 0 -0.0011471699
-0.0037009032 0.0001188889 0.0014679246
-0.011572666 0 0.00099245284
-0.011572666 -0.0001188889 0.00099245284
-0.0051107709 -0.0004755556 -0.00019622642
-0.011102709 0.0010700001 -0.00079056603
-0.012982533 0.0001188889 -0.00079056603
0.0061681718 0.0001188889 0.0014679246
-0.0089879073 -0.0004755556 -0.00019622642
-0.0065206387 0 0.0012301886
-0.0078130178 -0.0004755556 -0.00019622642
0.0061681718 0 -0.0016226415
-0.0089879073 -0.0001188889 -0.0012660377
0.0061681718 0.0001188889 -0.0016226415
0.0061681718 0 0.0014679246
-0.0052282601 -0.0004755556 -0.00019622642
-0.0052282601 -0.00059444451 -0.00019622642
-0.01098522 0.00035666669 -0.00079056603
-0.01098522 0.0004755556 -0.00079056603
-0.01098522 0.00059444451 -0.00079056603
-0.01098522 0.00071333337 -0.00079056603
-0.010162797 -0.00059444451 -0.00019622642
-0.010162797 -0.0004755556 -0.00019622642
-0.0037009032 0 -0.0031679245
0.0062856609 -0.0002377778 -0.0016226415
-0.0088704182 0.0002377778 -0.0012660377
-0.012982533 -0.0010700001 -0.00079056603
-0.012630066 0 -0.0017415094
0.0052282601 -0.0001188889 -0.0032867924
0.0052282601 -0.0001188889 0.00075471698
-0.0052282601 0.00059444451 -0.00019622642
-0.0013511233 -0.0001188889 0.0019433962
-0.010280286 0.00035666669 -0.00019622642
-0.0025260132 0.0001188889 -0.0015037736
-0.0052282601 0.00035666669 -0.00019622642
-0.012747555 0 -0.0012660377
-0.010280286 0.00071333337 -0.00019622642
-0.010280286 0.00083222229 -0.00019622642
0.010280286 -0.0001188889 -0.0012660377
-0.0078130178 -0.00059444451 -0.00019622642
-0.010280286 0.0009511112 -0.00019622642
-0.010280286 0.0010700001 -0.00019622642
-0.0076955287 0.0002377778 0.0011113208
-0.0062856609 0.0002377778 -0.0011471699
-0.0076955287 0 0.0020622641
0.0011161454 0 -0.0032867924
-0.0038183921 0.0002377778 -0.00019622642
-0.0052282601 0 -0.0034056604
-0.0038183921 -0.00035666669 -0.00019622642
-0.0088704182 0.00035666669 -0.00019622642
-0.0038183921 -0.0004755556 -0.00019622642
-0.012630066 0.0001188889 -0.0030490565
-0.012630066 0 -0.0030490565
-0.0012336343 0.0001188889 -0.0036433963
-0.011690154 0.0010700001 -0.00079056603
0.0011161454 0 0.00039811322
0.0076955287 -0.0002377778 -0.0015037736
-0.012630066 -0.0002377778 -0.0030490565
-0.0052282601 -0.0001188889 -0.0034056604
-0.0089879073 -0.0001188889 0.0017056604
0.0075780395 0.0002377778 -0.0015037736
-0.0038183921 -0.00071333337 -0.00019622642
-0.0012336343 0 -0.0036433963
0.011455176 0.0001188889 0.00075471698
-0.0037009032 -0.00071333337 -0.00019622642
-0.0037009032 0.0004755556 -0.00019622642
0.0064031496 -0.0002377778 0.0015867924
-0.0037009032 0.0002377778 -0.00019622642
-0.0037009032 -0.00035666669 -0.00019622642
