# .PCD v0.7 - Point Cloud Data file format
VERSION 0.7
FIELDS x y z
SIZE 4 4 4
TYPE F F F
COUNT 1 1 1
WIDTH 650
HEIGHT 1
VIEWPOINT 0 0 0 1 0 0 0
POINTS 650
DATA ascii
-0.0076575237 -0.00069444423 -0.0032453185
-0.0074656759 -0.00068666664 -0.0036106247
-0.0074656783 -0.00069999998 -0.0032453127
-0.0076451432 -0.00067777775 -0.0036354165
-0.0076575228 -0.0006944444 -0.0027531306
-0.008124941 0.0012212122 -0.00035482948
-0.0077101546 0.0016268422 -0.00067867822
-0.0077222073 0.0016288875 -0.00029437509
-0.00010817523 0.00062771095 -0.003664759
6.1292129e-05 0.00063636352 -0.0036584511
0.00011922058 -0.00069791666 -0.0036677746
-0.0081277965 -0.0012598045 -0.00030425101
-0.008079594 -0.0015888889 -0.00068593753
-0.0081293201 -0.0012396831 -0.00071054691
0.0051232888 0.00060740742 0.0020411452
0.0063474695 -0.00067948713 0.0020374996
0.0049661552 -0.00063333323 0.0016886513
0.0051508825 -0.0007075849 0.0016857951
0.0076724063 0.00041428563 0.00073593738
0.0081563247 0.00072592561 -0.00026666667
0.0081563285 0.00026315794 -0.00030082252
-0.0012225644 -0.00070641038 -0.0036182408
-0.0013273131 0.00061111106 -0.0036370372
-0.0081253825 0.0011901963 -0.00065119506
-0.007759864 0.0012648328 -0.00068516104
0.00026310756 0.0016326329 -0.00074914464
0.00026310774 0.0016333329 -0.00025937508
0.0017474993 0.0016337393 -0.00074596034
-0.0007564344 0.0016333329 -0.00075156242
-0.0063662636 -0.00050000002 0.0020656248
-0.0065448009 -0.00060000003 0.0020375
-0.0063789277 -0.00065072463 0.0020631792
-0.007620913 -0.00065200002 0.0020689995
-0.0063748769 0.00061666663 0.0020374998
-0.0065447995 0.00059999997 0.0017093751
-0.0076690624 0.00061885972 0.0017154177
-0.0076849335 -0.00050000002 0.0020593749
-0.0076958979 0.00041111102 0.0016437501
-0.007641864 -0.00045079365 -0.0032210932
-0.0076413318 -0.00044242421 -0.0027546154
-0.0076958975 0.00041111102 -0.0027924993
0.00075643434 0.0016333319 -0.00025937497
0.0012497614 0.0016333332 -0.00025937488
-0.0080806902 -0.0015866669 -0.00026921878
-0.0076680686 0.00060940214 -0.0022600947
-0.00723546 0.0016333319 -0.0006859377
-0.0081551494 0.00073008536 -0.0006894712
-0.0076695816 0.00061333354 -0.002753129
-0.0065447995 0.00060000003 -0.0027531241
-0.0065447995 0.00059999997 -0.0022609378
-0.0024112428 -0.00069122808 -0.0035958886
-0.0026091498 -0.00068395055 -0.0036123251
-0.0012607237 -0.00047777779 -0.0035875
0.0063405139 0.00063076924 -0.0036378023
0.0076514008 -0.00062745099 -0.0036178317
0.0076392158 0.00065248227 -0.0036404599
0.0017430873 0.0016333318 -0.000259375
0.0012477629 0.0016311241 -0.00073760375
-0.0065448009 -0.00050000002 0.0020375
-0.0076575247 -0.00069444423 -0.0017359359
-0.0077505563 -0.0016273548 -0.00069702603
-0.0063855494 0.00062807038 0.0017352775
-0.0063803564 0.00063333352 0.001249999
-0.005155894 0.00065164827 0.0012550473
-0.0047359327 -0.0016333332 -0.00025937505
-0.0047359313 -0.0016303033 -0.00073068182
-0.004244817 -0.001632437 -0.00072227354
-0.0052592638 -0.0016321635 -0.00072335528
-0.0074656773 -0.00069999998 0.0020375
-0.0065448005 -0.00059999991 0.0017421874
-0.0074580298 -0.00068449619 0.0017109013
-0.0065448009 -0.00059999997 0.00125
-0.0076575251 -0.00069444452 0.001249999
-0.008156335 -0.00075362297 -0.00026793501
-0.0076528839 -0.0006926739 0.0017295652
-0.0076630078 0.00043333333 -0.0035406251
-0.0065448009 0.00056666671 -0.0035734375
-0.0074656773 -0.00050000002 -0.0035734377
0.0013319821 -0.00058888883 0.0020867188
0.0026451708 -0.00063333334 0.0020375
0.0024666335 -0.00050000002 0.0020375
0.0024432221 -0.00068870053 0.0017115991
0.0011949466 0.00069999992 0.0020785152
-0.00010649591 0.00064444437 0.0020984379
6.5776898e-05 -0.00050000002 0.002103125
6.5776898e-05 0.00063333329 0.0020374998
7.0475187e-05 0.00063015876 0.0017390617
-0.0051397602 0.00064644817 0.0017240758
0.0063918708 -0.00066500006 -0.0035996877
0.0051369444 -0.00070116972 -0.0035855251
0.0051632035 -0.00071880268 -0.0032425148
0.0063864472 -0.00070658437 -0.0032376205
0.0038333316 -0.00062592584 0.0020375
0.0049661552 0.00060000003 0.0020375
0.0026125384 0.00063454552 -0.0036098282
0.0023679652 0.00063333352 -0.0032453171
0.0023832382 0.0006380952 -0.0036109362
0.00013261473 -0.00072365574 -0.0032516692
0.0013352092 -0.00071499153 -0.0027468523
0.0013538518 -0.00069828163 -0.0032578351
0.0076593533 0.00041481477 0.0015671873
0.0076810285 -0.00045616436 0.0017012833
0.0076077562 0.00067599997 0.0020821246
0.0074656773 0.00063333334 0.0020375
0.0027583227 -0.0016321425 -0.00071953132
0.0022366031 -0.0016314067 -0.00072633667
0.0027050746 -0.0011416667 -0.001046875
0.0022364135 0.0016333329 -0.00025937508
0.0063708113 0.00062473112 0.0020671366
0.0052638636 0.0016325626 -0.00072633679
0.004735935 0.0016333329 -0.00025937497
0.0047353818 0.0016307269 -0.00073488115
0.0052621509 0.0016333329 -0.000259375
0.0062488043 0.0016333332 -0.00071875
0.0037503454 0.0016311838 -0.00074415293
0.003749284 0.0016333332 -0.00025937473
-0.0081563368 -0.00076666643 -0.00071875029
-0.0081563303 -0.00028222229 -0.00029437512
-0.0077502918 -0.0016282037 -0.00026568517
-0.0072354595 -0.0016333329 -0.000259375
-0.0076575237 -0.00069444423 0.00075781299
-0.0076496066 -0.00043950608 0.00075781276
0.0076663825 0.00041452982 0.0012567306
-0.0063803559 0.00063333352 -0.0022609364
-0.0065447995 0.00059999997 -0.0032453125
-0.0076649436 0.00061568618 -0.0035715085
-0.0063918335 0.00061317824 -0.003589462
-0.0022364124 -0.0016304357 -0.00074157631
-0.0024008565 -0.0015666666 -0.001046875
-0.0027613721 -0.0016304196 -0.00074026641
-0.0032537945 -0.0016311388 -0.00072738482
-0.0027626297 -0.0016333329 -0.00025937503
-0.0076835654 0.00040833326 -0.002232227
-0.0076356004 -0.00044444433 -0.0022609383
-0.0076818019 0.00040793649 -0.0017031248
-0.0076356004 -0.00044444433 -0.0017359386
-0.003749284 -0.0016333332 -0.000259375
-0.0037479694 -0.0016306668 -0.00072925008
-0.0076695816 0.00061333354 -0.0032453176
-0.0081530642 0.00071431074 -0.00028823636
-0.0076434831 -0.00046458311 0.001692968
-0.007668836 0.00061139261 0.00075947458
-0.0062488019 -0.0016333329 -0.00071875006
-0.0057554781 -0.0016333318 -0.00025937485
-0.0057550347 -0.0016324369 -0.00072227354
0.0037840013 0.000627778 -0.0036165819
0.0051412075 0.00060645153 -0.0036030731
0.0040452783 -0.00044285716 -0.0035875004
0.0049242978 0.00062525249 -0.0035943191
0.0040452788 0.00054000004 -0.0035799998
0.0049497108 -0.00045000002 -0.0035406251
0.0032555545 0.0016312877 -0.00074451696
0.0040452783 0.00056666665 -0.003245313
0.003749283 0.0015666666 -0.001046875
0.0027599919 0.0016315519 -0.00074542093
0.0042426107 0.001630434 -0.00074157602
0.0049054376 0.0011871795 -0.0010468753
0.0012440918 0.00062873529 -0.0022609343
0.0012440896 0.00062873523 -0.0017359341
0.0012440913 0.00062873564 -0.002753132
0.0023679659 0.00063333346 -0.002260936
6.5776869e-05 0.00063333346 -0.0022609381
6.7166504e-05 0.0006323944 -0.0027558969
-0.0063130674 -0.00069541234 0.0017280367
-0.00026310756 0.0016333329 -0.00025937482
-0.0051240199 -0.00050000002 0.0020506249
-0.0074656769 -0.00070000003 -0.0027531241
-0.0074656783 -0.00069999998 -0.0022609378
-0.0072290464 -0.0016312359 -0.0007076062
-0.0067421338 -0.0016333318 -0.00071875006
-0.0076575223 -0.0006944444 -0.0022609341
-0.005137905 0.00062407408 -0.0035770843
-0.0051774592 0.00064999942 -0.0032354759
-0.0038571798 0.00063099415 -0.0035912816
-0.002616703 -0.0007179642 -0.0032455144
-0.0037949253 -0.00070544227 -0.0035962067
-0.0023773627 -0.00071428588 -0.0032484424
-0.0012056199 -0.00072192866 -0.0032470478
-0.0026153291 -0.00071361498 -0.0027535914
-0.0023776942 -0.00070892024 -0.0027531292
-0.0037876021 -0.00072894897 -0.0032454201
-0.0052621537 -0.0016333332 -0.000259375
-0.0051336456 -0.00072852214 0.00075206254
-0.005139566 -0.00072651525 0.0012395587
-0.0074656783 -0.00069999992 0.00075781252
-0.007654238 -0.00050000002 -0.0036106249
-0.0065448009 -0.00050000002 -0.0036062498
0.0012958047 -0.00050000002 0.0020965624
0.0001155794 -0.00066190475 0.002099375
0.0013504444 -0.0006844583 0.0017295033
0.0024384432 0.00068095233 0.0020375
-5.168184e-05 -0.00062380952 0.002065625
-3.2888442e-05 -0.00050000002 0.0020375
-0.0012168725 -0.00050000002 0.0020375
0.0063773687 -0.00048787883 -0.0035823861
0.0076595722 -0.00065652153 0.00075752765
0.00812345 -0.0012305556 -0.00034140615
0.0076821945 -0.0015888888 -0.00034140632
0.0076642218 -0.00066049385 0.0012487839
0.0081556803 -0.0007516559 -0.00030240079
0.0026325707 -0.00067272736 -0.0035928264
0.0038682616 -0.00070098037 -0.0035965974
0.002638665 -0.00044102562 -0.0035835342
0.0017430873 -0.0016333319 -0.000259375
0.0012497616 -0.0016304357 -0.00074157619
0.0017451951 -0.0016303406 -0.0007338943
0.0022350347 -0.0016329339 -0.00026055399
0.0026673945 -0.00071927276 -0.0032373883
0.0052621523 -0.0016333319 -0.0006859377
0.0052292631 -0.0011 -0.001046875
0.0047359336 -0.0016333318 -0.00068593776
0.0038592047 -0.00071212114 0.0017034067
0.0038310336 -0.00043523806 -0.0035818759
0.0013239648 -0.00070881465 -0.002260935
0.0049538221 -0.00065208331 0.001247949
-0.00075643399 -0.0016333318 -0.00025937497
-5.919917e-05 -0.00070666673 0.00075781264
-0.0012108519 -0.00072259776 0.00075747946
0.0022355337 0.0016315518 -0.00074542128
0.0027626294 0.0016333329 -0.00025937497
0.006311316 0.000646564 0.0017356726
0.0051467246 0.00065640983 -0.0032491048
0.007660321 0.00063061249 -0.0022616023
0.0076614846 0.00063179201 -0.0027535101
0.0074547161 0.000611111 -0.0022609381
0.0072354595 0.0016333332 -0.00071875006
0.0081561869 0.00073288841 -0.00071991672
0.0081295697 0.0012341621 -0.00070163055
0.0063049057 0.00064705784 -0.0032453199
0.0051423004 0.00065706216 -0.0027620292
0.0051583615 -0.00044372276 0.0016718737
0.0049455999 -0.00046250003 0.0016437504
0.0076600155 0.00065151486 0.00075840985
0.008079594 0.0015888892 -0.00025937503
0.00812783 0.0012655559 -0.00032500009
0.0076590739 0.00064384087 0.0012464323
0.0077516632 0.0016304338 -0.00025937508
0.007680947 -0.00045151499 0.0012499993
-0.0063803555 0.00063333346 -0.0027531292
-0.0051305983 -0.00050000002 -0.0036390629
-0.0051134373 -0.00066666672 -0.0036033962
-0.0063289721 -0.00067916652 -0.003637013
-0.0040452788 0.00057999999 -0.0035668754
-0.0017430871 -0.0016303787 -0.00073702529
-0.0012475695 -0.0016311116 -0.00073624996
-0.0022364138 -0.0016333332 -0.000259375
0.00012649399 -0.00072179484 -0.0027644881
0.00011745872 -0.0007190475 -0.0022609376
-0.008156334 -0.00026666679 -0.00071875053
-0.0037460756 0.0016317066 -0.00026417678
-0.0037461417 0.0016278119 -0.00070704625
-0.0042426083 0.0016298231 -0.00069802644
-0.0042411359 0.0016298492 -0.00027847488
-0.0022309921 0.0016322352 -0.00073894247
-0.0025899652 0.001125 -0.001046875
-0.0027633777 0.0016306821 -0.00073068199
-0.0032559563 -0.0016333319 -0.00025937503
-0.0025922076 -0.00067575759 0.0020374998
-0.0038282152 -0.00064666662 0.0020374998
-0.0037868053 -0.00072018686 0.0017133006
-0.0042426093 -0.0016333318 -0.00025937488
-0.0037882244 -0.00072862854 -0.0022605367
-0.0037843639 -0.0012022222 -0.0010468754
-0.0076958979 0.00041111108 -0.0032453118
-0.0057524419 0.0016312806 -0.00069300493
-0.0062479028 0.0016324186 -0.00068908412
-0.0063803545 0.00063333364 -0.001735938
-0.00674213 0.0016333319 -0.00068593764
-0.0067395088 0.0012611735 -0.00071089488
-0.0067421338 0.0016333319 -0.00029218759
-0.0076680663 0.00060940196 -0.0017376211
-0.0072316136 0.0012634553 -0.00069176574
-0.0076958975 0.00041111105 0.00125
-0.0076490315 -0.00044999999 0.00125164
-0.0076695816 0.00061333366 0.0012499993
-0.0012115025 -0.00072312827 -0.001736826
-0.0012095639 -0.00072154769 -0.002261491
-0.0072354591 0.0016333318 -0.00029218764
-0.0065447995 0.00060000003 0.00075781252
-0.0067421342 -0.0016333319 -0.00025937505
-0.0063025057 -0.00070196803 0.00075795141
-0.0063026664 -0.00070160971 0.0012499988
-0.0065448005 -0.00060000003 0.00075781252
-0.0061501395 -0.0010333334 -0.001046875
-0.0026416001 0.00061866664 -0.0035839367
0.0051455465 -0.00045151514 -0.0035674719
0.0049661552 -0.00063333334 -0.0035570313
0.0023679659 0.0006333334 -0.0017359381
0.0024666335 0.0010333334 -0.001046875
0.0025455658 0.0011133334 -0.001046875
-0.00012636087 0.00062631594 -0.002753129
-0.00012636089 0.000626316 -0.0032453171
6.6994937e-05 0.0006325104 -0.003247337
0.00075404212 0.0016321208 -0.00074738637
0.0024556706 -0.00044444448 -0.0035734375
-0.0074656783 -0.00069999998 -0.0017359371
-0.0065448005 -0.00059999991 -0.0017359375
-0.0038355964 0.00062613463 -0.0032420841
-0.0038333323 0.00062592578 -0.0022609343
-0.003252011 0.0016288873 -0.00072575005
-0.0038333328 0.00062592613 -0.0027531313
-0.005167284 0.00065259234 -0.0022637055
-0.0040452783 0.00056666677 -0.0022609381
-0.00075643428 0.0016333319 -0.00025937505
-0.001249761 0.0016333346 -0.00075156224
-0.0012497612 0.0016333332 -0.00025937482
-0.0023773615 -0.00071428576 -0.0022578107
-0.0037891197 -0.00072816794 -0.0027531337
-0.0040452783 -0.00060000003 -0.003245313
-0.0040452788 -0.00060000003 -0.0035406251
-0.0051335879 -0.00063333329 0.0020374998
-0.0074560512 -0.00069024391 0.0012451976
-0.0065448009 -0.00058333331 -0.0036226565
0.00381506 -0.00050000002 0.0020375
0.0038084823 0.00061555556 0.0020374996
0.0025570765 0.0006416667 0.0020375
0.0012419884 0.00063181797 0.0017296565
0.0012440913 0.0006287357 0.001249999
-0.0013356643 0.00062769512 0.0017286355
-0.0013319822 0.00056666665 0.002053906
-0.0049573854 0.00059333333 0.0017640626
-0.0049661552 0.00056666677 0.00125
0.0063886861 -0.00071644445 -0.0027522547
0.0063857655 -0.0007025316 -0.0022625958
0.0076677022 -0.00064285705 -0.0022609383
0.0065448 -0.0006333334 -0.0022609378
0.0065448 -0.00063333329 -0.0027531248
0.0081553375 0.00023367009 -0.00072140153
0.0076652006 0.00041111105 -0.0017818746
0.0076809451 -0.00045151505 -0.0032453125
0.0076465644 -0.00046666671 -0.0035775388
0.0076510492 0.00041515144 -0.0031528405
0.007667704 -0.00064285711 -0.0032453148
0.0065448 -0.00063333323 -0.0032190625
0.0065448 -0.00063333329 -0.0017359373
0.0063850549 -0.00069740257 -0.0017359379
0.0072354618 0.0016333332 -0.00025937494
0.0076591368 -0.00064771232 0.0017170941
0.0076741017 -0.00045261037 0.00076057995
0.0012497625 -0.0016333332 -0.00025937491
0.0024439895 -0.0006945355 0.0012478479
0.0026653234 -0.00072233664 -0.0027477194
0.0038439338 -0.00072535174 -0.002752516
0.0037821718 0.00063333259 -0.002753133
0.0040452783 0.00056666671 -0.002753125
0.0057554776 -0.001633332 -0.00029218753
0.0052621518 -0.0016333318 -0.00029218767
0.0051645986 -0.00072033837 0.00075614476
0.0027611819 -0.0016299781 -0.00027051891
0.0013244369 -0.00071725389 -0.0017334885
0.00011745875 -0.00071904762 -0.0017359375
0.0051672063 -0.00072452793 0.0012490703
0.0063830223 -0.00069099112 0.00075515243
0.0049482165 -0.00065151515 0.0007548295
0.0042426111 0.0016333318 -0.00025937503
0.0049227863 0.00062600744 0.001715143
0.0040452783 -0.00059999997 0.0017093751
0.0047359345 -0.0016333318 -0.00029218764
-0.00026310756 -0.0016333332 -0.00025937488
-5.9199192e-05 -0.00070666673 0.0012499993
0.0032559568 0.0016333319 -0.00025937505
0.0074422625 0.00063107337 0.0016904655
0.0051550181 0.00064587465 0.0017090477
0.0051020938 0.001148889 -0.0010468753
0.0074547152 0.00061111106 -0.0027531248
0.0062159165 0.0010333334 -0.001046875
0.0057515833 0.0016315774 -0.00072738488
0.0063049053 0.00064705778 -0.0022609367
0.0076522208 0.00063187635 0.0017276618
-0.0063022468 -0.00070256373 -0.0027534477
-0.0040452783 -0.00060000003 -0.0027531253
-0.0049661552 0.00060000003 -0.0035406251
-0.0040452783 0.00056666671 -0.003245312
-0.0063803587 0.00043333333 -0.0035406251
-5.7554807e-05 -0.00069791672 -0.0036165046
-5.9199192e-05 -0.00070666667 -0.0017359381
-0.00026310771 -0.0016304357 -0.00074157619
-0.0012497617 -0.0016333332 -0.0002593747
-5.9199177e-05 -0.00070666679 -0.0027531246
0.0024440822 -0.00069523812 -0.0017350005
-0.0065448005 -0.00059999991 -0.0022609374
-0.0065448009 -0.00059999997 -0.0027531248
-0.0081558283 0.00023230774 -0.00071774056
-0.0038333321 0.00062592601 0.001249999
-0.0032559575 0.0016333319 -0.000259375
-0.0026020571 0.00062941178 0.0020606613
-0.003832547 0.00062422774 0.0017298604
-0.0026576014 0.00063046615 0.0017273666
-0.0049661552 0.00056666665 -0.0027531243
-0.0049661552 0.00056666677 -0.0022609381
-0.0040452783 0.00056666671 -0.0027531248
-0.0037888505 -0.00072830659 -0.0017362378
-0.0049661552 -0.0011333333 -0.001046875
7.4746407e-05 0.00062727276 0.00075781264
-0.0052647837 0.001630665 -0.00069512514
-0.0047359369 0.001629823 -0.00069802644
-0.0051832176 0.00065272691 -0.0027516407
-0.0065447995 0.00060000003 -0.001735937
-0.0063021425 -0.0007028004 -0.0017364856
-0.0051257429 -0.00072732219 -0.0017386262
-0.0065447995 0.00060000003 0.0012499997
-0.007690093 0.00040980382 0.00071920943
-0.001336017 0.0006301885 -0.0022535047
-0.00012636089 0.00062631589 -0.0017359386
-0.0013360169 0.00063018873 -0.0017396497
-0.0017430871 0.0016333329 -0.00075156242
-0.0012061992 -0.00072138279 -0.0027501618
-0.0063803559 0.00063333364 0.00075781299
-0.0062488057 -0.0016333329 -0.00025937505
-0.0024427148 0.00054848485 -0.0035823861
-0.0026310757 -0.00046000001 -0.0035799998
0.0037821718 0.00063333218 -0.0032453202
0.0049206163 0.00063333329 -0.0017359387
0.0049206163 0.00063333329 -0.0022609381
0.0037821706 0.0006333323 -0.002260936
0.0026258847 0.00062631594 -0.0027531288
0.002367967 0.00063333346 -0.002753129
-0.00012636086 0.000626316 -0.0022609364
0.0023679656 0.00063333358 0.0007578131
-5.6807316e-05 -0.00047575764 -0.0036181817
0.0026258852 0.00062631594 -0.0032453174
0.0024453006 -0.00068018021 -0.0026679896
0.0024666335 -0.00056666665 -0.0035734377
-0.0049343295 -0.000727957 0.00075816561
-0.0040452783 -0.00060000003 0.00075781241
-0.005137031 -0.00071557949 0.001716506
-0.003830408 0.00060222222 0.0020374996
-0.0050977091 0.00065555557 0.0020375
-0.0011958237 -0.00069199986 0.0020847495
-0.0040452783 -0.00060000003 -0.0017359375
-0.0049319509 -0.00068133324 -0.0035878753
-0.0026639656 0.00063333364 -0.0032453188
-0.0038808375 0.0011761906 -0.0010468753
-0.0040452783 0.00056666671 -0.0017359372
-0.0038219835 0.00062631536 -0.001739388
-0.002663966 0.00063333358 -0.0017359352
-0.0047359364 0.0016333319 -0.00029218761
-0.00378885 -0.00072830642 0.00075791415
-0.0023775918 -0.00071056909 -0.0017383387
-0.0037787091 -0.00048947375 -0.0035924339
-0.0040452788 -0.00050000002 -0.0035406251
0.00012649407 -0.00072179496 0.0012613572
-5.9018981e-05 -0.00069999998 0.0017219596
-0.0012191221 -0.00071571517 0.0017293342
-0.0023810309 -0.00070228305 0.0017237563
-0.0024337452 -0.00066666666 0.0020375
-0.0023775909 -0.00071056903 0.00075861346
-0.0023774279 -0.00071324204 0.0012446051
0.0023723505 0.00063333346 0.0017268728
-0.0012090603 -0.00072375382 0.0012464789
0.0081557781 -0.0002813781 -0.00029567059
0.007677916 -0.00045199995 -0.0027574988
0.0076929079 -0.0015909086 -0.00065312523
0.0081228111 -0.0012153846 -0.00064744614
0.0076677026 -0.00064285734 -0.0017359387
0.0081542218 -0.00026238538 -0.00071333098
0.0076588602 0.00065315253 -0.0032465018
0.0074547143 0.000611111 -0.003245312
0.0065448009 -0.00056666665 -0.0035734377
0.0051648659 -0.00072100764 -0.0017356582
0.0076607722 0.00063948217 -0.0017314755
0.0074547152 0.000611111 -0.0017359374
0.008079594 0.0015888889 -0.00068593753
0.0057554776 0.0016333318 -0.000259375
0.0062488019 0.0016333329 -0.000259375
0.0063049011 0.00064705778 0.0007578131
0.0074370345 0.00062903221 0.0012542331
0.0074437526 0.00062222232 0.00075562519
0.00011745878 -0.00071904762 0.00075781322
0.0051669125 -0.00072369631 -0.0027521991
0.0049570827 -0.00065172411 -0.0027078658
0.0049661552 -0.00063333329 -0.0032453125
0.0051632021 -0.00071851781 -0.0022589704
0.003850206 -0.00072403363 -0.0032389823
0.0072354586 -0.0016333319 -0.00065312523
0.0057554776 -0.0016333319 -0.00068593759
0.0032530774 -0.0016279791 -0.00070629577
0.00265522 -0.00070531887 0.0017212413
0.0026615295 -0.0007185181 0.00075416721
0.0037821736 0.00063333212 0.0007578131
0.0049206181 0.00063333334 0.0012499993
0.0063838433 -0.00069393899 0.0012455245
0.0032534469 -0.0016307874 -0.0002834209
0.00026310759 -0.0016333332 -0.00025937508
0.0037807077 0.00063456671 0.0017339212
0.0065448014 0.00056666671 -0.0036062503
0.0065448 0.00056666665 -0.003245312
0.0065448 0.00057826092 -0.0027559781
0.0065448 0.00056666677 -0.0022609378
0.0065447995 0.00057692308 -0.0017207933
0.0063049025 0.00064705778 -0.0017359329
0.0051467237 0.00065641006 -0.0022596726
-0.0051459232 -0.00072394765 -0.0032277978
-0.0065448005 -0.00060000003 -0.0032453127
-0.0049661552 0.00056666677 -0.0032453125
-0.0063773291 0.00063456054 -0.0032459216
-0.00075643393 -0.001630434 -0.00074157602
0.00026310771 -0.0016304355 -0.00074157654
-0.0017430873 -0.0016333319 -0.00025937503
-5.9199181e-05 -0.00070666667 -0.0022609378
-5.9199181e-05 -0.00070666667 -0.0032453113
-0.008156335 0.00026481485 -0.00030859365
-0.0040452783 0.00056666665 0.00125
-0.0027626294 0.0016333329 -0.00025937517
-0.0032559505 0.0012666687 -0.00075156102
-0.0049343286 -0.00072795706 -0.0017369969
-0.0040452783 -0.00059999991 0.0012499997
-0.0013303236 0.00062874617 0.00075691007
-0.0013353419 0.00062939082 0.001255644
7.4746436e-05 0.00062727282 0.0012499993
0.00075643498 0.0012666691 -0.00075156026
-0.0024374006 0.00061851856 -0.0017359384
-0.0024118195 -0.00046666674 -0.0035734372
-0.0026639667 0.00063333334 -0.0022609376
-0.0013436227 0.00062958838 -0.0027531311
0.0049206186 0.0006333334 -0.0032453141
0.0040452783 0.00056666671 -0.0017359373
0.0026258847 0.00062631606 -0.0022609385
0.0012440908 0.00062873523 0.00075781322
8.0076148e-05 0.00063623197 -0.0017159652
-0.00075643411 0.0012666686 -0.00075156044
-0.00026258553 0.0016322763 -0.00074791658
0.00011296467 -0.00047971017 -0.0036347832
0.0024440824 -0.00069523806 -0.0022562507
0.0026634017 -0.00072991377 -0.0017350926
0.0013114265 -0.00046666668 -0.0036144541
-0.0049344897 -0.00072716048 0.0012499995
-0.0049339989 -0.0007192592 0.0017378111
-0.0040452783 -0.00059999997 0.0016765625
-0.0049332669 -0.00069999998 0.0020375
-0.0038479483 -0.00050000002 0.0020375
-0.0024666335 -0.00050000002 0.0020375
-0.0024666335 0.00053333334 0.0020375
-0.0024392274 0.00060666655 0.0017049995
-0.0049191718 -0.00050000002 -0.0035968754
-0.0026639667 0.00063333352 -0.0027531309
-0.0024374002 0.00061851856 -0.0027531243
-0.0024374006 0.00061851856 -0.0032453111
-0.0026164183 -0.00071686733 -0.0022601453
-0.0026158374 -0.00071504066 -0.0017379386
0.0038427478 -0.0007266663 0.0012493883
0.0040452783 -0.00060000003 0.00075781241
0.0038399913 -0.0007231175 0.00075834244
-0.00013730349 0.00063053641 0.0012568827
-0.00013465656 0.00063207565 0.0017254695
0.00011728147 -0.00071341725 0.0017295969
-0.0024374006 0.00061851856 0.00075781276
0.0023679666 0.00063333346 0.001249999
0.0026258845 0.000626316 0.001249999
0.0026216493 0.00062680669 0.0017277296
0.0076650605 -0.00064305548 -0.0027565428
0.0076498548 0.00040999992 -0.0027728118
0.0076491614 0.00040701745 -0.0022246714
0.008154422 -0.00075419369 -0.00067302439
0.0076809456 -0.00045151508 -0.0017359387
0.0074587525 0.00063684204 -0.0036200662
0.0077429065 0.0016293048 -0.00070289435
0.0051556453 0.00065509503 0.0012554394
0.0065448 0.00056666665 0.0012499997
0.0067421347 0.0016333318 -0.00025937508
0.0065448 0.00056666677 0.00075781241
0.0013370293 -0.00068877864 0.0007444931
0.0040452783 -0.00059999991 -0.002753125
0.0038425995 -0.00072682858 -0.0017356669
0.0039137253 -0.0010733332 -0.001046875
0.0040452788 -0.00060666667 -0.0035931249
0.0049554887 -0.00066036038 -0.0017137666
0.004733067 -0.0012523017 -0.00073393469
0.0062488066 -0.0016333318 -0.00029218767
0.0067389524 -0.0016322568 -0.0002943046
0.0038457555 -0.00072333269 -0.002259841
0.0012440913 0.00062873517 -0.0032453192
0.00075643411 -0.0016333318 -0.00025937494
0.0063049053 0.00064705824 -0.002753133
0.005140462 0.00065733324 -0.0017411854
-0.0049340702 -0.0007292683 -0.0027539243
-0.0049276217 -0.00071481464 -0.0032436561
-0.005157873 0.00065165857 -0.0017326694
-0.0051595583 -0.00072752871 -0.0027466018
-0.0063040839 -0.00070198526 -0.0032423874
-0.006322803 -0.00050000002 -0.003647266
0.0007564337 -0.001630434 -0.00074157608
-0.0040452783 0.00056666677 0.0017093751
-0.0017430875 0.0016333319 -0.00025937497
-0.0049661552 0.00056666671 -0.0017359372
-0.0050757839 -0.0011222223 -0.001046875
-0.005754034 0.0012590273 -0.0007302732
-0.0052621528 0.0016333319 -0.00029218756
-0.0057554799 0.001633332 -0.0002921875
-0.0051646745 0.00065173418 0.00075469527
-0.0062488038 0.0016333319 -0.00029218756
-0.0024374006 0.0006185185 -0.0022609378
0.0026258852 0.00062631606 -0.0017359386
0.0049206181 0.00063333334 -0.0027531239
0.0040452783 0.00056666677 -0.0022609376
0.0026258857 0.00062631583 0.00075781322
0.0026580393 -0.00072252209 -0.0022570922
0.0013268599 -0.000667213 -0.0036094757
-0.0037884025 -0.00072853692 0.0012493082
-0.0026163349 -0.00071655179 0.0012486414
-0.0049661552 -0.00050000002 0.0020375
-0.0025652987 -0.00050000002 0.0020375
-0.001340726 0.00062617887 -0.0032425979
-0.0026639665 0.00063333346 0.00075781322
0.003749284 -0.0016333318 -0.00029218735
0.0026633216 -0.00072941108 0.0012480689
-0.00013134435 0.00062823796 0.00076512783
-0.0024373999 0.0006185185 0.0012499995
-0.0026161293 -0.00071575766 0.00075801206
0.0076809465 -0.00045151508 -0.0022609381
0.0063049057 0.00064705801 0.001249999
0.0051629157 0.0006540225 0.00075781322
0.0013513663 -0.00070260698 0.001245233
0.0067344587 -0.0016322209 -0.00067773456
0.0040452783 -0.00059999991 -0.0022609376
0.0042426079 -0.0016333319 -0.00029218756
0.0042426097 -0.0016333319 -0.00068593759
0.0037821718 0.0006333327 0.0012499988
0.0040452783 0.00056666665 0.00125
0.0040452783 0.00056666665 0.00075781252
0.0040452783 0.00056666677 0.0017093748
0.0065448 -0.00063333334 0.00125
0.0065448 0.0005637682 0.0017322011
-0.0040452783 -0.00060000003 -0.0022609376
-0.0051475852 -0.00072401221 -0.0022682443
-0.0022364131 0.0016333332 -0.00025937494
-0.0051552639 0.0011666667 -0.001046875
0.0040452783 -0.00060000003 -0.0032453123
0.0024419678 -0.00067916664 0.00075371109
0.0012081553 0.00065020099 -0.003622063
-0.0040452783 0.00056666671 0.00075781241
0.0037462148 -0.0016306652 -0.00069556263
-0.0026139931 -0.00070952409 0.00173068
-0.0026639663 0.00063333352 0.001249999
0.0065448009 -0.00050000002 -0.0035734377
0.0067421338 0.0016333319 -0.00071875006
0.0049206186 0.00063333346 0.00075781276
0.0072336635 -0.0016272713 -0.00033275571
0.0065448 -0.00063333334 0.00075781252
0.0062488043 -0.0016333318 -0.0006859377
0.0049477993 -0.00064883719 -0.0022662794
0.0063773678 -0.00067424262 0.0017357222
-0.0049343305 -0.000727957 -0.0022598796
-0.0063025057 -0.00070196844 -0.0022605201
0.0037821706 0.00063333235 -0.0017359328
0.0067407172 0.0012580574 -0.00073507585
0.0072276988 -0.0012588045 -0.00067303219
0.0065448009 -0.00059999997 0.0016710937
-0.0038219823 0.00062631548 0.00075090525
-0.0049661552 0.00056666677 0.00075781241
