# .PCD v0.7 - Point Cloud Data file format
VERSION 0.7
FIELDS x y z
SIZE 4 4 4
TYPE F F F
COUNT 1 1 1
WIDTH 809
HEIGHT 1
VIEWPOINT 0 0 0 1 0 0 0
POINTS 809
DATA ascii
-0.010084741 -0.00075555546 -0.00069819286
-0.010084745 -0.00074666657 -0.0002539336
-0.010086582 0.00074634148 -0.00029183077
-0.010084743 -0.00028123462 -0.00026807241
0.0083000204 -0.00065301592 -0.0035843374
0.0082772365 -0.00070048973 -0.0032326048
0.0096224342 -0.00065301586 -0.0035662651
-0.010081768 0.00029526319 -0.00032266974
-0.0095955553 0.00049111113 0.00074397586
0.004440296 0.00056666665 0.0020722891
0.0057648593 0.00058177777 0.0021026507
0.0057197041 0.00049111113 0.002110241
-0.010084148 -0.00026265971 -0.00070028455
0.010039585 -0.0011786667 -0.00035662652
0.010039187 -0.001183041 -0.0006302789
0.01008474 -0.00075555552 -0.00035662655
0.010081468 -0.00074624782 -0.00061953912
0.0069614812 0.00049111113 0.0020722891
-0.0096101025 -0.0006966223 -0.0032500727
-0.0095940521 -0.00068453333 -0.0036174455
-0.0094184754 -0.00070000009 -0.0036048545
-0.0094074048 -0.00071777782 -0.0032409662
-0.0095955562 0.00049111113 -0.0035445783
-0.0096767573 0.0015767254 -0.00065225112
-0.0096890237 0.0015756987 -0.00033214153
-0.0092633916 0.0016169817 -0.00030040165
-0.0092382869 0.0016159544 -0.00065000693
-0.0082375519 -0.00072160322 -0.0036243238
-0.0069226935 -0.00070964085 -0.0036531789
-0.0069296407 -0.00049111113 -0.0036730305
-0.0082277656 -0.00074729719 -0.0032388456
-0.010080207 0.00073780445 -0.00065383955
-0.010081073 0.00025584473 -0.00069479906
-0.0095849438 0.0006441595 0.0012373492
-0.0094826669 0.00064222224 0.0012373492
-0.0095822047 0.00064709666 0.001707462
-0.010039585 0.0011786667 -0.00035662649
-0.0018894039 0.00067105249 0.0017656781
-0.0020319999 0.00068 0.0020722891
-0.0020638893 0.00069856859 0.0017532367
0.00069883594 -0.00049111113 0.0021048193
0.00063970371 0.00049111113 0.0020722891
0.0017685925 0.00071777776 0.0020722891
0.00058622996 0.00068596494 0.0021002535
-0.00069883594 0.00049111113 0.0021048193
0.010047109 0.0012819259 -0.00029590368
0.010009482 0.0015866667 -0.00028072292
0.010009482 0.0015866667 -0.00069819274
0.0087280106 -0.0012445899 -0.00069623569
0.0082814358 -0.00070970884 -0.0017612113
0.0087038027 -0.0016201669 -0.000670982
0.0094826669 -0.00064222224 -0.0017608436
0.0069541964 -0.0007019355 -0.002759832
0.0071022855 -0.00071777764 -0.003233619
0.0069519486 -0.00069964444 -0.0032359031
-0.0057347547 -0.00049111119 -0.0036470485
-0.010038848 0.0011471545 -0.00064728176
-0.0095864041 0.00063609611 -0.0022644745
-0.010067034 -0.0012200003 -0.00069819286
-0.010071794 -0.0012206694 -0.0002709289
-0.010009482 -0.001548889 -0.00069819274
-0.010009482 -0.0015488889 -0.00028072292
0.0077389823 -0.0016159303 -0.00033524525
0.0071085761 -0.00071319845 0.0012258486
0.0082785152 -0.00071358017 0.00074397586
0.0082772486 -0.00070253987 0.0012399006
0.0057637556 -0.000714553 0.0017274836
0.0069991108 -0.00075555558 0.0020722891
0.0069571631 -0.00068805087 0.0017375668
0.0062465202 -0.0016244442 -0.00028072292
0.0067733349 -0.001624444 -0.00069819303
0.0072625182 -0.0016244442 -0.00069819315
-0.0052681505 -0.0016244443 -0.0007361446
-0.0057527404 -0.0016244443 -0.00073059072
-0.0052681505 -0.001624444 -0.00024277123
-0.0042521479 -0.0016244442 -0.00073614472
-0.0043865396 -0.0016136508 -0.0010397591
-0.0057316995 -0.00068383239 -0.0036138813
-0.0057361671 -0.0007390278 -0.0032409639
-0.0045602415 -0.00070361106 -0.0036204816
-0.0070743705 -0.00069555553 -0.0036428068
-0.0068949033 -0.00075313379 -0.0032433984
-0.0068964879 -0.00075555564 -0.0027475893
0.008278518 -0.00064222224 0.0020722891
0.00707437 0.00049111113 0.0020722891
0.008278518 0.00049111113 0.0020722891
-0.00707437 -0.00049111113 -0.0036584339
-0.0094324937 -0.00049111113 -0.0035951808
-0.0095579261 -0.00049111113 -0.0035825302
-0.0095955553 0.00062962965 -0.0035572294
-0.0096065542 -0.00068988028 0.0012338465
-0.0097184787 -0.001615209 -0.00025542174
-0.0095729772 -0.00049111113 0.0012069879
-0.0096055884 -0.00068377773 0.0017572894
-0.0095704691 -0.00049111113 0.0018572289
0.0057639722 -0.00072222215 0.00074397563
0.005761608 -0.001626161 -0.00028331066
0.0052641025 -0.0016309433 -0.0002929655
0.0052681444 -0.0012523339 -0.00025225896
0.0018930597 -0.00070034171 -0.0017608427
0.0020696295 -0.00071777776 -0.0017608429
0.00189306 -0.00070034183 -0.0022542169
0.00075259263 -0.0016244445 -0.001039759
0.00070847466 -0.00072298868 -0.0017608438
0.0020319999 -0.0012088888 -0.001039759
0.006968122 -0.00070444448 -0.0035892273
0.0069802958 -0.0010766666 -0.001039759
0.0069587929 -0.00069349195 0.00074804225
0.0045155552 -0.00071777776 0.0020722891
0.0045590149 -0.00071777764 0.0017301884
0.00068862212 -0.00065733335 0.00209506
0.0020319999 -0.00068 0.0020722891
0.00071036362 -0.00071106182 -0.0032278937
-0.00043274072 -0.00069888885 -0.003620482
0.0006875961 -0.00068228954 -0.0036388817
0.0017309631 -0.0016244443 -0.0007361446
-0.0087300697 -0.0016244442 -0.00024277117
-0.0092568854 -0.0016244442 -0.00069819298
-0.0092568882 -0.001624444 -0.00024277117
-0.008713006 0.0016228863 -0.00029011315
-0.0094826669 0.00064222224 0.00074397598
-0.0094826669 0.00063777779 0.0017284903
-0.0095955553 0.00049111113 -0.0032409639
-0.0095894318 0.00065100769 -0.0032197819
-0.0082559409 -0.00049111113 -0.0036053015
-0.0094826669 0.00049111113 -0.0035445783
-0.0095955553 0.00049111113 0.0012373495
-0.0006579113 -0.00070754124 -0.0032419446
-0.00062572717 -0.00071130157 -0.0036454215
-0.0018374007 -0.00071238092 -0.0036378312
-0.0032162261 0.00049111125 0.0017508151
-0.0020319999 0.00049111113 0.0020722891
-0.0031985184 -0.00071777776 0.0020722891
-0.0043882653 0.00070938258 0.0017377512
-0.0045531848 0.00068 0.0020722891
-0.0045752702 0.00072434766 0.0017315476
-0.0032366684 0.0007099614 0.0017451186
-0.0020665454 0.00069548265 0.0012398377
-0.0032258865 0.00069177494 0.001238336
-0.0018280544 -0.00069759128 0.0017356485
-0.0029351113 -0.00068 0.0016168676
-0.0020549959 -0.00066950615 0.0012626502
0.0020319999 -0.00049111113 0.0020722891
0.0018814815 -0.00049111113 0.0020722891
0.0095955553 0.00049111113 0.00074397586
0.0096181324 0.00067999982 0.00074397586
0.010084745 0.00030587817 -0.00028806849
0.0095955553 0.00049111113 0.0012373492
0.010078378 -0.0002580595 -0.00033524516
0.010084748 0.0002644445 -0.00069819333
0.010046656 0.0012439361 -0.00069590687
0.010080039 -0.00024319447 -0.00064917176
0.0077517051 -0.0016244443 -0.0006981928
0.010084042 0.00075379014 -0.00024454453
-0.0087188492 0.0016231185 -0.00067821844
-0.0082408888 0.0016244439 -0.00028072298
0.0094826669 -0.00064222224 0.0012373492
0.0094826669 -0.00064222224 0.00074397598
0.0096181305 0.00067999988 0.0012373492
0.0097236643 0.0016193502 -0.00025769597
0.0095926607 0.00049111113 0.0017511583
0.0096042389 -0.00049111113 0.00075857271
0.0096252635 -0.00049111119 0.0012413444
0.0062465183 -0.0016244439 -0.00069819298
0.006970888 0.00065166666 0.0020912648
0.0069043422 0.00073512754 0.0017383132
0.0032361487 0.0016244443 -0.00024277129
0.0037629642 0.0016244444 -0.00073614455
0.0022635665 0.0016249727 -0.00072977511
0.0027469634 0.0016244443 -0.00073614478
0.0032372081 0.001623912 -0.00072812662
0.0030730867 0.0015992592 -0.0010397591
-0.0096051004 -0.00069522386 -0.0022542167
-0.0096046384 -0.00069693476 -0.0027502081
-0.0096071875 -0.00068755547 -0.0017601532
-0.0095955553 0.00049111113 -0.0022542167
-0.0095955553 0.00049111113 -0.0017608433
-0.009727261 -0.0016149994 -0.00069819298
-0.0094074057 -0.0007177777 -0.0017608425
0.0067658843 -0.0016214516 -0.00028523209
0.0057635726 -0.00072271359 0.0012384941
-0.0057197041 -0.00049111113 0.002110241
-0.0043650367 -0.00049111113 0.0020722891
-0.0057519577 -0.00060984126 0.0020939759
-0.0045155552 0.00049111113 0.0020722891
-0.008278518 0.00064222224 0.0020722891
-0.0082691107 -0.00068 0.0020912653
-0.0069649024 -0.00064222224 0.0020998903
-0.0094826669 0.00049111113 0.0016927711
-0.0094826669 -0.00071777776 0.0020722891
-0.00060809474 -0.00067848881 0.0021087229
-0.00060207408 -0.00049111113 0.0020912648
0.00069035898 -0.00069549883 0.0017419147
-0.0037629637 -0.0016244443 -0.00073614484
-0.0054939259 -0.00065733335 -0.0035597594
-0.00707437 0.00071022217 -0.0035901205
-0.00707437 0.00049111113 -0.0035825302
0.0096802227 -0.0015772221 -0.00035662655
0.0096569536 -0.0015767249 -0.00060431205
0.0071073766 -0.0007098245 0.0017207352
0.0070994566 -0.0010451851 -0.001039759
-0.0094133932 -0.00070060597 0.001742798
0.0057627619 -0.00072491972 -0.0032390766
0.0057612266 -0.00072559406 -0.0027475888
0.0037629637 -0.0016244442 -0.00024277123
0.0043982407 -0.00071555545 0.00074397598
0.0032393292 -0.00071884179 0.00074397633
0.00070875598 -0.00071154634 0.0012408717
0.00022577797 -0.0016244443 -0.00024277129
-0.00041810711 -0.00070098753 0.001237349
0.0007122751 -0.00070698402 0.00074397633
0.0020559463 -0.00071090908 -0.0036066808
0.0020690842 -0.00071558775 -0.0032376642
0.0042495956 -0.0016212427 -0.00072070677
0.0037629637 -0.0016244443 -0.00073614425
0.0047369902 -0.0016149993 -0.0002697754
0.004738037 -0.0016205838 -0.00071952329
0.0070837778 -0.00069888891 -0.0036015064
0.0070743696 -0.00049111113 -0.003620482
0.0069087995 -0.00049111113 -0.0035749399
0.0082659749 -0.00049111113 -0.0035698796
0.0043575112 0.00049111113 -0.003620482
0.0045509716 0.00073111104 -0.0035892273
0.0057025384 0.00065150094 -0.0036391234
0.0057376227 0.00049111125 -0.0036566267
0.0071119969 -0.00071777753 -0.0027627721
0.0032402044 -0.00072003988 0.0012400768
0.003236148 -0.0016244442 -0.00024277129
-0.00026340759 -0.0016244442 -0.00024277117
0.00022423154 -0.0016249618 -0.00073458487
-0.0057573314 -0.0016244442 -0.00024277123
-0.0062550697 -0.0016244442 -0.0007102688
-0.0017294171 -0.0016239267 -0.00073458481
-0.0012417777 -0.0016244443 -0.00073614443
-0.001730963 -0.0016244445 -0.001039759
-0.0022593243 -0.001624962 -0.0007345851
-0.0004194779 -0.00069795991 -0.0032397197
-0.00066060876 -0.00070770358 -0.0027450589
-0.00042056642 -0.00069555547 -0.0027498226
0.00071280042 -0.00071994885 -0.0027462794
0.0032451812 -0.00072684453 -0.0017608434
0.0027469643 -0.0016244442 -0.00073614466
0.0012417778 -0.0016244443 -0.00073614455
0.0012417773 -0.0016244439 -0.00024277123
0.0017309636 -0.0016244443 -0.00024277123
0.00075413927 -0.0016239267 -0.00073458487
-0.0018267477 -0.00070747477 0.0012373488
-0.0022577778 -0.0016244442 -0.00024277123
-0.0070743696 -0.00064222224 0.0020722891
-0.0068972553 -0.00070409966 0.001749698
-0.0057361661 -0.00073902757 -0.0027475897
0.0018384762 0.0011441269 -0.0010397591
0.0020696297 -0.00071777764 -0.0022542172
0.0017309632 0.0016244442 -0.00024277117
0.0012417778 0.001624444 -0.00024277112
0.00052681478 0.0015488889 -0.001039759
0.0018267488 0.000707475 -0.0017608429
0.00066424476 0.00070792268 -0.0017608436
0.0012417777 0.0016244439 -0.00073614455
-0.00069821114 0.00069779222 0.0017427203
-0.00070023828 0.00065864739 0.0020986903
-0.0027469636 0.0016244439 -0.00024277129
-0.0032361473 0.0016244443 -0.00024277117
-0.0037629637 -0.0016244442 -0.00024277112
-0.0031582767 -0.00071358006 0.00073923229
-0.0043415618 -0.00070738001 0.00074223476
-0.0032361483 -0.001624444 -0.00024277117
-0.003236149 -0.0016244443 -0.0007361446
-0.0095852949 0.00064222229 0.00074512593
-0.0082900953 0.00067128183 0.0012373488
-0.0082900953 0.00067128189 0.00074397633
-0.0096081002 -0.00068419753 0.00074397563
-0.0094118314 -0.00070888875 0.00074442232
-0.0094103832 -0.0007117932 0.0012373488
-0.0095955553 0.00049111113 -0.0027475907
-0.0095864031 0.00065447448 -0.0027609253
-0.0094826669 0.00060444442 -0.0035445783
-0.0095955553 0.00049111113 0.0016927711
-0.0082900953 0.00067128189 -0.0017608429
-0.0087280078 0.0012445898 -0.00069623586
-0.0094826669 0.00064222224 -0.0017608436
-0.00066305063 -0.00070785091 -0.0017605663
-0.0018267477 -0.00070747489 -0.0022542169
-0.0018267481 -0.00070747483 -0.0017608429
-0.0037629632 0.0016244442 -0.00024277129
-0.0043457728 -0.00070750213 0.0012373497
-0.00045155553 -0.00049111113 0.0020722891
0.00065365009 0.00070404017 0.001743727
0.00075259275 0.0016244442 -0.00024277123
0.00066424446 0.00070792297 0.0012373499
0.00041810708 0.00070098753 0.001730723
0.00042019767 0.00069637038 0.0012424093
0.0096252635 -0.00049111119 -0.003236969
0.0096009327 -0.00065147388 -0.003230121
0.0095955562 -0.00049111113 -0.0035445783
0.0096237781 -0.00049111113 -0.0027475902
0.0096181352 0.00067999988 -0.0027475902
0.0095955553 0.00049111113 -0.0027475907
0.0092300102 -0.0016125706 -0.00061686744
0.0092515862 -0.0012357539 -0.000682168
0.0095988289 -0.00064714975 -0.0022707174
0.0095901815 -0.00064438093 -0.0017684336
0.0095964335 -0.00064222224 -0.0012762957
0.0095980661 -0.00066404929 -0.0027585546
0.0094826669 -0.00064222224 -0.0022542167
0.0096154781 -0.00049111113 -0.0022810064
0.0093896994 0.0007133332 0.00074397621
-0.0082408888 0.001624444 -0.00069819292
-0.0094826669 0.00064222224 -0.0022542162
-0.0094826669 0.00064222224 -0.0027475907
0.0082254484 0.00071390305 -0.0036418904
0.0093924841 0.00071256695 -0.0032350761
0.0082249297 0.00072502828 -0.0032283142
0.0070894221 0.00049111113 -0.0036356631
0.0087300716 0.0016244442 -0.00024277129
0.0092531852 0.0016269215 -0.00024899276
0.0082249213 0.00073768012 0.0012440152
0.0082207629 0.00073710567 0.00074397644
0.00711542 0.00071090885 0.0012373492
0.0096038477 -0.0006665535 0.001239922
0.0096019814 -0.00066065049 0.0016964738
0.0092370836 -0.0016164907 -0.00035662658
0.00707437 0.00064222224 0.0020912648
0.0037629639 0.0016244442 -0.00024277117
0.0042521465 0.0016244444 -0.0007361446
0.0045594564 0.00072407397 0.0012373495
0.004741332 0.0016244442 -0.00024277129
0.0052681486 0.001624444 -0.00024277112
0.0057675964 -0.00049111131 0.0017433733
0.0082408888 -0.0016244439 -0.0006981928
-0.0094074048 -0.00071777776 -0.0027475907
-0.0082283495 -0.0007454814 -0.0027501187
-0.0095852921 -0.00049111113 -0.0022749179
-0.0095830122 -0.00049111113 -0.0017481928
0.0082847131 -0.00068311085 0.0017106311
0.0094826669 -0.00064222224 0.0016927711
-0.0087300697 -0.0016244442 -0.00069819303
-0.0082408888 -0.0016244442 -0.00069819321
-0.0082190139 -0.00074501266 -0.001761727
-0.0071217916 -0.0007157076 -0.0032024924
-0.0071345768 -0.00070833327 -0.0027475907
-0.0071310345 -0.00070888875 -0.0022783277
0.0071107005 -0.00071256695 0.00075051934
0.0077506979 -0.0012560276 -0.00028979109
0.008240887 -0.001624444 -0.00035662658
0.0087300725 -0.0016244438 -0.00035662655
0.0087257512 -0.0012408819 -0.00030033445
0.0045594564 -0.00072407408 0.00074397563
-0.0082303854 -0.00072774931 0.0012388917
-0.0071370876 -0.00068629603 0.001237349
-0.0082178246 -0.00071875262 0.00074666983
-0.0044026664 0.00049111113 0.0020722891
-0.0019567406 0.00049111113 0.0020722891
-0.0018626666 -0.00068000006 0.0020722891
-0.00043650367 -0.00068755553 0.0020722891
-0.0057698763 0.00074296299 0.0020722891
0.0095937653 -0.0006584127 0.00075120491
0.0095997378 -0.00064222218 0.00024722901
0.0096096676 -0.00049111113 0.00022688252
0.0072543817 -0.0016121913 -0.00030534028
-0.0069389031 0.00049111113 -0.0035749399
-0.0069668582 0.0006853969 -0.0035662646
-0.0057812794 0.00067427615 -0.0035836799
-0.0043399539 -0.00073216914 -0.0032409658
-0.0043399525 -0.00073216937 -0.0027475893
-0.0031552559 -0.00073555548 -0.0032421835
-0.0031752242 -0.00070098758 -0.0036168653
-0.0018267484 -0.00070747483 -0.0027475879
-0.0020456838 -0.00071090908 -0.0027613915
-0.007095871 0.00068539678 0.0012373495
-0.0070903809 0.00070652482 0.0017347602
-0.0077517056 0.001624444 -0.00028072303
-0.0077517047 0.0016244442 -0.00069819269
-0.006950656 0.00068983249 0.001237349
-0.0069537163 0.00069499109 0.0017349398
-0.0082913656 0.0006827641 0.0017196153
0.0044089383 0.0012151853 -0.0010397591
0.0057573323 -0.001624444 -0.00069819309
0.0057656965 -0.0011501234 -0.001039759
0.0057612248 -0.00072559383 -0.0022542172
0.0019379257 -0.0011333333 -0.001039759
0.0020669419 -0.00070698414 0.00074397621
0.0022577776 -0.0016244442 -0.00024277117
0.001890889 -0.00067716656 0.0012401958
0.0018912975 -0.00067835738 0.00074232544
-0.00041613958 -0.00069111108 0.00074769661
0.00075259292 -0.0016244442 -0.00024277117
0.0096064787 0.00067999988 -0.003233619
0.0093896976 0.0007133332 -0.0027475902
0.004396393 -0.00072407397 -0.0022542176
0.0045594564 -0.00072407397 -0.0022542172
0.0043963948 -0.00072407397 -0.0027475902
0.0045594554 -0.00072407397 -0.0027475911
0.0045515494 -0.00072434789 -0.00358418
0.0045908145 -0.00049111113 -0.0035635545
0.0018908886 -0.00067291671 -0.0036181095
0.0020470517 -0.00049111113 -0.0036356631
0.0042432928 -0.0016199994 -0.00024946866
0.0069170105 0.00049111113 -0.0036273822
0.0044187931 -0.0011387302 -0.0010397591
0.0043424601 0.000725333 -0.0022542176
0.0045594559 0.00072407397 -0.0022542165
0.0043424601 0.00072533323 -0.0027475879
0.0069712964 -0.00068985502 -0.0017773439
0.0071036364 -0.00071777776 -0.0017650601
0.0069527179 -0.00069500756 0.0012404682
-0.00041911635 -0.00069693482 0.0017503529
-0.0072625186 -0.001624444 -0.00024277123
-0.0067664445 -0.001623912 -0.00072812656
-0.0027469632 -0.001624444 -0.000242771
-0.0027469625 -0.0016244442 -0.00073614478
-0.0029351113 -0.00069717172 0.00072327489
-0.00075259275 -0.0016244443 -0.00024277117
-0.0031560338 -0.00073443243 -0.0022529925
-0.00075259258 -0.0016244444 -0.0007361446
-0.00026340765 -0.0016244442 -0.00073614455
-0.0006611381 -0.00070773554 -0.0022542162
0.00070942944 -0.00072222238 -0.0022553329
0.0018932692 -0.00068409625 -0.0032382216
0.0020673494 -0.00070861937 0.0012407998
0.001888323 -0.00066969672 0.0017686746
0.0032398847 -0.0016244443 -0.00072645454
0.0027469618 -0.0016244439 -0.00024277123
0.003234558 -0.00070500775 0.0017382066
0.0022577774 -0.0016244443 -0.00073614455
-0.0083537772 -0.00049111113 0.0020722891
-0.0057361643 -0.00073902757 -0.0022542174
-0.0057361647 -0.00073902775 -0.0017608455
-0.0068964865 -0.00075555564 -0.0017608438
0.00022577788 0.0016244443 -0.00024277112
0.00075259275 0.0016244444 -0.0007361446
0.0017262596 0.0016244443 -0.0007314008
-0.0020660795 0.00069781969 0.00074039563
-0.001730963 0.0016244442 -0.00024277129
-0.0018883224 0.00066969689 0.00074397551
-0.0047397665 -0.0016228703 -0.00073140051
-0.0095579261 -0.00049111113 0.00070602412
-0.0069144443 -0.0011238889 -0.0010397591
-0.00707437 -0.0011711111 -0.001039759
-0.0071370858 -0.00068629615 0.00074397586
-0.0095892837 -0.00049111113 -0.0032599401
-0.0071171867 -0.00072168576 -0.0017791652
-0.007977481 -0.0010577778 -0.001039759
-0.0057389759 -0.00069336052 0.0017367398
-0.0054688398 -0.00069259258 0.0016674699
-0.0057388879 -0.00071962952 0.0012354908
-0.00455578 -0.00070214545 0.0017281059
-0.0031622918 -0.00070745312 0.001237821
0.0093896994 0.0007133332 -0.0022542172
0.0097272592 0.0016149991 -0.00069819298
0.0096076261 0.00068356394 -0.0017744494
0.0096276114 -0.00044074084 -0.0011943774
0.0094826669 -0.00064222224 -0.0032409639
0.0082785143 -0.00070794945 -0.0022542167
0.009586148 0.00049111113 -0.0017893073
0.0095955553 0.00049111113 -0.0022542167
0.006923853 0.00071897695 -0.0036409632
0.0057376027 0.00073244865 -0.0032210681
0.0068964842 0.0007418181 -0.0032409667
0.0082597034 0.00049111113 -0.0036268076
0.0094251139 0.00067777786 -0.0036160168
0.0082155475 0.00073936488 -0.0022495708
0.0087300725 0.0016244443 -0.00069819292
0.0082353344 0.0016238249 -0.00072867883
0.0082175098 0.00073566067 -0.001757026
0.0093896994 0.00071333343 0.0012373497
0.0082256803 0.00073706842 0.0017569672
0.0077517037 0.0016244444 -0.00024277123
0.0071166377 0.00071674271 0.001739561
0.0068964898 0.00074181805 0.0012373495
0.0082669398 0.00068290601 0.0020839665
0.0094826669 0.00064222224 0.0020722891
0.0095579261 0.00064222218 0.0020722891
0.004252146 0.001624444 -0.00024277112
0.0052712881 0.001623395 -0.00073140045
0.0054939245 0.00068 0.00074397586
0.0045594559 0.00072407397 0.00074397598
0.0057402272 0.00074525276 0.00074397621
0.0054939245 0.00068000006 0.0012373495
0.007115419 0.00071090891 0.00074397586
0.0045594559 0.00072407391 -0.0027475907
0.004342461 0.00072533329 -0.0032409667
0.0029351113 0.00049111113 0.0017307227
0.0029214281 0.00070404029 0.0017203722
0.0020662087 0.00049111113 0.0017134721
-0.0082264189 -0.00074538443 -0.002254219
-0.0081750359 -0.0010483334 -0.0010397591
-0.0095921345 -0.00049111113 -0.0027441401
-0.0095880311 0.00062711106 -0.0017608433
0.0096181333 -0.00049111113 0.0017231324
-0.0094074029 -0.00071777782 -0.0022542174
-0.0082286568 -0.00070804375 0.0017374757
-0.0044152099 0.00059185183 0.0020722891
-0.0017309634 -0.001624444 -0.00024277117
-0.0020549051 -0.00064222229 0.0017158723
-0.00707437 -0.00049111113 0.0020722891
-0.0047428766 0.0016239267 -0.00073458487
-0.0037629637 0.0016244443 -0.00073614425
-0.004252146 0.001624444 -0.00024277106
-0.0047413316 0.0016244442 -0.00024277129
-0.004585437 0.00070698408 0.001237349
-0.0052649328 0.0016199237 -0.00025736802
-0.0045854375 0.00070698402 0.0007439761
0.0057573309 0.0016244439 -0.00024277112
0.0062465188 0.0016244439 -0.00024277123
0.0062531126 0.0016238928 -0.00071952335
0.0094826669 -0.00049111113 0.0016927711
-0.0057812794 0.00049111113 -0.0035928809
-0.0018267477 -0.00070747465 -0.0032409667
-0.0020654483 0.00070098758 -0.0027475897
-0.0020654486 0.00070098764 -0.0032409639
-0.0018883224 0.00066969683 -0.0027475907
-0.0045555071 -0.00072990375 -0.0032409644
-0.0070958724 0.00068539672 0.00074397598
-0.0071305316 -0.00068281905 0.0017222263
0.006896486 0.00074181799 0.00074397586
0.0057719671 -0.00072827155 -0.0035698786
0.0031626397 0.00072392746 -0.0036354833
0.0043515968 0.00069349207 -0.003577108
0.0095955553 0.00049111113 -0.0032409639
0.0043424605 0.0007253334 -0.0017608424
0.0045594564 0.00072407408 -0.0017608436
0.0045155552 0.0011333333 -0.001039759
0.0031608893 0.00073230767 -0.0022542167
0.0044120736 -0.00069888891 -0.0035730419
0.004396772 -0.00072232919 -0.0032382212
0.0045594559 -0.00072407397 -0.0032409639
0.0045531848 0.00049111113 -0.0035825302
0.0054939259 0.00049111113 -0.0035445783
-0.00042333337 -0.00069416658 -0.0017560992
-0.00041947796 -0.00069919857 -0.0022542169
0.0032135702 -0.00049111113 -0.0035901205
0.0043838518 -0.00049111113 -0.0035635545
0.0045594564 -0.00072407397 0.0012373485
0.0043992447 -0.00072121219 -0.0017780942
0.0045155552 -0.0011711111 -0.001039759
0.003160889 0.00073230773 -0.0027475869
0.0020527614 0.00068651343 -0.0017359785
0.0029200597 0.00068755553 -0.0017608436
0.003160889 0.00073230761 -0.0017608434
0.0031608888 0.00073230756 0.0007439761
0.0031608897 0.0007323079 0.0012373504
0.0057612252 -0.00072559388 -0.0017608429
0.0044020698 -0.00070578465 0.0017253017
0.0030856295 -0.00049111113 0.0020722891
0.0031657438 0.00049111131 0.001739293
-0.0062465179 -0.001624444 -0.00024277117
-0.005741708 -0.00071424275 0.00074375444
-0.0068950588 -0.00072369078 0.00074496586
-0.0067733345 -0.0016244442 -0.00024277123
-0.0072628488 -0.0016224381 -0.00070994801
-0.00066218682 -0.00070779881 0.0012383048
-0.00065260532 -0.00070266688 0.0017448188
-0.00067733316 0.00069619075 0.0012373499
-0.0020514219 -0.00069584238 -0.0022542169
-0.00052681478 -0.0015488889 -0.001039759
0.0020651647 -0.0006934462 0.0017545234
0.0019316542 -0.00065481476 0.0020722891
0.0032549629 -0.00069416675 -0.0035849018
0.0032596667 -0.0011758332 -0.0010397591
0.0029200597 0.00068755558 0.0012373492
0.0029200593 0.00068755553 0.00074397598
0.00068569538 -0.00049111119 -0.0036542169
-0.00062088884 -0.00049111113 -0.0036394577
0.0018360866 0.00072017644 -0.0036228909
0.00022577791 0.0016244443 -0.0007361446
-0.00026340756 0.001624444 -0.00024277123
-0.00075259269 0.0016244442 -0.00024277112
-0.00043274072 -0.00049111113 -0.0036015059
-0.00067733333 0.00069619046 -0.001760843
-0.0012417783 0.0016244442 -0.00073614484
-0.00075570692 0.0016239232 -0.00073300366
-0.00067733316 0.00069619063 -0.0022542165
0.0018935226 -0.00069359987 -0.0027450598
-0.0022577778 0.0016244442 -0.00024277117
-0.00071496295 0.0010577778 -0.001039759
-0.0032361497 0.0016244443 -0.0007361442
-0.0047413306 -0.0016244442 -0.00024277129
-0.0045519709 -0.00072508963 0.00074397598
-0.0062465183 0.001624444 -0.00069819309
-0.0082900953 0.00067128177 -0.0022542179
-0.008284024 0.00067354995 -0.0027549951
-0.0094826669 0.00065864733 -0.0032112626
-0.007095871 0.00068539684 -0.0017608427
-0.0070994566 0.0010451851 -0.001039759
-0.0043913173 0.00069019396 0.0007530119
-0.0043809735 0.00069733325 0.001240028
-0.004250566 0.0016206348 -0.00072275009
-0.0044187936 0.0011387302 -0.0010397591
-0.0017309635 0.0016244444 -0.00073614466
-0.0019416887 0.0011106667 -0.001039759
-0.0022577778 0.0016244443 -0.00073614431
-0.0020319999 0.0011333333 -0.001039759
-0.0031567365 -0.00070058223 0.0017404075
-0.0043382621 -0.00068871776 0.0017314529
-0.0045516388 -0.00072709256 0.001237349
-0.0029351113 -0.00069717172 0.0012546004
0.0018267477 0.00070747489 0.0012373502
0.0018267488 0.000707475 0.0007439761
0.0095816925 0.00067403511 -0.0036164867
0.0092568863 0.0016244442 -0.00069819303
0.0096126599 0.00067999988 -0.002251918
0.0095955553 -0.00049111113 -0.0017608433
0.0082785133 -0.00071142253 -0.0027458165
0.0071160658 -0.00071777758 -0.0022542162
0.010084744 0.0007555554 -0.00069819309
0.0054939259 0.00068 -0.0035825302
0.0071057291 0.00068629626 -0.003614156
0.0082158064 0.00073846546 -0.0027475869
0.0071154176 0.00071090891 -0.0022542174
0.0071154181 0.00071090908 -0.0017608432
0.0081750369 0.0010483334 -0.0010397591
0.0082408916 0.001624444 -0.00024277112
0.0096113347 0.00067999988 0.0017417412
0.0067733345 0.0016244442 -0.00024277112
0.006773334 0.0016244443 -0.0007361446
0.0043424601 0.00072533317 0.0012373495
0.0045572524 0.00072186167 0.0017389291
0.0054939259 0.0015488889 -0.001039759
0.0055691851 0.0015488889 -0.001039759
0.0054939245 0.00068000006 -0.0017608433
0.0057402286 0.00074525236 -0.0022542183
0.0057402267 0.00074525247 -0.001760843
0.0047381762 0.001622331 -0.00072977477
0.0054939245 0.00070098758 0.0017180723
0.0057535702 0.0016244442 -0.00072475901
0.0018261129 0.00070752407 0.0017464467
-0.0032361476 0.00068107934 -0.0035792771
-0.0020696295 0.00049111113 -0.003620482
-0.002059367 0.00069717172 -0.0036032312
-0.0032135702 0.00049111113 -0.0035901205
-0.0032169342 0.00069098506 -0.0032441956
-0.0018267487 -0.00070747465 0.00074397598
-0.0069614812 -0.00049111113 0.0020722891
-0.0069322148 0.00049111119 0.0017391568
-0.0070743705 0.00049111113 0.0017686746
-0.0020470517 -0.00049111113 -0.0036356626
-0.0054661389 -0.00072475203 -0.0032526422
-0.0031594324 -0.00072898896 -0.0027468549
-0.0029351113 -0.0007177777 -0.002785542
-0.0054688393 -0.00049111113 -0.0035698796
-0.0072625186 0.0016244437 -0.00028072292
-0.0057698768 0.00069259264 0.0012373495
0.0052663698 -0.0016238495 -0.00070028473
0.005663259 -0.00049111113 -0.0035635545
0.00066424476 0.00070792274 0.00074397633
0.003175 0.00049111113 -0.0036347136
0.002054027 0.00067170738 -0.002254216
0.0095955562 0.00049111113 -0.0035445783
0.0043979632 -0.00071683316 0.0012401954
0.0071154186 0.00071090896 -0.0027475911
0.0045594559 -0.00072407391 -0.0017608425
0.00206963 -0.00071777782 -0.0027475916
0.0031608904 0.00073230767 -0.0032409658
0.0029200597 0.00068755553 -0.0032409639
0.0020512969 0.00068484322 -0.003231233
0.0029200597 0.00068755553 -0.0027475902
0.0020487246 0.00068419753 -0.0027686758
0.0029200597 0.00068755553 -0.0022542167
0.0031590976 0.00073216925 0.0017429221
-0.004339953 -0.00073216937 -0.0017608424
-0.0031543856 -0.00073736632 -0.001760843
-0.0045555076 -0.00072990387 -0.0022514069
-0.00455641 -0.00072857144 -0.0017608434
-0.0068967822 -0.00073462818 0.0012389877
-0.0077517028 -0.0016244442 -0.00024277123
-0.0056516114 -0.0012106878 -0.0010397589
-0.0018883233 0.00066969678 0.0012373492
-0.00068537629 0.00069643761 0.00073673308
-0.0029351113 -0.00071777776 -0.0032789153
-0.0020438833 -0.00070584792 -0.0017748255
-0.0029351113 -0.00071777776 -0.0022997588
0.0032459463 -0.00072537805 -0.0032418636
-0.0045531848 -0.00073333341 -0.0027453592
0.0022577785 0.001624444 -0.00024277117
0.0020575877 0.00068000006 0.0012434215
-0.0018883233 0.00066969672 -0.0032409639
-0.0018814813 0.00049111113 -0.003620482
0.00045155553 -0.00049111113 -0.0035825302
0.0018814813 -0.00049111113 -0.003620482
0.0018480327 0.00049111113 -0.0035867472
-0.0018883225 0.00066969683 -0.0017608433
-0.00067733304 0.0006961904 -0.0032409667
-0.00069470122 0.00067941874 -0.0036403318
0.00042646911 0.00070378598 -0.0036289152
0.00062392355 0.00069340487 -0.0036351713
0.00066322199 0.00070786121 -0.0032395418
-0.0032249168 0.00069127692 0.00074001111
-0.0027469625 0.0016244442 -0.00073614408
-0.0042521469 -0.001624444 -0.00024277117
-0.0057893698 0.0006891893 -0.0032307077
-0.0069501316 0.00069019391 -0.0027421685
-0.0057783611 0.00069111108 -0.002743125
-0.0069539547 0.00068755547 -0.0032409634
-0.0070935842 0.00068884162 -0.003231274
-0.0082758283 0.00066111115 -0.0035825297
-0.0082408888 0.00049111113 -0.0035825302
-0.0057698763 0.00069259258 -0.0022542167
-0.0057546454 0.0016217456 -0.00070768088
-0.0072625196 0.001624444 -0.0006981928
-0.007095872 0.00068539684 -0.0027475907
-0.0002619024 0.0016250483 -0.00073432294
-0.0067733335 0.0016244442 -0.00069819245
-0.0062465169 0.0016244442 -0.00028072298
-0.0045155552 0.001171111 -0.001039759
0.0020582534 0.00067912141 0.0007430932
0.0093896985 0.00071333325 -0.0017608425
0.0094826669 -0.00064222224 -0.0027475907
0.0071369614 0.00072151789 -0.0032439712
0.0068964851 0.00074181799 -0.0027475883
0.0068964879 0.0007418181 -0.0022542183
0.0077609099 0.0016249878 -0.00072303833
0.0072625172 0.0016244439 -0.00024277117
0.0043421076 0.00072309026 0.0017390248
0.0045594559 0.00072407397 -0.0032409639
0.0057402276 0.0007452523 -0.0027475893
0.0054939245 0.00068000006 -0.0022542165
0.0057275575 0.00071943837 0.0017369796
0.0069565726 -0.00070025754 -0.0022586177
0.0020525253 0.00067198655 0.0016950712
-0.0045814067 -0.00049111113 -0.0036109942
-0.0012417777 -0.001624444 -0.00024277123
-0.0020551567 -0.00066547014 0.00073521771
-0.0006618388 -0.00070777786 0.00074341847
0.0093958285 0.00070833333 0.0017394813
-0.0029351111 -0.00049111113 -0.0035445783
-0.0054788729 -0.00072155555 -0.0027855425
-0.0069466573 0.00069259247 0.00074052555
0.0068964884 0.0007418181 -0.0017608419
0.0029351111 0.00068000006 -0.0035445783
0.0018267477 0.00070747489 -0.0022542174
0.00066424464 0.00070792297 -0.0022542174
0.00066424464 0.00070792274 -0.0027475879
0.0018267486 0.0007074746 -0.0027475883
0.0018267474 0.000707475 -0.0032409667
0.0094224587 0.00049111113 -0.0035749399
-0.004339952 -0.0007321692 -0.0022542176
-0.0082408898 -0.0016244442 -0.00024277129
-0.0077487626 -0.0016232637 -0.00070234429
-0.0054853237 -0.00071993656 -0.0017662648
-0.0012417779 0.0016244442 -0.00024277117
-0.0020519216 -0.00069333351 -0.0032476611
0.0032385935 -0.00072660873 -0.0027367454
-0.0018940247 0.00066488894 -0.0036128908
-0.002065449 0.0007009877 -0.0022542169
0.0004201977 0.00069637015 -0.0032485547
-0.00070241967 0.00049111119 -0.0036626509
0.0004205665 0.00069555559 -0.0017630756
0.00042250816 0.00069126702 -0.0022542165
-0.0032159102 0.00069174601 -0.0027472698
-0.004585437 0.00070698402 -0.0022542174
-0.0058354875 0.0011188035 -0.0010397591
-0.004585437 0.00070698414 -0.0032409658
-0.0045809993 0.00069149752 -0.0035775802
-0.0052613085 0.0016227271 -0.00071026839
-0.0057698754 0.00069259253 -0.0017608437
-0.0057541295 0.0016212285 -0.00027103326
-0.0082755918 0.0006766991 -0.003243912
-0.0068964879 -0.0007555554 -0.0022542167
-0.007095871 0.00068539678 -0.0022542169
-0.0069802958 0.0010766666 -0.001039759
-0.0029351113 -0.00071777782 -0.0016849398
0.0043424601 0.00072533329 0.00074397644
0.000418896 0.00069924525 0.00074039551
0.0072574313 0.001624444 -0.00070537312
0.0057402304 0.00074525224 0.0012373516
0.0054850709 0.00069333334 -0.0032543587
-0.0043462212 -0.00068858586 -0.003604956
-0.0054619992 -0.00071205373 0.001237349
-0.00548389 -0.00069259264 0.00077686727
-0.003236148 0.0015866667 -0.001039759
-0.0031990891 0.00069316512 -0.0022542167
-0.0031533628 -0.00049111113 -0.0035977103
-0.0054939245 -0.00071777776 -0.0022542167
-0.0045657279 0.00049111113 -0.0035951808
-0.0067733345 0.001624444 -0.00028072298
-0.0057698768 0.0006925927 0.00074397575
-0.0057698749 0.00071099715 0.001724884
0.0056946161 0.0012340742 -0.0010397588
0.0020487243 0.00065901229 -0.0035698796
0.0029351111 0.00049111113 -0.0035445783
-0.0031447615 -0.0011711111 -0.0010397591
-0.0018199056 -0.00049111113 -0.00359288
-0.0020445429 -0.00060444447 -0.003620482
0.00063101988 0.00049111113 -0.0036379979
0.0032407749 -0.0007266418 -0.0022542183
0.002746962 0.0016244442 -0.00024277106
-0.002065449 0.00070098764 -0.0017608433
0.00042056647 0.00069555553 -0.0027453578
-0.0045854379 0.00070698402 -0.0017608436
-0.0032261142 0.00069091335 -0.0017583113
-0.0069434843 0.00069478247 -0.0017657933
-0.006950656 0.00068983261 -0.0022542169
-0.0018883231 0.00066969672 -0.0022542183
0.0054939245 0.00068000006 -0.0027475911
-0.0029351111 -0.00068 -0.0035445783
-0.0044026668 0.00066380954 -0.0035716868
-0.0043800888 0.00049111113 -0.0035749399
-0.0043424591 -0.00049111113 -0.003605301
0.0069144438 0.0011238889 -0.0010397591
0.0020508147 0.00049111113 -0.0036015064
0.00041392588 0.00049111113 -0.003620482
-0.00067733316 0.00069619046 -0.0027475883
-0.00045155553 0.00049111113 -0.0035445783
-0.0043859417 0.00068209862 -0.0022415675
-0.0045854375 0.00070698396 -0.0027475907
-0.0044026659 0.00066380959 -0.0027584345
-0.004396508 0.00066557573 -0.0032354444
-0.0043897131 0.00068433495 -0.0017651985
