# .PCD v0.7 - Point Cloud Data file format
VERSION 0.7
FIELDS x y z
SIZE 4 4 4
TYPE F F F
COUNT 1 1 1
WIDTH 1183
HEIGHT 1
VIEWPOINT 0 0 0 1 0 0 0
POINTS 1183
DATA ascii
0.028158285 -0.0033124965 -0.004329171
0.026324721 0.00052999699 -0.00030416378
0.026848599 0.00053000409 -0.00030417216
0.026324719 0.0022524956 -0.00097499415
0.026324717 0.0017224965 -0.00097499578
0.027241495 0.00013250031 -0.0003041618
0.027634403 0.00052999909 -0.00030416436
0.025276965 -0.00026500638 -0.00030417333
0.027634408 -0.00066250359 -0.00030416576
0.027241495 -0.0017225015 -0.00030416239
0.026324719 -0.001192496 -0.00030416588
0.02566988 -0.0034450067 0.0018425013
0.025276965 -0.0022525019 -0.00030416646
0.020780372 -0.002738337 -0.0047316602
0.02527697 -0.0027825008 -0.0047316691
0.024229217 -0.002782499 -0.0047316607
0.025800848 -0.0017224967 -0.004731671
0.024229217 -0.006227504 -0.0016458347
0.027241498 -0.0062275049 -0.0027191632
0.027634406 -0.0062275021 -0.0032558269
0.029206034 -0.0062275021 -0.00084083132
0.029773565 -0.0051674936 -0.0003488881
0.030253777 -0.0062274989 -0.0008408376
0.028158277 -0.0062274942 -0.0012433354
0.027634408 -0.0062275031 -0.0016458272
0.026848594 -0.0062275026 -0.001645828
0.031301536 -0.00066249765 -0.00030416239
0.031301536 -0.0011925043 -0.00030417053
0.030646691 -0.0033125007 0.00076917233
0.031301536 -0.0027824987 -0.00030416972
0.031301536 -0.0022524945 -0.00030416867
0.030297436 -0.003356664 0.0018425041
-0.0087749036 -0.0031800002 -0.004731663
-0.0087749036 -0.0038424979 -0.0043291603
-0.0082510319 -0.0062274947 -0.002719162
-0.0087749045 -0.0062275021 -0.0021824942
-0.0082510272 -0.0062274942 -0.0021825053
-0.0098226527 -0.0062275031 -0.0032558381
-0.0098226527 -0.0062275003 -0.0037924945
-0.010346534 -0.0062275063 -0.0037925008
-0.011132338 -0.0062275045 -0.0041949968
-0.01113234 -0.0051674945 -0.0043291608
-0.010739441 -0.0056533339 -0.0042844443
-0.012180094 -0.0062274942 -0.0037924955
-0.011656226 -0.0062275054 -0.0032558334
-0.012180099 -0.0062274956 -0.0032558269
-0.013751722 -0.0062275031 -0.0032558388
-0.014275596 -0.006227497 -0.003792495
-0.010739438 -0.0062274998 -0.0032558278
-0.010739441 -0.0062274965 -0.0021825032
-0.011132348 -0.0062274933 -0.0016458281
-0.01073944 -0.0062274956 -0.0016458386
-0.014275592 -0.0062275059 -0.001645836
-0.010739435 -0.0062275035 -0.0012433338
-0.016633034 -0.0062274947 -0.0041950028
-0.0066794115 -0.0062275063 -0.0037925006
-0.006155537 -0.006227504 -0.0043291603
-0.0066794101 -0.0062274975 -0.004329171
-0.0061555305 -0.0062275059 -0.0037924945
-0.0072032851 -0.0062274998 -0.0037924938
-0.013751725 -0.006227504 -0.0012433348
-0.01322785 -0.0062274947 -0.00084083306
-0.013751722 -0.0062274975 -0.0008408319
-0.017156905 -0.0062275031 -0.0032558346
-0.01663303 -0.0062274984 -0.0037925004
-0.007203286 -0.0062274993 -0.0032558274
-0.0077271569 -0.0062275063 -0.0037924945
-0.01270397 -0.0062275012 -0.0016458323
-0.012703975 -0.0062274942 -0.0021824981
-0.012180091 -0.0062275026 -0.0021824979
-0.012703967 -0.0062275026 -0.00084083504
-0.012703967 -0.0062275007 -0.00030416064
-0.01034653 -0.0062275054 -0.00164584
-0.0092987781 -0.0062274975 -0.00084082806
-0.0092987753 -0.0062274942 -0.00030416134
-0.0087749092 -0.0062274998 -0.001645833
-0.0092987837 -0.0062275031 -0.0016458364
-0.0066794101 -0.0062274938 -0.0016458282
-0.0061555323 -0.006227504 -0.0032558362
-0.015323351 -0.0062274975 0.00023249444
-0.014930443 -0.0062274938 0.00023250654
-0.013751719 -0.0062275054 -0.00030416774
-0.014799471 -0.0062274979 -0.00030417112
-0.010215559 -0.0062275021 0.00023249909
-0.0087748999 -0.0062274993 -0.00030416937
-0.0087749092 -0.0062274965 -0.00084083516
-0.0082510337 -0.0062275003 -0.00084082677
-0.00825103 -0.0062274933 -0.00030416343
0.00065483956 -0.0062275026 -0.0043291654
-0.00065483869 -0.0062275035 -0.0043291608
-0.0022264675 -0.0062275045 -0.0043291636
-0.0077271541 -0.0062275007 -0.00030416716
-0.0077271578 -0.0062275045 -0.0012433361
-0.0077271494 -0.0062274998 -0.0016458379
-0.01624012 -0.006227497 -0.0012433293
-0.015323351 -0.0062275049 0.0013058342
-0.015847225 -0.002782502 -0.004731671
-0.014799464 -0.0027824936 -0.0047316728
-0.015323346 -0.0027825029 -0.0047316663
-0.020824024 -0.0033124988 -0.0047316737
-0.020300161 -0.0037099936 -0.0047316663
-0.021347899 -0.0037100066 -0.0047316602
-0.019252405 -0.0027824962 -0.0047316728
-0.019776283 -0.0037100031 -0.0047316728
-0.018684881 -0.0028266674 -0.0047316626
-0.018728537 -0.0046374975 -0.0043291626
-0.018204652 -0.0046374947 -0.0043291692
-0.017156912 -0.00026499489 -0.0047316719
-0.01663303 -0.00026499815 -0.0047316705
-0.016633037 -0.0022525014 -0.0047316737
-0.015847221 -0.00066249917 -0.0047316705
-0.015323351 -0.00026500385 -0.0047316733
-0.01663303 -0.0027825003 -0.0047316714
-0.01624012 -0.0022525012 -0.0047316654
-0.024709444 -0.0032683355 -0.004731671
-0.024229225 -0.003312503 -0.0047316691
-0.029729899 -0.0011925002 -0.0047316696
-0.0272415 -0.0011925064 -0.0047316728
-0.026281063 -0.0028266727 -0.0047316705
-0.025800845 -0.0027825055 -0.0047316672
-0.025276974 -0.0027824999 -0.0047316635
-0.025276968 -0.002252504 -0.0047316616
-0.019252406 -0.0038424956 -0.00030416914
-0.020343812 -0.0057416693 0.00076916628
-0.020824034 -0.0046374998 -0.00030416157
-0.020693064 -0.0056975051 9.8335557e-05
-0.02043112 -0.0029150052 0.0013058281
-0.020824036 -0.00066249713 -0.00030416192
-0.020824034 -0.00026499835 -0.0003041696
-0.020300154 -0.00066249329 -0.00030416588
-0.019252403 0.00013249449 -0.00030416402
-0.019776283 -0.00026500606 -0.00030417065
-0.019252403 -0.00026500365 -0.00030416262
-0.019776288 0.00013249851 -0.00030417182
-0.02082403 0.0033125004 -0.00097499788
-0.020824036 0.0038425012 -0.00097500288
-0.021347903 0.0038424961 -0.00097499939
-0.019776277 0.0042400025 -0.00097500172
-0.019776279 0.0038425063 -0.00097500125
-0.020300152 0.0038424956 -0.0009750037
-0.015323342 -0.0022525 -0.00030416879
-0.018204652 -0.0046375054 -0.00030416471
-0.017811747 -0.0052999989 9.8326942e-05
-0.017699497 -0.0038235728 0.00078833522
-0.01772444 -0.0037983314 0.0013058328
-0.017699497 -0.0038235737 0.0018616731
-0.017724441 -0.0057416619 0.0013058395
-0.017680785 -0.0033124974 0.0013058321
-0.018073691 -0.0037100036 0.0013058342
-0.019252412 -0.0033125009 -0.00030416076
-0.01870982 -0.002801423 -0.00032332737
-0.017156912 -0.0017224989 -0.00030417007
-0.017156905 -0.0011924969 -0.00030416774
-0.016651737 -0.0017414324 -0.00032332994
-0.016676692 -0.0011924983 -0.00034889067
-0.015847215 -0.00026500353 -0.000304171
-0.015847225 -0.00066249841 -0.0003041717
-0.015323342 0.00013249356 -0.00030416786
-0.015847214 0.00013249769 -0.00030416576
-0.015323342 0.00053000584 -0.00030416215
-0.015847221 -0.0011925064 -0.00030416448
-0.01624012 -0.0017224947 -0.00030416332
-0.014799471 0.00013250072 -0.00030416111
-0.014799476 0.00052999723 -0.00030416285
-0.015847221 0.00053000549 -0.0003041646
-0.014275596 -0.00026500062 -0.00030416797
-0.014275599 0.00013250264 -0.00030417007
-0.014275594 -0.00066250202 -0.00030416006
-0.013751717 -0.00026500507 -0.00030417216
-0.017680788 -0.0062274961 0.00076916139
-0.017680781 -0.0062274979 0.00023249583
-0.015323346 -0.0033124932 0.0013058274
0.021740811 -0.0046375045 -0.0003041717
0.022177372 -0.0051675024 -0.00034888682
0.021740813 -0.0051674964 -0.00030416285
0.021347908 -0.0046375059 -0.00030416693
0.021347912 -0.0051675043 -0.00030416658
0.017724438 -0.005741667 0.00076916022
0.017724434 -0.0037983309 0.002245005
8.7310371e-05 -0.0057416642 0.0025133376
8.7306777e-05 -0.0057416684 0.002244998
-0.00026194134 -0.005829996 0.0022450055
0.017706977 -0.0062009995 0.002567
0.012703964 -0.0062275063 0.0018425055
0.019776287 -0.0062274979 -0.0041950028
0.019776287 -0.0062274951 -0.0037925045
0.019252406 -0.0056974953 -0.0041950056
0.019252401 -0.0062274933 -0.0037925062
0.019252412 -0.0062275003 -0.0032558274
0.019252403 -0.0062274965 -0.0027191604
0.019776279 -0.006227504 -0.0032558301
-0.00026193506 -0.0037100017 0.0018424948
0.001135061 -0.002119995 -0.00034889369
8.7308101e-05 -0.0057416619 0.0018425046
0.00013096847 -0.0062274965 0.001842499
-0.0011350578 -0.0017225035 -0.00034888368
-0.0077271624 -0.0033125002 0.00076917256
-0.0087749036 -0.0029150024 -0.00030416274
-0.0087749027 -0.0022524968 -0.00030416204
-0.0087749138 -0.0038424958 -0.00030417298
-0.0087749027 -0.0042400039 -0.00030416774
-0.025320631 -0.00574166 0.0022449975
-0.025669869 -0.0037099998 0.0025133274
-0.023050498 -0.0058300016 0.00076916465
-0.024229219 -0.0062274956 -0.0008408284
-0.02580085 -0.0062275054 -0.0012433314
-0.026324721 -0.0062274998 -0.0012433275
-0.026324714 -0.0062274965 -0.00084083027
-0.025800837 -0.0062275017 -0.0008408305
-0.025276972 -0.0062274938 -0.0016458343
-0.025276965 -0.0062275007 -0.0012433317
-0.024753097 -0.005300005 -0.00030416728
-0.024753094 -0.0062275007 -0.0012433305
-0.025276965 -0.0062274984 -0.0021824946
-0.025276974 -0.0062274975 -0.0027191667
-0.024753096 -0.0062274998 -0.0027191625
-0.021347906 -0.0062274938 -0.0037925062
-0.020824028 -0.006227497 -0.0037924976
-0.024753086 -0.0060950033 -0.004195001
-0.031301532 -0.0062274956 -0.0037925048
-0.032349274 -0.0062275054 -0.0037925029
-0.032349277 -0.0062274965 -0.0032558339
-0.032349274 -0.0045049964 -0.0041949935
-0.024753088 -0.0062274965 -0.0032558311
-0.027241496 -0.0062274975 -0.0012433358
-0.027241506 -0.0062275059 -0.0016458357
-0.028158283 -0.0062275031 -0.0012433328
-0.028158277 -0.0062274984 -0.001645836
-0.022133717 -0.0062274938 -0.0016458279
-0.022657588 -0.0062275049 -0.0021825023
-0.022657599 -0.0062274951 -0.0016458353
-0.021347901 -0.0062274984 -0.00030416483
-0.021740811 -0.0062275017 -0.00030416111
-0.021347903 -0.0062274993 -0.00084083446
0.00013096241 -0.0033124946 0.0022449999
-0.00065484003 0.00013250526 -0.00030416425
-0.001702595 -0.0029149954 -0.00030416704
-0.00026194332 -0.0058299936 0.00076917117
0.0011350599 -0.00026500216 -0.00034889299
0.0023574396 -0.0038425042 0.0013058386
0.002619378 -0.0056975 0.00076916837
0.0023574317 -0.0058299936 0.0013058274
-0.00026194367 -0.0037100024 0.00076916697
-0.0032742152 -0.0042400002 -0.00030416856
0.00065484305 -0.0062274938 -0.00084083376
-0.0026193815 -0.0062274979 0.00023250142
-0.00026194373 -0.0060949945 9.8333694e-05
-0.0037980939 -0.0056974967 -0.00030416239
-0.00065483764 -0.0062274942 -0.00030416797
-0.00065484352 -0.0062275031 -0.00084083038
-0.0011787177 -0.0062274947 -0.001645834
-0.0011350578 -0.0051674992 -0.00034889136
-0.0017025908 -0.0051675034 -0.00030417147
-0.0037981009 -0.0062275035 -0.0016458298
-0.0037980897 -0.0062275035 -0.0012433276
0.0026193717 -0.0062274979 0.0007691721
0.0023574431 -0.0062274975 0.0013058388
0.0026193773 -0.0056975046 0.001305837
-0.0073342491 -0.0037099982 0.001842506
-0.010302871 -0.0033566689 0.00076916395
-0.011656222 -0.0051674941 -0.00030416227
-0.013751717 -0.0022524931 -0.00030416169
-0.013227844 -0.0029149952 -0.00030416285
-0.013227842 -0.0022525014 -0.00030417077
-0.013751713 -0.0017225062 -0.00030416809
-0.013751719 0.0056975032 -0.00097499916
-0.013708062 0.0061833346 -0.00097500533
-0.014275596 0.0060950019 -0.00097500626
-0.0077271597 0.0056974967 -0.00097500079
-0.0087749129 0.0051675048 -0.00097499602
-0.0082510365 0.0046374975 -0.00097499508
-0.0082510347 0.0042400016 -0.00097500067
-0.0087749045 0.0046375012 -0.00097499753
-0.0072032781 0.00052999932 -0.00030417007
-0.011132346 0.0062275059 -0.0012433277
-0.011656216 0.0062274965 -0.0009750016
-0.010346534 0.006227504 -0.0015116725
-0.0087749101 0.005697506 -0.00097500661
-0.0098226517 0.0051674955 -0.00097499858
-0.01663303 0.0046375045 -0.0033900007
-0.017156912 0.0046374961 -0.0033900007
-0.016633026 0.0051675062 -0.0041949954
-0.016633036 0.005167501 -0.00097500219
0.017680788 -0.0046374951 -0.00030416553
0.020300161 -0.0033125065 0.0013058342
0.019907245 -0.0037100038 0.0013058365
0.019776287 -0.0022083332 -0.00025944342
0.02030015 -0.0022083386 -0.00025944063
0.015323346 -0.0038424991 0.0013058356
0.015323351 -0.0033125065 0.0013058358
0.015323346 -0.0038425049 0.00076916977
0.015716247 -0.0034449981 9.8334625e-05
0.015323347 -0.0033125051 0.0018424934
0.015323343 -0.003842501 0.0018425013
0.015847221 -0.0022083381 -0.00025944994
0.015847217 -0.0017224979 -0.00030417019
0.018073682 -0.0033125 0.00076916674
0.018728537 -0.002782505 -0.00030416402
0.018073684 -0.0037099987 0.0018425055
0.015847225 -0.0062274938 -0.00030417286
0.01532334 -0.0062275026 0.00076916604
0.015323342 -0.0056975004 0.0013058372
0.017680783 -0.0062274979 0.0018424967
0.013751714 -0.0046374942 -0.0043291701
0.013227844 -0.0046374984 -0.004329165
0.01322785 -0.0051674987 -0.0043291608
0.013751714 -0.0051674945 -0.0043291645
-0.003798092 0.002252504 -0.00097499706
-0.003798092 0.0022524986 -0.0043291696
-0.0037980902 0.0027824941 -0.0043291608
-0.0061555305 0.0017224946 -0.00097499462
-0.0056316555 0.0022525 -0.00097500428
-0.0072032865 0.0051674941 -0.0009750051
-0.0077271559 0.0051674945 -0.00097500335
0.0032742119 0.00013250159 -0.00030416087
0.0027503483 -0.0002649978 -0.00030416495
0.0032742228 -0.00026500461 -0.00030416076
0.0011787134 0.0042400034 -0.00097499473
-0.0027503402 0.004239995 -0.004329172
-0.0032742163 0.0042400057 -0.0043291617
-0.0066794101 0.0056974995 -0.00097500393
-0.0061555351 0.0046375049 -0.00097499753
-0.0043219682 0.004240002 -0.00097499532
-0.0048458488 0.0046375026 -0.00097500347
-0.0061555277 0.0033124953 -0.00097500347
-0.0061555337 0.0038424993 -0.00097500288
-0.0056316545 0.0033125 -0.00097500579
-0.0043219714 0.0027825043 -0.00097500242
-0.0017025941 0.0051675006 -0.0043291659
-0.0043219756 0.0062275035 -0.0041949963
-0.0043219752 0.0062275031 -0.0015116659
0.00013096606 0.0062274979 -0.0015116732
-0.0011787179 0.0051675029 -0.0009750051
0.0011350597 -0.0011924945 -0.00034889334
0.00065484212 -0.0029149977 -0.0003041625
-0.00065483828 -0.0029149959 -0.0003041653
0.0022264691 -0.0046374942 -0.004329171
0.0022264638 -0.0027825029 -0.0047316677
0.0006548384 -0.0037100005 -0.0047316616
0.0048458385 0.00013250177 -0.00030416576
0.0043219691 0.00013249606 -0.00030417112
0.0056316601 0.00013250567 -0.00030416658
0.0066793999 0.00052999583 -0.00030416285
0.0066794124 0.00013249362 -0.00030416553
0.0056316629 0.00052999373 -0.0003041724
0.0066794073 -0.00026499925 -0.00030416821
0.0056316527 -0.00026499887 -0.00030417135
0.0052387523 -0.00026499984 -0.0003041625
0.0052387514 0.00053000526 -0.00030416541
0.0066794045 0.0033124972 -0.00097499928
0.006679405 0.0027825052 -0.00097500137
0.0061555314 0.0033124962 -0.00097499636
0.0061555309 0.0027825017 -0.00097500323
0.0048458437 -0.00066250499 -0.0003041632
0.0052387556 -0.0011925042 -0.00030416914
0.0048458371 -0.0011925031 -0.00030417193
0.0072032772 -0.00026499658 -0.00030417321
0.0077271541 -0.00026499489 -0.00030417228
0.0077271559 0.00013250666 -0.00030416367
0.004321971 -0.0042400053 -0.00030417333
0.0023574419 -0.0062274951 0.00076916744
-0.0027503467 -0.0017225025 -0.00030417158
0.00065483927 0.0017224974 -0.0043291631
0.0022264635 0.00013249659 -0.00030416332
0.0022264642 -0.00026500388 -0.00030416972
0.0011787224 0.00013249746 -0.0047316607
-0.012703974 0.0051674978 -0.0041950019
-0.013227841 0.0051675024 -0.004195001
-0.011132347 0.0038425035 -0.0043291696
-0.010739434 0.0038424947 -0.0043291626
-0.010739434 0.004239996 -0.0043291645
-0.011132347 0.0046375021 -0.0043291626
-0.011656213 0.005697506 -0.0015116654
-0.012180088 0.0056974981 -0.00339
-0.0087749045 0.0046374965 -0.0043291645
-0.0082510309 0.0046375021 -0.0043291659
-0.0098226583 0.0046374975 -0.0043291636
-0.011656222 0.0033125018 -0.0043291682
-0.011656225 0.0038424984 -0.0043291659
-0.0077271606 0.0046374942 -0.0043291701
-0.0052387523 0.002782505 -0.0009749959
-0.0056316569 0.0027825062 -0.00097499811
-0.016633026 0.0062274975 -0.0012433291
-0.017680788 0.0062274998 -0.0015116612
-0.017156908 0.005697499 -0.0015116647
-0.016633034 0.0046374993 -0.00097499462
-0.01231106 0.0060949996 -0.0033899967
-0.015847215 0.0051675043 -0.0015116654
-0.015847219 0.0051674936 -0.0033899965
-0.016240129 0.0056974967 -0.0033900039
-0.015323342 0.0051674959 -0.0033899946
-0.0072032791 0.0042400002 -0.0043291645
-0.0072032823 0.0038424961 -0.004329164
-0.0077271559 0.0021200045 -0.0047316612
-0.007727155 0.0042400043 -0.0043291701
-0.0061555249 0.0056975037 -0.0033899958
-0.0066794106 0.0038424961 -0.0043291636
-0.00065484439 0.0056975037 -0.004195
0.0027503481 0.0060949936 -0.0033899997
0.0032742154 0.0056974981 -0.0033899969
0.001702599 0.0051675029 -0.00097499625
0.0037980974 0.005697499 -0.00097500021
0.0043219686 0.0062274979 -0.00097500009
0.0037980876 0.0017224993 -0.00097500172
0.0066794045 0.0017225053 -0.0047316728
0.0061555333 0.002782495 -0.004329171
0.0066794059 0.0027825017 -0.0043291701
0.0072032874 0.0027824994 -0.0043291636
0.0072032772 0.0038424961 -0.0043291631
0.0048458446 0.0056975032 -0.00097500614
0.0056316624 0.0038425045 -0.00097499508
0.0052387486 0.0038424998 -0.00097500498
0.0043219631 0.0038425012 -0.00097500265
0.0048458455 0.0042400006 -0.0009749959
0.0017025878 -0.0017224958 -0.00030416169
0.0043219673 -0.001722501 -0.00030416006
0.0043219673 -0.0021200017 -0.00030416762
0.0048458469 -0.0017224993 -0.00030416052
0.0048458497 -0.0021200059 -0.00030416099
0.0037980976 -0.0029149966 -0.00030416262
0.0049768081 -0.0033125055 0.00076916791
0.0049768104 -0.0038425056 0.00076916488
0.0037980974 -0.0038425038 -0.00030416017
0.0037980978 -0.0042400048 -0.0003041625
0.0026193748 -0.0038425038 0.00076917256
0.0052387477 -0.0037983358 0.0013505607
0.0052387519 -0.0021200043 -0.00030416925
0.0037980876 0.00013249781 -0.00030416588
0.0032742196 -0.00066250446 -0.00030416285
0.0027503469 -0.00066250528 -0.00030417321
0.0037980881 -0.00026500499 -0.00030417158
-0.010302876 -0.0033566621 0.0018425032
-0.012677779 -0.0057239989 0.0025670042
-0.014930435 -0.0034450006 0.0013058379
0.028682156 0.0046374947 -0.00097500393
0.029206038 0.0046374961 -0.00097500032
0.028682152 0.0042400006 -0.00097500358
0.02972991 0.0056975028 -0.00097499765
0.02972991 0.0051674955 -0.00097500102
0.029729914 0.0046374975 -0.0009749952
0.030253781 0.0051674983 -0.00097500405
0.034182843 0.0056975032 -0.00097500021
0.032742184 0.0051675034 -0.00097500114
0.037326097 0.0060949954 -0.0015116701
0.03824288 0.0060950038 -0.0015116727
0.034837689 0.0046375049 -0.0033900002
0.032349281 0.0062275031 -0.00097499462
0.031301539 0.0062274993 -0.00097499334
0.030777663 0.0056975046 -0.00097500312
0.031825401 0.0056975042 -0.00097499427
0.032349277 0.0056974972 -0.0009750023
0.032349277 0.0051674992 -0.00097499823
0.031825412 0.0051675001 -0.0015116613
0.026848592 0.0056974972 -0.0037924969
0.026848596 0.0055649998 -0.0015116653
0.026848599 0.0051675057 -0.00097499369
0.028158277 0.0046374998 -0.0015116616
0.02763441 0.0046375031 -0.0015116676
0.026324723 0.005565004 -0.001511668
0.025800845 0.0046374975 -0.0033899972
0.026848592 0.0046375063 -0.0015116646
0.039159659 0.0056975018 -0.00097499462
0.038242873 0.0033124976 -0.00097499881
0.037849966 0.0027824976 -0.00097500614
0.038635779 0.0038424989 -0.0015116733
0.031825401 0.0046375059 -0.00097500591
0.031301528 0.0038424989 -0.00097500649
0.036802217 0.0038425007 -0.0009750023
0.036802221 0.0056974962 -0.0015116703
0.037849978 0.0033124967 -0.0015116704
0.037849974 0.0038424933 -0.0015116625
0.036802214 0.0022525028 -0.0037924955
0.036802221 0.0027824938 -0.0033899965
0.037457068 0.0050349957 -0.0033899974
0.036671247 0.0042399941 -0.0033899941
0.037326101 0.0046375059 -0.0015116634
0.036278352 0.0046374961 -0.0015116698
0.038242873 0.0046374998 -0.0037925001
0.039552569 0.0033125055 -0.0015116679
0.039552569 0.0037100019 -0.0015116604
0.039159659 0.0038425017 -0.0015116637
0.03863579 0.0033125046 -0.0015116681
0.027634408 0.004637504 -0.0009750016
0.02763441 0.0042399983 -0.0009750023
0.027634403 0.005167495 -0.00097499904
0.024753088 0.0056975 -0.00097500638
0.027765378 -0.0038425026 0.0013058286
0.028682163 -0.0022525007 -0.00030416576
0.028158283 -0.0022525052 -0.00030416506
0.029729906 0.00052999874 -0.00030416716
0.029249694 0.0005299949 -0.00034888391
0.010739438 0.0051233368 -0.0042844377
0.012703974 0.0033124986 -0.00097499392
0.013227845 0.0038425012 -0.00097500067
0.01375172 0.0042399955 -0.00097499334
0.0082510328 0.00013249571 -0.00030416436
0.00825103 0.00052999816 -0.00030416879
0.007727162 0.0005299999 -0.00030416192
0.0087749036 0.0038425012 -0.00097499695
0.0087749017 0.0033125065 -0.00097499636
0.0082510281 0.0042399969 -0.00097499613
0.0087749055 -0.00066250557 -0.00030416041
0.0092987744 -0.0011925022 -0.00030416832
0.010215562 -0.0029149961 0.00076916185
0.0098226639 -0.0022083269 -0.00025944482
0.0092987809 -0.0022083346 -0.00025944901
0.010739439 -0.00026499544 -0.00030416413
0.010346534 -0.0002649955 -0.00030416949
0.011132344 0.0033125065 -0.00097499974
0.0092987828 0.0022525026 -0.00097499602
0.0092987875 0.0033124939 -0.00097499823
0.0082510347 0.0033124972 -0.0043291734
0.0098226611 0.0033124981 -0.0043291654
0.010346534 0.0038424993 -0.0043291673
0.0098226573 0.0038425063 -0.0043291608
0.010346529 0.0033124976 -0.0043291608
0.010739433 0.0038424979 -0.0043291617
0.010739435 0.0033124958 -0.0043291692
0.0098226629 -0.0011925019 -0.00030416448
0.0082510272 -0.0042400025 -0.00030417007
0.0087749073 -0.0042400048 -0.00030416448
0.0066794096 -0.0033125009 -0.00030417193
0.0077271531 -0.0022083314 -0.00025943806
0.0098226536 -0.0051675057 -0.0003041632
0.0082510253 0.00013249693 -0.0047316616
0.0087749036 0.00013249379 -0.0047316682
0.0082510384 0.00066250429 -0.0047316649
0.0087749073 0.00066250114 -0.0047316635
0.0077271545 0.00013250555 -0.0047316728
0.0077271578 0.0006625058 -0.0047316607
0.0056316582 0.0038424975 -0.0043291654
0.0056316569 0.0042400011 -0.0043291626
0.0052387523 0.0027825017 -0.0043291645
0.005631661 0.0027825062 -0.0043291673
0.012572998 -0.0037100057 -0.0047316719
0.012703964 -0.0046374951 -0.0043291682
0.012180099 -0.0027825038 -0.0047316686
0.0082510281 0.0038425049 -0.0043291682
0.0087749101 0.0038424961 -0.004329171
0.0092987837 0.0038425007 -0.004329171
0.0098226508 0.0021200005 -0.00473167
0.0077271569 0.0046375017 -0.0043291608
0.002226471 0.0056533301 -0.0042844433
0.0038168065 0.0046185767 -0.0043100044
0.017680788 -0.0062275017 -0.002182503
0.017156912 -0.0062275031 -0.0021825051
0.016633039 -0.0062275063 -0.0021824969
0.01715691 -0.0062274989 -0.0016458385
0.017680788 -0.0062274989 0.0022449961
0.019907255 -0.0037099968 0.0018424967
0.018073684 -0.0060949982 0.0013058295
0.025669882 -0.0062274979 0.00023249816
0.025800841 -0.0062275045 -0.0003041717
0.027241498 -0.006227504 -0.00084083411
0.02475309 -0.0062275021 -0.00030416553
0.024753097 -0.0062274961 -0.00084082794
0.02527697 -0.0062275031 -0.00084083155
0.024229219 -0.0062275059 -0.0012433387
0.023705348 -0.0062275003 -0.0016458333
0.022788564 -0.006227497 0.0022450045
0.025276976 -0.0062275003 -0.0012433269
0.020343812 -0.0057416707 0.0013058351
0.020300152 -0.0062274951 0.0013058337
0.021347912 -0.0062274979 -0.0016458331
0.028682159 -0.0062274975 -0.001645836
0.020824037 -0.0062274998 -0.00030416914
0.020300152 -0.0062274989 -0.00030416611
0.020824028 -0.0062275054 -0.00084083737
0.020300156 -0.0062275017 0.00023250259
0.019252412 -0.0062274961 -0.00030416821
0.020300152 -0.0062275035 0.00076917047
0.018073685 -0.0058300011 0.00076916465
0.024229217 -0.0062275007 -0.0021825056
0.020300161 -0.006227504 -0.0008408319
0.020300154 -0.0062275035 -0.0012433387
0.019776277 -0.0062275031 -0.00084083609
0.02082403 -0.0062275026 -0.0012433348
0.023705352 -0.0062274956 -0.0032558299
0.023705345 -0.0062274938 -0.0027191658
0.023181474 -0.0062275063 -0.0027191653
0.020300159 -0.006227497 -0.001645835
0.020300159 -0.0062274933 -0.0027191658
0.021740811 -0.0062275059 -0.0037925001
0.022133725 -0.0062274975 -0.0037925062
0.021347903 -0.0062274965 -0.0037925043
0.032349277 -0.0062275045 -0.00084083353
0.030777657 -0.0062274956 -0.000304171
0.031301532 -0.0062274993 -0.0012433291
0.031825412 -0.006227497 -0.0016458344
0.031301524 -0.006227497 -0.0016458293
0.031825405 -0.0062274965 -0.0012433359
0.021740815 -0.0017225059 -0.00030416867
0.022133714 -0.0042399992 -0.00030416204
0.022657596 -0.0011925057 -0.00030416157
0.022736173 -0.0033389935 0.0012790032
0.023705347 -0.0017224939 -0.00030416599
0.024210515 -0.0022335665 -0.00032333995
0.023705339 -0.002252494 -0.00030416844
0.023705347 -0.0027825041 -0.00030416343
0.024185568 -0.0027824969 -0.00034888869
0.017156906 0.0027824943 -0.00097500079
0.020824026 0.0051674997 -0.0015116711
0.02082403 0.0046375068 -0.0033899965
0.020824034 0.0046374989 -0.0015116708
0.019776283 0.0042400011 -0.0009749952
0.019776281 -0.0027824976 -0.0047316616
0.021740807 -0.00066249579 -0.0047316724
0.022133725 -0.00066250487 -0.0047316705
0.02030015 -0.0011924944 -0.0047316724
0.021347901 -0.00066250085 -0.0047316677
0.02082403 -0.00066249969 -0.0047316682
0.023181465 -0.00026500461 -0.0047316682
0.02265759 -0.00026500184 -0.0047316635
0.022657594 0.00053000142 -0.0047316654
0.021740817 0.0032683301 -0.0042844452
0.022133721 0.0038424947 -0.0041950033
0.020824024 0.0027824978 -0.0043291729
0.023705347 0.0046374984 -0.0041949949
0.024229219 -0.0011925048 -0.0047316719
0.024229223 -0.0017224938 -0.0047316658
0.024753097 -0.00066249922 -0.0047316728
0.020300156 0.00013249647 -0.0047316682
0.020300154 0.00066250336 -0.0047316644
0.020824039 0.0011925008 -0.0047316635
0.019776275 0.0011924992 -0.0047316602
0.01872853 -0.0011924997 -0.0047316728
0.018728534 -0.0017225007 -0.0047316654
0.01715691 -0.0011924978 -0.0047316672
0.017156903 -0.00066249527 -0.0047316672
0.016633028 -0.0017225035 -0.0047316682
0.016240126 -0.0017224962 -0.0047316616
0.015847221 -0.00026499789 -0.0047316635
0.015847217 -0.00066250435 -0.0047316691
0.015323351 -0.00066249486 -0.0047316626
0.019776277 -0.0011925026 -0.0047316728
0.019776281 -0.00066249358 -0.0047316635
0.020300152 -0.0033124972 -0.0047316728
0.019252406 -0.00026500359 -0.0047316696
0.020300154 -0.00066250213 -0.0047316602
0.020824036 -0.0011924967 -0.0047316635
0.017156914 0.00013250567 -0.0047316607
0.017156908 0.00066250452 -0.0047316635
0.018204654 -0.00066249864 -0.0047316654
0.01820465 -0.00026499515 -0.0047316635
0.015847227 -0.0022524945 -0.004731664
0.024229214 0.0011924945 -0.0043291692
0.02370535 0.0011925017 -0.0043291664
0.024753088 0.0017225009 -0.0043291659
0.023181472 0.0027824962 -0.0043291626
0.01479947 0.00066250114 -0.0047316607
0.014799469 -0.0002650063 -0.004731663
0.013751725 0.00013250328 -0.0047316691
0.014275597 0.0011924936 -0.0047316672
0.015323342 0.0011925024 -0.0047316672
0.016633032 0.0022524947 -0.0047316654
0.016633032 0.0017225021 -0.0047316616
0.017680777 0.0011924936 -0.0047316644
0.023181472 0.005167495 -0.00151167
0.023181472 0.0056975004 -0.0033900021
0.02370535 0.0056975 -0.0015116611
0.025276972 0.0038424979 -0.0033900042
0.025276974 0.0038424984 -0.0015116617
0.025276974 0.0033125051 -0.0033899962
0.026324719 0.0033125028 -0.0015116655
0.025800843 0.0046374975 -0.0041950019
-0.031301528 0.0038425026 -0.0033899965
-0.030253777 0.0051674983 -0.00097499578
-0.030253787 0.0056975055 -0.00097500591
-0.033135086 0.003180003 -0.0033900056
-0.036278348 0.0022525 -0.00097499997
-0.03418285 0.0027824941 -0.0033899979
-0.03824288 -0.0022525017 -0.00043833849
-0.03863579 0.00053000118 -0.00043833815
-0.038635787 0.0011925066 -0.00097500556
-0.038242873 0.0011924971 -0.00097499345
-0.03824288 0.00013250555 -0.00030416343
-0.034706723 -0.00026499591 -0.00030417321
-0.036802221 0.0017224997 -0.00097500219
-0.036802221 0.0011924957 -0.00097500626
-0.03732609 0.0022524998 -0.0037925043
-0.034182847 0.0038424942 -0.0037924959
-0.031301536 0.0022525021 -0.0033899969
-0.032742191 0.0027824941 -0.0041950052
-0.034706715 0.0022525038 -0.00097500021
-0.035754468 0.0017224979 -0.0015116667
-0.034706719 -0.004239995 -0.00030416425
-0.033135097 -0.0062274938 -0.0032558376
-0.032742184 -0.0062274984 -0.0016458386
-0.034182854 -0.0062275035 -0.0021825007
-0.034706715 -0.0062274947 -0.0032558287
-0.036802214 -0.004637504 -0.00030417216
-0.036259629 -0.0046185721 -0.00032333506
-0.026324725 0.00013250555 -0.00030417275
-0.02527697 -0.004637504 -0.00030416925
-0.021740817 -0.0022524954 -0.00030416274
-0.025800843 -0.0017225037 -0.00030416145
-0.025800837 -0.002252497 -0.00030417147
-0.024229227 -0.0022524947 -0.00030416099
-0.024229221 -0.001722496 -0.00030416157
-0.031301532 0.00053000456 -0.00043833454
-0.028158285 0.0022524961 -0.00097500591
-0.026324715 -0.0006625065 -0.00030416821
-0.026848592 -0.0011925043 -0.0003041653
-0.030777654 -0.0042400048 -0.0041949996
-0.030253777 -0.0038425035 -0.0041950019
-0.031301539 -0.0051675029 -0.0037924964
-0.019252408 -0.0062275026 -0.003792502
-0.019776283 -0.0062274965 -0.0027191695
-0.019776281 -0.0062274998 -0.0021824997
-0.01925241 -0.0062274984 -0.0021824946
-0.018728532 -0.0062274961 -0.0032558278
-0.019252412 -0.0062275045 -0.0032558318
-0.029729905 0.0033124962 -0.00097499473
-0.029206038 0.0033125 -0.00097500393
-0.028682152 0.002782498 -0.0033899969
-0.030777654 0.0042399932 -0.00097500428
-0.033135094 0.0046374975 -0.001511662
-0.0087749027 -0.0051674945 -0.0043291692
-0.00825103 -0.0051674959 -0.0043291617
-0.0082510281 -0.0056975055 -0.0043291617
-0.0092987865 -0.0027824976 -0.0047316686
-0.0092987865 -0.0022525061 -0.0047316654
-0.0082510319 -0.002782495 -0.0047316719
-0.0056316559 -0.0022524993 -0.004731671
-0.0061555365 -0.0017224946 -0.0047316672
-0.00065484381 -0.00026500097 -0.0047316686
-0.0077271522 -0.0038424956 -0.0043291613
-0.0077271559 -0.0042399978 -0.0043291673
-0.0082510253 -0.0038424935 -0.0043291664
-0.0087749092 -0.0022524935 -0.0047316616
-0.0092987856 -0.0017225039 -0.0047316654
-0.0082510374 -0.00066249818 -0.00030416157
-0.0082510328 -0.001192495 -0.00030416786
-0.0087749064 -0.0011924951 -0.00030416506
-0.0087749027 -0.00066249649 -0.00030416413
-0.0082510272 -0.0017225055 -0.00030416169
-0.0082510281 0.00053000386 -0.00030416402
-0.0061368276 0.00015142473 -0.00032333937
-0.0077271559 -0.0017224983 -0.00030416471
-0.0043219714 -0.0027824959 -0.0043291682
-0.0061555356 -0.0011924973 -0.0047316635
-0.0066794083 -0.001192504 -0.0047316612
-0.0072032763 -0.0011924966 -0.0047316719
-0.0043219738 -0.0002649996 -0.0047316616
-0.0043219719 0.0038424951 -0.0043291645
-0.012703971 -0.0011924963 -0.0047316691
-0.011656215 -0.0011925026 -0.0047316714
-0.012180088 -0.00026500347 -0.0047316719
-0.013227843 -0.0017224995 -0.0047316714
-0.019252406 0.0011925062 -0.0047316728
-0.020300161 0.0017224944 -0.0047316728
-0.020300156 0.00013249594 -0.0047316728
-0.018204661 0.0022525031 -0.0047316644
-0.019776277 0.0022524945 -0.0047316668
-0.019252406 0.0038425045 -0.00097500382
-0.019252408 0.0033125042 -0.00097500649
-0.018204661 0.0033125065 -0.00097499974
-0.024229219 -0.0017225014 -0.0047316626
-0.020300159 0.0046374989 -0.0033899988
-0.02134791 0.0051674964 -0.0015116708
-0.02134791 0.0051674959 -0.0033899993
-0.022133715 0.004637504 -0.00097500451
-0.022133719 0.0051674945 -0.0009750051
-0.022657599 0.0046374956 -0.00097499928
-0.021347908 0.0042400062 -0.00097499345
-0.021740817 0.0056975009 -0.00097499834
-0.025276972 0.0042399932 -0.00097500079
-0.024753097 0.0046375031 -0.00097499369
-0.025276976 0.0046374951 -0.00097500498
-0.0061555379 0.00013250654 -0.0047316696
-0.0066793999 -0.00026499538 -0.0047316644
-0.01113234 -0.0033124941 -0.0047316733
-0.022657599 -0.00026500082 -0.0047316682
-0.016240129 0.00066250382 -0.0047316691
-0.015847221 0.00066249474 -0.0047316686
-0.016633036 0.00013250188 -0.0047316663
-0.016240126 0.00013249606 -0.0047316649
-0.015367 0.0011483338 -0.0047316691
-0.015323347 0.0006625008 -0.0047316626
-0.015847221 0.0038425017 -0.0043291664
-0.012180089 0.0038425003 -0.0043291664
-0.01270397 0.0038424993 -0.0043291617
-0.012703963 0.0042400016 -0.0043291664
-0.01322785 0.0027824955 -0.004731664
-0.013227844 0.0038425026 -0.0043291626
-0.01322784 -0.001722498 -0.00030416041
-0.01532334 -0.0017224971 -0.00030416506
-0.017680783 0.0017224976 -0.0009749952
-0.011656225 -0.0062274933 -0.0016458344
-0.012180096 -0.0045049973 -0.00030416902
-0.011656218 -0.0045049973 -0.00030416704
-0.012703963 -0.0062274984 0.001305829
-0.017680788 -0.0033125011 0.00076916534
-0.018073689 -0.0058300057 9.8331831e-05
-0.017287878 -0.0052999984 -0.00030417182
-0.02580085 -0.0042400039 -0.0041950056
-0.024229225 -0.004637497 -0.0041950028
0.029206028 -0.0011925005 -0.0047316635
0.029206028 -0.0017224962 -0.0047316672
0.02920603 -0.0006624934 -0.004731664
0.031825405 -0.0017224976 -0.0047316602
0.017680779 -0.0046374956 -0.0043291729
0.018728537 -0.0022524986 -0.0047316719
0.019776275 -0.004637504 -0.004329172
-0.027634397 -0.0062275017 -0.0021825021
-0.028158281 -0.0062274965 -0.0021825042
-0.025800839 -0.0062275035 -0.00030416716
0.038504813 -0.0060950005 -0.0016458365
0.038242877 -0.006183329 -0.0026744397
0.03784997 -0.006227504 -0.002719169
0.038242884 -0.006094994 -0.0032558334
0.039028686 -0.0055649998 -0.0016458377
0.035754476 -0.0011924948 -0.0047316644
0.034706723 -0.0046375017 -0.0037924936
0.036278341 -0.0062274989 -0.0036583398
0.035754476 -0.0062274979 -0.0036583359
0.026804945 -0.0042399997 -0.00034889102
0.026324715 -0.0042400002 -0.0003041696
-0.035230584 0.0046374938 -0.0015116658
-0.031825408 0.0022524951 -0.00097499415
-0.032349281 0.0027824959 -0.00097500242
-0.031825408 0.0027825031 -0.00097499334
-0.033135097 0.0017225023 -0.00097499706
-0.032349281 0.0022524935 -0.0015116662
-0.030777659 0.0038425054 -0.0015116683
-0.031301528 0.0046375054 -0.0015116665
-0.032349285 0.0033124953 -0.00097499939
-0.031825408 0.0033125018 -0.0009749952
-0.032349285 0.0027824941 -0.0015116686
-0.03313509 0.0038424998 -0.0033900049
-0.038242877 0.0051675066 -0.0037925062
-0.038635775 0.0056975065 -0.0037924983
-0.037849966 0.0046374961 -0.0037925032
-0.036802214 0.0042400029 -0.0037925011
-0.037849966 -0.00026499809 -0.00030416355
-0.036802214 0.0033125018 -0.00097500347
-0.035754472 0.0042400043 -0.00097500463
-0.037849974 0.0033125051 -0.0015116713
-0.040731281 -0.0002650019 -0.00030417205
0.012703974 0.0042400002 -0.0043291692
0.018204661 0.0042400002 -0.00097499625
0.017156905 0.0056974953 -0.00097500603
0.017680783 0.0056975051 -0.00097499811
0.018204657 0.0046374938 -0.00151167
0.018728528 0.00013249496 -0.00030416425
0.019296063 -0.0011924966 -0.00034889264
0.021740813 -0.0022083393 -0.00034889218
0.021347912 -0.002782499 -0.00030416541
0.021740817 -0.0027824957 -0.00030416483
0.01715691 -0.0011925036 -0.0003041724
0.019776275 -0.0062274975 -0.0016458358
0.019252414 -0.0062274979 -0.0021825011
0.018728526 -0.0062275063 -0.002719163
0.024753094 -0.0027825027 -0.00030416937
0.037849966 0.0017225053 -0.0015116648
0.03784997 0.0017224934 -0.0033900002
0.032742187 0.0017224969 -0.00097500207
0.034706719 -0.0027825036 -0.0003041618
0.03418285 -0.002782499 -0.00030416204
0.034182839 -0.0033124944 -0.00030416157
0.034706723 -0.0011925035 -0.00030416285
0.029206036 0.0022524949 -0.00097499555
0.028682159 0.0017225025 -0.00097499951
0.028682154 0.0022525017 -0.00097500416
0.030777659 0.0017225018 -0.00097500242
0.030253787 0.0017225051 -0.00097500475
0.02972991 0.001722506 -0.00097500067
0.030253787 0.0022525014 -0.00097499811
0.025800843 0.0022524951 -0.00097499951
0.026848601 -0.00066250336 -0.00030416006
0.028158281 0.0042400053 -0.00097499602
0.030122811 0.0021199984 -0.0028533279
0.030253787 0.003312506 -0.00097499578
0.031825401 0.0027824994 -0.0015116689
0.030777657 0.0027824999 -0.0015116605
0.038635779 0.003842504 -0.00097499508
0.038635779 0.0033124962 -0.0009749938
0.039159656 0.0022525033 -0.00097499555
0.039159659 0.0027825057 -0.00097499706
0.039683532 0.0027825052 -0.00097499962
0.040207405 0.0038425012 -0.00097500114
0.040207408 0.0046374961 -0.00097500009
0.040731281 0.0042399988 -0.0012433326
0.040207408 0.0038424947 -0.0012433338
0.040731281 0.0033124962 -0.0037925043
0.035230592 -0.00026500347 -0.0047316635
0.021347912 -0.00026500534 -0.0047316682
0.020300159 0.003312506 -0.0043291734
0.018728536 0.0046374965 -0.0041950028
0.018728537 0.004239996 -0.0041949945
0.019252408 0.004637504 -0.0041950047
0.017680781 0.00379833 -0.0042844377
0.018204655 0.0046375012 -0.0041950038
0.017680781 0.0046375049 -0.0041949973
0.017680777 0.0042399992 -0.0041949959
0.02134791 0.0046374938 -0.0041949973
0.022526626 0.0052999989 -0.0033900042
0.015847217 -0.00066249736 -0.00030416646
0.016633039 -0.0011924957 -0.0003041653
0.014275599 0.0051674945 -0.00097500638
0.020693069 -0.003709994 9.832764e-05
0.021347905 -0.0042399936 -0.00030416076
0.02082403 -0.0046374975 -0.00030416308
0.020300161 -0.00026500016 -0.00030416134
0.017680781 -0.0011924943 -0.00030417298
0.018204657 -0.00066249369 -0.00030416704
0.012180096 0.00013250374 -0.00030417182
0.013227846 -0.00066250499 -0.00030416821
0.013227838 -0.00026499954 -0.00030417193
0.013227841 -0.0011925008 -0.00030416925
0.012703971 -0.0011925003 -0.00030416367
0.013227839 0.00013250136 -0.00030416646
0.014275592 0.0038425012 -0.00097499695
0.013751716 0.0033125042 -0.00097500021
0.013751716 0.00052999792 -0.00030417205
0.013227841 0.0046374965 -0.00097500405
0.014275595 0.0022525033 -0.00097500498
0.016240129 -0.0042399936 -0.0043291636
0.016633032 -0.0038425012 -0.004329172
0.017156914 -0.0051675001 -0.0043291636
0.016240131 -0.0046375007 -0.0043291682
0.017680781 0.00013249554 -0.00030416984
0.012703961 -0.0022083281 -0.00025944691
0.013227838 -0.0022083372 -0.00025944132
0.015847223 -0.0011924994 -0.00030416832
0.016240122 -0.0022083281 -0.00025945087
0.025276974 0.0033125004 -0.0015116712
0.020300154 0.0017225042 -0.0009750016
0.022133717 0.0017224988 -0.00097500137
0.023181476 0.00013249496 -0.0003041696
0.01479947 -0.0038425045 -0.0043291673
0.014275595 -0.0038425012 -0.0043291673
0.015323341 -0.0042399992 -0.0043291631
0.014275592 -0.004239996 -0.0043291692
0.036212862 -0.0062275012 -0.0033229231
0.021347903 -0.0056974981 -0.004195001
0.013751715 0.0038425021 -0.0043291692
0.013227845 0.0033125014 -0.004329171
0.013751721 0.0017224988 -0.0047316607
0.015847214 0.0017224988 -0.0047316705
0.02370535 0.0046374951 -0.0015116658
0.022657599 0.0056975023 -0.00097500021
0.022133725 0.0051675015 -0.0015116709
0.021347908 0.0046375026 -0.00097499683
0.020824034 0.0056975055 -0.00097499706
0.022133719 0.0051674992 -0.00097499799
0.023705343 0.0051675062 -0.00097499881
0.023705347 0.0056975042 -0.00097499683
0.0082510253 0.0056974934 -0.0015116662
0.0061555333 0.0056975032 -0.0033900011
0.014275587 0.0062274979 -0.00097500079
0.014799474 0.0062275012 -0.001243333
0.014275594 0.005167495 -0.0033900039
0.013751726 0.0046375063 -0.00097500416
0.017680785 0.0051674997 -0.0033899974
0.017138198 0.0038235739 -0.0043100063
0.01820465 0.0042400053 -0.0041950005
0.016633034 0.005697506 -0.0033900049
0.016633032 0.006227504 -0.0037924985
-0.00929878 0.0062275012 -0.0012433293
-0.0092987875 0.0062275021 -0.001511673
-0.0087749064 0.0062274975 -0.0015116687
0.0048458423 0.0062274947 -0.0015116676
0.0043219756 0.0062274989 -0.001243335
0.0043219742 0.0062274965 -0.0037924987
0.039159659 0.0051674997 -0.00097500521
0.035230588 0.0056974944 -0.00097500626
0.034706723 0.0051675024 -0.0009749966
0.037326101 0.0042400053 -0.00097499636
0.036278352 0.0046374979 -0.00097499881
0.030253783 0.0042400048 -0.00097499508
-0.0022264645 0.0056533315 -0.003300549
-0.0032742231 0.0046374956 -0.00097499881
-0.0048458474 0.0062275045 -0.0009749973
-0.004321964 0.0062275021 -0.00097500323
0.013751724 0.0045933309 -0.0042844396
0.014275598 0.005167495 -0.0041950061
0.014799469 0.0051674955 -0.0041949945
0.014799466 0.0046375026 -0.0041949991
0.014799473 0.0033125065 -0.0043291701
0.015323345 0.0051675038 -0.0041949949
0.014799473 0.0038424975 -0.0043291626
0.014799472 0.0042400011 -0.0043291654
0.015323341 0.0046374951 -0.0041950052
0.015323346 0.0038424979 -0.0043291645
0.0061555244 0.0046375049 -0.0043291636
0.004845845 0.0046374942 -0.0043291631
0.0052387533 0.0042400053 -0.0043291617
0.0032742154 0.0027825031 -0.0043291701
0.001702592 0.0033124986 -0.0043291701
0.0011787252 0.0017224981 -0.0043291729
0.00065484352 0.005167502 -0.0043291617
0.0011787128 0.0051674945 -0.0043291687
0.00065484445 0.0046375035 -0.0043291673
0.0011787148 0.0042400002 -0.004329171
0.032349281 0.0051674955 -0.0037925006
0.032349288 0.0046375031 -0.0037924959
0.027241502 0.0033124962 -0.0041950024
0.0066794069 -0.0017225021 -0.0047316649
0.0066794055 -0.0011925007 -0.0047316672
0.0072032805 -0.0011924936 -0.0047316635
0.0056316508 -0.0011925044 -0.004731671
0.0056316513 -0.00066249393 -0.0047316616
0.0052387551 -0.00066249812 -0.0047316672
0.010739441 -0.0011924943 -0.004731671
0.010346538 -0.0027824976 -0.0047316696
0.010739438 -0.0022525028 -0.0047316644
0.010739433 -0.0027824973 -0.004731664
0.010346534 0.0011925013 -0.0047316691
0.009822662 0.00066250289 -0.0047316682
0.009822662 0.0011925015 -0.0047316621
-0.017680788 0.0046374942 -0.0033899953
-0.018204652 0.004240002 -0.0041949954
-0.018728528 0.0046374998 -0.0033900049
-0.0052387533 0.003312506 -0.0043291673
-0.034706719 0.0017224941 -0.0033900053
-0.035230596 0.0017225014 -0.0033900007
-0.021740818 0.0051675066 -0.0041949949
-0.021347908 0.0051675024 -0.0041949935
-0.024229225 0.0051675024 -0.0033899948
-0.023705348 0.0051675034 -0.003390003
-0.023705347 0.0051674941 -0.001511666
-0.023181474 0.0051675006 -0.0015116624
-0.025800843 0.0046374979 -0.0009750044
-0.025276963 0.0051674969 -0.00097500638
-0.025276972 0.0046374993 -0.0015116651
-0.025800848 0.0038424965 -0.0015116609
-0.029729903 0.0033124953 -0.0015116716
-0.028682157 0.0038425063 -0.0015116604
-0.029206039 0.0038424938 -0.0033900039
-0.026848596 0.0033124972 -0.0015116687
-0.026848594 0.0038425063 -0.0033899932
-0.026848594 0.0038425035 -0.0015116655
-0.026324717 0.0033124953 -0.0015116681
0.031825416 0.0046375007 -0.0015116669
0.03418285 0.0017225037 -0.00097500277
0.03313509 0.0022525052 -0.0015116713
0.034706715 0.0027825048 -0.00097499369
-0.025800835 -0.0011924963 -0.004731664
-0.025800848 -0.00026499821 -0.0047316654
-0.026324719 0.00013249757 -0.0047316677
-0.026848594 -0.00026499561 -0.0047316635
-0.04164806 -0.0033124946 -0.0037924973
-0.038635783 0.0038424951 -0.0037924983
-0.034182843 -0.0011924978 -0.0047316635
-0.035230588 -0.0011924985 -0.0047316654
-0.035230592 -0.00066249364 -0.0047316696
0.03365897 0.0046375049 -0.00097499392
0.035230596 -0.00026500609 -0.00030417321
0.031825408 0.0027825029 -0.00097499439
0.032742191 -0.0011925021 -0.00030416285
0.033135094 -0.00066249946 -0.0047316607
0.033658974 -0.0011925041 -0.0047316626
0.033658966 -0.0017225037 -0.0047316644
0.03365897 -0.0022525 -0.0047316607
0.033135101 -0.0017225025 -0.0047316672
0.032349288 -0.002252504 -0.004731664
0.032742184 -0.0022524968 -0.0047316691
0.032742195 -0.0031800005 -0.0041949977
0.03313509 -0.0031800044 -0.0041949973
0.030777652 -0.0022525033 -0.00030417228
0.038242884 -0.0060950061 0.0013058272
0.037326101 -0.0022524972 -0.00030416623
0.036278348 -0.0038424968 -0.0037924966
0.03418285 0.0022525017 -0.0015116618
0.034182843 0.0027824969 -0.0015116646
0.037849966 0.0022525063 -0.0015116618
0.038635783 0.0027824962 -0.0015116635
0.036278341 0.0022524977 -0.00097500312
0.036802214 0.00013250101 -0.00030417077
0.035754472 0.00013250206 -0.00030416076
0.024753092 0.0027824971 -0.004329164
0.016240122 0.0051675043 -0.0041950061
0.016240129 0.0046375063 -0.0041949945
0.016240127 0.0062274951 -0.0037924992
0.017680785 0.0062274938 -0.0041949935
0.019252405 0.0062275049 -0.0041950056
-0.013227848 0.0056974976 -0.0041950019
-0.016633028 0.0056974962 -0.0033899937
-0.016240131 0.0062275012 -0.0037924957
-0.015297147 0.0046110009 -0.0042486638
-0.01532334 0.0033125032 -0.004329171
-0.015847215 0.002782495 -0.0043291626
-0.037326094 0.0027825029 -0.0015116648
-0.026324723 -0.0011924976 -0.0003041618
-0.025800843 -0.0011925017 -0.00030416681
-0.026848601 -0.0017225051 -0.00030417205
-0.030777657 -0.0022524963 -0.00030416227
-0.031257872 -0.0027824962 -0.00034888706
-0.032349285 -0.0017225049 -0.00030416739
-0.032742187 -0.00066249567 -0.0003041646
-0.032349277 -0.0011925034 -0.00030416541
-0.028158287 0.00013249391 -0.00030416483
-0.028682154 -0.00066249922 -0.00030416669
-0.029729905 -0.00026500638 -0.00030416204
-0.030253781 -0.0011925022 -0.000304171
-0.029729903 -0.0011924959 -0.00030416425
-0.026324717 0.002782499 -0.0043291626
-0.025276972 0.0027824971 -0.0043291673
-0.028158279 0.0027825003 -0.0033900016
-0.028158285 0.0033125014 -0.0015116732
-0.028158287 0.0027825041 -0.0015116627
-0.026848597 0.0051674987 -0.00097500009
-0.026848597 0.0042399936 -0.00097499997
-0.027634412 0.0033124962 -0.00097499567
-0.027634414 0.0027825059 -0.00097500416
-0.028682154 0.0046375045 -0.0037925025
-0.026324717 0.0033125023 -0.0033900002
0.032742184 -0.0033124939 0.00076917256
0.031825405 -0.0027824936 -0.00030416867
0.032349288 -0.0027824938 -0.00030417182
0.037326097 0.0017225025 -0.0015116626
0.037326101 0.0017224958 -0.0033900056
0.039683536 -0.00066250161 -0.00030417042
0.039683536 -0.00026499492 -0.0003041717
-0.039159656 -0.006094994 -0.0036583326
0.034706727 -0.0062275007 -0.0012433382
0.034182843 -0.0062275021 -0.0012433348
0.034201559 -0.00571643 -0.00032333075
0.034750376 -0.0051675038 -0.00034889369
0.005631655 -0.0062274979 -0.0012433276
0.0056316601 -0.0062274965 -0.00030416204
-0.03824288 -0.0062275026 -0.00084083923
-0.037849978 -0.0062274951 -0.00084083353
-0.0022264663 -0.0056974934 -0.004329172
-0.0037980888 -0.0062275007 -0.0027191702
-0.0027503383 -0.0062275035 -0.0027191697
-0.0032742159 -0.0062274951 -0.0037925006
0.0027503495 -0.0046375035 -0.004329171
0.0027503471 -0.005167501 -0.0043291617
0.0056316508 -0.0056975 -0.004329172
0.0066794078 -0.0062274951 -0.0043291729
0.0066794124 -0.0046374998 -0.0043291636
0.036321998 -0.0061833272 -0.0012433305
0.01113234 -0.0051675034 -0.0043291696
0.010739435 -0.0051675029 -0.0043291673
0.010739442 -0.0046374975 -0.0043291664
0.011132341 -0.0046375007 -0.0043291608
0.010346537 -0.0046374961 -0.0043291729
0.010346527 -0.0042400025 -0.0043291622
0.0087749083 -0.0056975018 -0.0043291659
0.0082510328 -0.005167501 -0.0043291729
0.0098226629 -0.0056975042 -0.0043291701
0.0077271624 -0.0062275045 -0.0027191602
0.0066794124 -0.0062274993 -0.0021825032
0.0082510374 -0.0029149966 -0.00030417147
0.0077271508 -0.0062274989 -0.0016458381
0.0087749017 -0.0062274951 -0.0012433287
0.0052387472 -0.0062275045 -0.0032558287
0.0056316513 -0.0062274975 -0.0021825004
0.0043219719 -0.0062275059 -0.0027191686
0.003798099 -0.0062274956 -0.0032558278
0.00013096989 -0.0051675024 -0.0043291636
0.0027503478 -0.0062274938 -0.00030416739
-0.021347906 -0.0052999947 -0.00030416262
-0.035361566 -0.0062275017 0.00076916232
-0.034706715 -0.0062275031 -0.0012433282
-0.037369747 -0.0062716692 -0.0016458402
-0.037326097 -0.0062275003 -0.0012433312
-0.038504809 -0.0060949982 -0.0012433273
-0.038504817 -0.0060949945 -0.0016458386
-0.023050504 -0.0058300057 0.0022449989
-0.016633032 -0.0062274989 -0.0016458286
-0.035754476 -0.0062275054 -0.00030417158
-0.035754468 -0.0058300011 0.0018424999
-0.033135101 -0.0056974939 -0.0037924964
-0.017680787 -0.0062274942 -0.003792502
-0.019252406 -0.0056975051 -0.0041949963
-0.019252403 -0.0046374965 -0.0043291626
-0.014799476 -0.0062275003 -0.0037925011
-0.015323351 -0.0062275063 -0.0032558315
-0.015847217 -0.0062275007 -0.0027191702
0.0052387463 -0.0056975042 0.0022450055
0.0076834983 -0.0057416698 0.0022449971
0.0023574317 -0.0058300002 0.0018425065
-0.012180098 -0.0062274984 -0.00030417205
-0.010739442 -0.0051674969 -0.00030416902
-0.010739436 -0.0045049959 -0.00030416902
-0.01034653 -0.0045050043 -0.00030417216
0.015192372 -0.0052999952 0.0013058339
0.015192377 -0.0053000059 0.00076915999
0.016240126 -0.0046375012 -0.0003041724
0.016633024 -0.0062275054 -0.00084083399
