# .PCD v0.7 - Point Cloud Data file format
VERSION 0.7
FIELDS x y z
SIZE 4 4 4
TYPE F F F
COUNT 1 1 1
WIDTH 1188
HEIGHT 1
VIEWPOINT 0 0 0 1 0 0 0
POINTS 1188
DATA ascii
-0.021222042 0.00072019239 -0.00065312488
-0.02159 6.6875014e-05 -0.00019374996
-0.019198295 -0.0010700001 -0.00025937494
-0.019198293 -0.0010700001 -0.00071875006
-0.019715415 -0.0010700001 -0.00071875
0.01525521 -0.0010700001 -0.00025937497
0.01524228 -0.0010700001 -0.00074500003
0.015707694 -0.0010700001 -0.00025937494
0.016224818 -0.0010700001 -0.00071875006
0.01712979 -0.00013375001 -0.00360625
0.015901616 -0.00013375001 -0.00360625
0.016030898 0 -0.00360625
0.010277874 0.0010700001 -0.00071875
0.0097607486 0.0010700001 -0.00025937497
0.010277874 0.0010700001 -0.00025937497
0.021072874 -0.00013375001 0.00125
0.021072874 -0.00013375001 0.0016437501
0.021072874 3.3437507e-05 0.0016109375
0.021072874 5.3500007e-05 0.00125
0.02159 -0.00013375001 -0.00032499997
0.020943591 2.6749995e-05 0.00174875
0.020943591 -0.00013375001 0.0016437501
0.019650778 -0.00013375003 0.0020375
-0.019650778 5.4569682e-12 -0.0036062498
-0.020232543 0.0010700001 -0.00032499997
-0.020749671 0.0010700001 -0.00032499997
-0.020749671 0.0010700001 -0.00065312494
-0.020210996 0.0010700001 -0.00067499996
-0.019715417 0.0010700001 -0.00065312494
-0.021072874 -0.00013375003 -0.002753125
-0.021072874 -0.00013375003 -0.0032781251
0.00071104779 0.0010700001 -0.00025937494
0.0012281736 0.0010700001 -0.00025937494
0.0012281736 0.0010700001 -0.00071875006
0.0017452994 0.0010700001 -0.00025937497
0.0027795506 0.0010700001 -0.00025937497
0.0022624249 0.0010700001 -0.00071874994
-0.00025856285 0.0010700001 -0.00025937497
-0.00038784431 -1.8189894e-12 0.00085625006
0.00019392215 0.0010700001 -0.00025937494
0.019679509 5.944445e-05 -0.0032562502
0.019650778 -1.8189894e-12 -0.00360625
0.021072874 8.9166686e-05 -0.0032343753
0.018422604 6.6875e-05 -0.00360625
0.019650778 -0.00013375001 -0.00360625
0.018357964 -0.00013375001 -0.00360625
0.021589998 0.00017387501 -0.00035124997
0.02159 -0.00013375001 -0.000653125
0.02159 0.00066875009 -0.00065312488
0.021072874 -0.00013375003 -0.00124375
0.021253863 -0.00072224997 -0.000653125
0.021253863 -0.00072224985 -0.00032499991
0.021072874 -0.00013375001 0.000790625
0.021072874 -0.00013375001 -0.003146875
0.020943591 -0.00013375001 -0.0032781248
0.020943591 0 -0.0032125001
-0.019715419 -0.0010700001 -0.00025937497
-0.020232543 -0.0010700001 -0.00069250003
-0.021137513 -0.0010700001 -0.00032499997
0.019706186 -0.00013375001 -0.0032499998
0.014479521 -0.00013375003 -0.0032781248
0.013348308 3.3437507e-05 -0.0036390624
0.014479521 0.00013375001 -0.00360625
0.014608801 6.6875007e-05 -0.00360625
0.0082740113 -0.00013375003 -0.00360625
0.0069381036 6.6875014e-05 -0.0036500003
0.0069811973 -0.00013375001 -0.00360625
0.01085964 6.6875007e-05 -0.00360625
0.012152455 0.00013375001 -0.00360625
0.01085964 -0.00013375001 -0.00360625
0.0095668258 -0.00013375001 -0.00360625
-0.014285597 0.0010700001 -0.00025937497
-0.014270679 0.0010700001 -0.00073894241
-0.016224818 0.0010700001 -0.00071875006
-0.015707694 0.0010700001 -0.00071875
-0.018745808 -0.0010700001 -0.00025937497
-0.020943591 -0.00013375001 0.00125
-0.021072874 -0.00013375001 0.0012500002
-0.021072874 -0.00013375001 0.0016437499
-0.020943591 -0.00013375001 0.0016437501
-0.021072874 -7.2759576e-12 0.0016437501
-0.020943591 6.6875007e-05 0.0016437501
-0.021072874 -3.6379788e-12 0.0012500002
-0.017139027 -0.00013375001 0.0016812498
-0.018357964 -5.4569682e-12 0.0020375
-0.017194431 0.00013375001 0.0020375
-0.015901616 1.8189894e-12 0.0020375
0.0043955687 6.6875007e-05 0.0017093751
0.0032320358 0.00013375001 0.0020375
0.0043955687 -3.6379788e-12 0.0020375
0.021072874 4.458335e-05 0.000790625
0.014664208 -0.00013375003 0.0017000001
0.015836975 5.7321442e-05 0.00171875
0.014668469 6.1730774e-05 0.0017043271
0.020943591 -0.00013375001 0.0012500002
0.0031950984 7.642858e-05 0.00125
0.0032966766 0.0010700001 -0.00025937497
0.0029734729 0.00013375001 0.00125
0.0037491613 0.0010700001 -0.00025937497
0.0043955687 6.6875007e-05 0.00125
0.0042016464 0.0010700001 -0.00025937497
-0.010880052 4.9276321e-05 -0.0017134869
-0.011247485 0.0010700001 -0.00071875006
-0.01078207 0.0010700001 -0.00077124999
-0.011247486 0.00073562493 -0.00071875
-0.016741946 -0.0010700001 -0.00025937494
-0.017259073 -0.0010700001 -0.00071875
-0.016741946 -0.0010700001 -0.00071874994
-0.017259073 -0.0010700001 -0.00025937497
-0.016224818 -0.0010700001 -0.000259375
-0.015846211 -0.00013375003 0.00078124995
-0.01587576 -0.00013375003 0.0016962502
-0.010804234 -0.00013375001 0.00078125007
-0.012087815 -0.00013375001 0.0012500002
-0.012087815 -0.00013375003 0.000790625
-0.010795 -0.00013375001 0.00125
-0.0096255904 6.0795464e-05 0.0012619318
-0.010880052 4.9276336e-05 0.00078717107
-0.010878108 4.7767862e-05 0.0012593751
-0.018357964 1.8189894e-12 -0.00360625
-0.01841763 5.1442315e-05 -0.0032629808
-0.020943591 4.458335e-05 -0.001725
-0.020943593 6.6875007e-05 -0.002228125
-0.02159 -0.00066875009 -0.00065312488
-0.021072874 -1.8189894e-12 -0.0017031251
-0.021072874 -1.8189894e-12 -0.002753125
0.0020685028 6.6875e-05 -0.0017031252
0.0029734729 0.00013375001 -0.002228125
0.0029734729 0.00013375001 -0.0016374999
0.00225128 0.00074023689 -0.00076400861
0.0017452994 0.0010700001 -0.00071875
0.0022624251 0.0010700001 -0.000259375
0.00064640725 6.6875014e-05 0.0020703124
0.0019392215 -0.00013375001 0.0017093751
0.0018961277 8.9166679e-05 0.0020375
-0.00061408675 3.3437507e-05 0.0020703124
-0.00060331332 -0.00013375001 0.0020812501
0.0056883828 -0.00013375001 0.0020375
0.0056883828 -3.6379788e-12 0.0020375
0.0069811973 -1.8189894e-12 0.0020375
0.0069811973 -0.00013375001 0.0020375
0.0082740113 6.6875014e-05 0.0020375
-0.00065202801 6.3967404e-05 0.0017008153
-0.00064640702 6.6875007e-05 0.000790625
-0.00064640702 6.6875014e-05 0.00125
-0.011699972 0.0010700001 -0.00025937497
-0.01169997 0.0010700001 -0.00071875006
-0.011247485 0.0010700001 -0.00025937497
-0.0077698147 0.0010700001 -0.00074499997
-0.007756887 0.0010700001 -0.00025937497
-0.008209371 0.0010700001 -0.00071875
-0.0094375443 3.6379788e-12 -0.001703125
-0.0092485948 0.0010700001 -0.0007389423
-0.0092589008 0.00073197717 -0.00075215916
-0.0087264972 0.0010700001 -0.00071875
-0.0071104788 6.6875007e-05 0.0012500002
-0.0082801683 5.7321442e-05 0.00077499996
-0.0082901716 5.8515645e-05 0.0012417968
0.018422604 6.6875007e-05 -0.0032781248
0.021272412 0.00074434764 -0.00033070651
0.021137515 0.0010700001 -0.00032499997
0.021137513 0.0010700001 -0.000653125
0.021276027 0.00072989281 -0.00067000004
0.021589998 0.00066875009 -0.00032499997
0.021072874 -0.00013375001 -0.002228125
-0.020749671 -0.0010700001 -0.00032499997
-0.021137515 -0.0010700001 -0.000653125
-0.02074967 -0.0010700001 -0.000653125
0.021589998 0.00020062501 -0.000653125
0.021072874 -0.00013375001 0.00046250003
0.020749662 -0.00073562493 -0.00032499997
-0.020244768 0.00073020259 -0.00067972974
-0.019728344 -0.00013375001 0.0016699999
-0.018409675 -0.00013375001 0.0016437501
0.012087815 -0.00013375001 -0.0032781251
0.01338063 -0.00013375001 -0.0017031251
0.013769686 -0.00073183951 -0.00074351416
0.013768472 -0.0010700001 -0.00071874994
0.013246376 -0.0010700001 -0.00073894224
0.01338063 -0.00013375003 -0.0022281248
0.013371395 -0.00013375001 -0.0032499996
-0.003167395 -0.00013375001 -0.00360625
-0.0019392215 -5.4569682e-12 -0.003671875
-0.0018961278 -0.00013375001 -0.0036500001
-0.00071104779 0.0010700001 -0.00025937497
0.0095668258 6.6875014e-05 -0.00360625
-0.017151337 8.9166679e-05 -0.0036062498
-0.017129792 6.6875007e-05 -0.0032781251
-0.015846211 6.6875007e-05 -0.0033062499
-0.017151339 -0.00013375001 -0.0032781251
-0.019665144 4.4583336e-05 -0.0017104166
-0.017776197 -0.0010700001 -0.00071875
-0.018293321 -0.0010700001 -0.00071874994
-0.018293321 -0.0010700001 -0.00025937497
-0.018745808 -0.0010700001 -0.00071874994
-0.012087813 5.7321442e-05 -0.0017312502
-0.020247459 -0.0010700001 -0.00030480768
-0.005753024 6.6875014e-05 0.0017093751
-0.0056883828 3.6379788e-12 0.0020375
-0.0069811973 6.6875007e-05 0.0020375
-0.016030898 0 0.0017093751
-0.015901616 4.4583343e-05 0.0017093751
-0.016030898 3.6379788e-12 0.0012500002
-0.015858524 5.9444457e-05 0.0012645836
0.0045248498 5.7321435e-05 0.0016812501
0.0032061797 8.0250014e-05 0.0017093751
0.0047187721 0.0010700001 -0.00025937497
0.020943591 0 0.0012500002
0.020943591 -3.6379788e-12 0.000790625
0.01968061 4.1153849e-05 0.0016639421
0.018422604 5.7321449e-05 0.0017187502
0.018422604 5.3500007e-05 0.00125
0.0043955687 -0.00013375001 0.0016437501
0.0045248503 -0.00013375003 0.0016437501
0.0069165565 6.6875014e-05 0.0017093751
0.0062701493 0.0010700001 -0.00025937497
0.0067872745 0.0010700001 -0.00071875
0.0062651765 0.0010700001 -0.0007389423
0.013345824 5.1442323e-05 0.0016942308
0.017168576 -0.00013375001 0.000790625
0.018422605 -0.00013375001 0.00125
0.017129792 -0.00013375001 0.00125
0.006916556 6.6875014e-05 -0.0022281252
0.0057142396 8.0250014e-05 -0.0027531243
0.006916557 6.6875007e-05 -0.0027531253
0.0057530235 -0.00013375003 -0.002753125
0.0069553405 -0.00013375001 -0.0027399999
0.0069381036 -0.00013375001 -0.0032562502
0.0042016469 0.0010700001 -0.00071875
-0.017129792 5.35e-05 0.00127625
0.0018745807 6.6875014e-05 -0.002228125
0.0018745809 6.6875014e-05 -0.0017031251
0.00064640725 6.6875e-05 -0.0027531246
0.0018745807 6.6875007e-05 -0.0027531253
0.00064640713 6.6875007e-05 -0.001703125
-0.00038784431 3.6379788e-12 -0.0032124999
-0.00064640702 6.6875e-05 -0.0027531248
-0.00064640713 6.6875014e-05 -0.0032781253
-0.00038784431 3.6379788e-12 -0.00281875
-0.00038784431 -5.4569682e-12 -0.0021625001
-0.017776195 -0.0010700001 -0.00025937497
0.0031980146 7.7434226e-05 0.00078717107
0.00064640713 6.6875007e-05 0.00125
-0.011247486 -0.0010700001 -0.00025937497
-0.010794998 -0.0010700001 -0.00025937497
-0.011699971 -0.0010700001 -0.00025937497
-0.012217096 -0.0010700001 -0.00025937497
0.014285596 -0.0010700001 -0.00025937494
0.014802724 -0.0010700001 -0.00071875
0.014285595 -0.0010700001 -0.00071875
0.01273422 -0.0010700001 -0.00071875006
-0.0052358978 0.0010700001 -0.00071875006
-0.0047187721 0.0010700001 -0.00025937497
-0.0062701488 0.0010700001 -0.00025937497
-0.0027795509 0.0010700001 -0.00071875006
-0.0027795509 0.0010700001 -0.00025937497
-0.020943591 -0.00013375003 -0.001703125
-0.021072874 0 -0.00124375
-0.021072874 -1.8189894e-12 -0.002228125
-0.020943591 -0.00013375003 -0.0032124997
-0.019715417 -0.00013375001 -0.0027531248
-0.019724652 -0.00013375003 -0.0032875
-0.020943591 -0.00013375001 -0.002753125
-0.00064640702 6.6875e-05 -0.002228125
-0.00038784431 -0.00013375003 -0.0026875001
-0.00064640713 -0.00013375001 -0.0022281248
-0.00038784431 -0.00013375001 -0.002228125
-0.0018745807 -0.00013375003 -0.002228125
-0.00064640713 -0.00013375003 -0.0027531248
0.0029734729 0.00013375001 0.00076874997
-0.0032966763 0.0010700001 -0.00025937494
-0.0031732714 6.0795472e-05 0.0012500002
-0.0037491617 0.0010700001 -0.00025937497
-0.0031717045 6.2416686e-05 0.00078624988
-0.0069165565 -0.00013375001 -0.002753125
-0.005753024 -0.00013375003 -0.002228125
-0.005753024 -0.00013375001 -0.002753125
-0.0069165565 -0.00013375001 -0.002228125
-0.0062701493 0.00073562493 -0.00071875012
-0.005753024 6.6875014e-05 -0.0017031248
-0.006916557 6.6875007e-05 -0.001703125
-0.0057579959 0.0010700001 -0.0007389423
-0.010794998 0.0010700001 -0.00025937497
-0.0068057436 0.0010700001 -0.00075625
-0.0071104788 4.4583343e-05 -0.001703125
-0.0069208667 6.2416679e-05 0.0016962502
-0.0071104788 4.458335e-05 0.0017093751
-0.0073044007 0.0010700001 -0.00025937494
-0.018422604 4.4583343e-05 0.0017093751
-0.019198297 0.0010700001 -0.00032499997
-0.018745808 0.0010700001 -0.00071875
-0.019198291 0.0010700001 -0.000653125
-0.018757561 0.0010700001 -0.00027727272
-0.012217094 0.0010700001 -0.00071874994
-0.012203241 0.00072845974 -0.00075624994
-0.0020685028 -0.00013375001 -0.00360625
-0.0045248498 6.6875007e-05 -0.0032781251
-0.0043955687 4.4583343e-05 -0.0036500001
-0.0045248503 4.4583343e-05 -0.0036500001
-0.0045248503 -0.00013375001 -0.00360625
-0.0031673952 -0.00013375001 -0.0027531248
-0.0029734729 -0.00013375001 -0.0032781248
-0.0029734729 -0.00013375001 -0.0027531248
0.019683095 4.4583343e-05 0.00125
0.020232543 -0.00073562498 -0.00065312505
0.019650778 -0.00013375001 -0.001703125
0.020232543 -0.0010700001 -0.000653125
0.018413369 -0.00013375001 -0.0032500003
0.019693872 -0.00013375001 -0.0027531248
0.017129792 6.6875014e-05 -0.0032781251
0.017129792 6.6875007e-05 -0.0027531253
0.021072876 6.6875007e-05 -0.0027531248
0.021072874 -0.00013375003 -0.002753125
0.021072876 5.7321442e-05 -0.0017125001
0.010804233 5.7321435e-05 0.00080000004
0.011247486 0.0010700001 -0.00025937497
0.011247485 0.000754732 -0.00028749998
0.0095668258 -0.00013375003 -0.002228125
0.01085964 -0.00013375003 -0.002228125
0.010259405 -0.0010700001 -0.00075625005
0.01085964 -0.00013375003 -0.0017031251
0.0095668258 -0.00013375001 -0.001703125
0.010794998 -0.0010700001 -0.00071875006
0.011260413 -0.0010700001 -0.00074499997
0.012087815 -0.00013375003 -0.0022281248
0.016741944 -0.0010700001 -0.00025937497
0.016224818 -0.0010700001 -0.00025937497
-0.021228006 0.00072224991 -0.00032171866
-0.021072874 -1.8189894e-12 0.000790625
-0.020943591 -0.00013375001 0.000790625
-0.018357964 -0.00013375003 0.000790625
-0.019728344 -0.00013375001 0.00127625
0.014673442 -0.00013375003 -0.0032781246
0.015836976 -0.00013375001 -0.0032781251
0.010794998 6.6875007e-05 -0.0027531246
0.012087813 6.6875014e-05 -0.002228125
0.010799307 6.2416671e-05 -0.0022412499
0.012087813 6.6875e-05 -0.002753125
0.019198293 -0.0010700001 -0.00065312494
0.018745808 -0.0010700001 -0.00068124995
0.017129792 -0.00013375001 -0.0032781246
-0.0082416907 3.34375e-05 -0.0036390624
-0.0095668258 -0.00013375001 -0.00360625
-0.0082740113 -0.00013375001 -0.0036062498
-0.0095668258 6.6875007e-05 -0.00360625
-0.0071104793 6.6875014e-05 -0.002753125
-0.0071104793 6.6875007e-05 -0.0022281248
-0.0069257906 6.6875e-05 -0.0027625
-0.0082816165 4.7205889e-05 -0.0032588236
-0.0082869399 5.3500007e-05 -0.0027465625
-0.005753024 6.6875007e-05 -0.0027531253
-0.0045248498 6.6875e-05 -0.0027531248
0.0057207029 3.34375e-05 -0.0036390624
0.0057087964 7.7434219e-05 -0.003274671
-0.00064640713 2.6749995e-05 -0.0036325001
-0.001874581 6.6875007e-05 -0.0032781251
-0.00064640713 -0.00013375001 -0.0036849999
-0.0018745807 -0.00013375001 -0.0032781251
-0.00064640713 -0.00013375001 -0.0032781251
0.001874581 6.6875007e-05 -0.0032781248
0.0020685028 6.6875007e-05 -0.0032781248
0.0018875089 8.0250014e-05 -0.0036325001
0.0069165565 6.6875014e-05 -0.0032781251
0.0071104793 6.6875e-05 -0.0032781251
0.0071104788 0 -0.00360625
0.010799307 7.133335e-05 -0.0032650002
0.0095668258 6.6875007e-05 -0.002753125
-0.019676637 5.35e-05 -0.0022281248
-0.018418293 6.2416679e-05 -0.0027487499
-0.017160408 5.6315796e-05 -0.0027427631
-0.0062701497 0.0010700001 -0.00071875
0.0027795509 0.0010700001 -0.00071875006
0.013345824 5.1442315e-05 -0.0032629808
0.013359084 4.4583336e-05 -0.0027531253
0.01447952 6.6875014e-05 -0.002753125
0.013359084 4.4583336e-05 -0.0017031251
0.013359084 4.4583343e-05 -0.0022281248
0.01447952 5.7321442e-05 -0.0017125
0.00062290148 7.2954565e-05 -0.0036778413
0.0032320358 -0.00013375001 -0.00360625
0.0019392215 -0.00013375001 -0.00360625
-0.0067872754 0.0010700001 -0.00025937497
0.0082309172 4.4583343e-05 -0.0036062498
0.0071104788 5.3500007e-05 0.00125
0.0069165565 6.6875007e-05 0.00125
0.0073044011 0.0010700001 -0.00025937497
0.010816545 5.5729171e-05 0.0016765625
0.010800875 6.0795464e-05 0.00125
0.0095668258 6.6875014e-05 0.0017093751
0.0094375443 -0.00013375001 0.0019062501
-0.019724652 -0.00013375001 -0.00169375
-0.019198284 -0.00073562493 -0.00071875
-0.01584621 6.6875014e-05 -0.0027625
-0.014673442 6.6875007e-05 -0.002753125
-0.014673442 -0.00013375003 -0.0032781251
-0.015846211 -0.00013375003 -0.0027437501
-0.01587576 -0.00013375001 -0.0032387502
-0.018401058 -0.00013375001 -0.0032562495
-0.017129792 -0.00013375001 -0.0027531248
-0.017129792 -0.00013375001 -0.002228125
-0.018357964 -0.00013375001 -0.0021625001
-0.011247485 -0.0010700001 -0.00071875
-0.010794998 -0.0010700001 -0.00071875
-0.010816545 -0.00013375001 -0.0022500001
-0.010816547 -0.00013375001 -0.001659375
-0.012087815 6.6875007e-05 -0.0032781248
-0.013359084 5.9444457e-05 -0.0032635417
-0.012087815 0.00013375001 -0.00360625
-0.014608801 -0.00013375001 -0.00360625
-0.0095668258 -0.00013375003 0.0017093751
-0.010804233 -0.00013375001 0.00171875
-0.0096165501 6.1730789e-05 0.0016942308
-0.0071104788 -0.00013375001 0.0017093751
-0.0082740113 -0.00013375001 0.0016699999
-0.0043955687 6.6875007e-05 0.0017093751
-0.0043955687 -5.4569682e-12 0.0020375
-0.0031766295 6.6875007e-05 0.0016812501
-0.0032061792 -0.00013375001 0.0017356251
-0.01273422 -0.0010700001 -0.00025937497
-0.01273422 -0.0010700001 -0.00071875
-0.012217096 -0.0010700001 -0.00075625005
-0.0019392215 0 0.0020375
-0.0018745807 -0.00013375003 0.0020375
-0.0020685028 5.3500007e-05 0.00125
0.0057013119 6.6875014e-05 0.00078406243
0.006916556 6.6875014e-05 0.000790625
0.0029734729 0.00013375001 0.0016437501
0.020943591 -0.00013375001 -0.001703125
0.019650778 -0.00013375001 -0.002228125
0.020749664 -0.00073562498 -0.00065312505
0.020943591 -0.00013375001 -0.002753125
0.018422604 6.6875007e-05 -0.0027531248
0.015707696 -0.0010700001 -0.00071875006
0.0057530235 -0.00013375003 0.0017093751
0.017129792 -0.00013375003 0.0017093751
0.017134102 7.1333336e-05 0.0016962502
0.016935868 -0.00013375001 0.0015781249
0.012109362 -0.00013375003 0.0017093751
0.012083502 6.2416671e-05 0.0016962502
0.008288376 -0.00013375001 0.0016729166
-0.017140565 5.5729179e-05 0.0017093751
-0.012087815 -0.00013375003 0.0016437501
0.0057530235 -0.00013375001 0.00125
0.0031766295 -0.00013375001 0.0016812501
0.0043955687 -0.00013375001 0.00125
-0.0018745807 -0.00013375001 -0.002753125
-0.006787275 -0.0010700001 -0.00025937497
-0.007756887 -0.0010700001 -0.00025937497
-0.0072894837 -0.0010700001 -0.0007389423
-0.004340162 -0.00013375001 0.0016812498
-0.004330928 -0.00013375001 0.00125
0.0020685028 6.6875007e-05 -0.002228125
0.0018961276 -0.00013375001 -0.003234375
0.00064640725 -0.00013375001 -0.0032781251
0.0018838152 -0.00013375001 -0.00278125
0.0020685028 -0.00013375001 -0.0032781248
0.00064640713 -0.00013375001 -0.00360625
0.00064640725 -0.00013375003 -0.0022281252
0.00019392214 -0.0010700001 -0.00071875
0.00064640725 -0.00013375001 -0.0027531253
-0.0018745807 -0.00013375001 -0.0017031252
-0.0071104788 -0.00013375001 0.000790625
-0.0082740113 -0.00013375003 0.000790625
-0.0082816165 5.5073535e-05 0.0016900739
-0.0094375443 -0.00013375001 0.0017093751
-0.013380631 5.5729186e-05 0.0016765627
-0.013272894 -0.00013375001 0.0016875002
-0.014479521 5.3500014e-05 0.0016699999
-0.0094375443 3.34375e-05 0.00125
-0.0094375443 -3.6379788e-12 0.000790625
-0.0092436224 0.0010700001 -0.00025937494
-0.0096165501 6.1730781e-05 0.00079567311
0.00064640713 6.6875014e-05 0.0017093753
0.00064640713 6.6875014e-05 0.000790625
-0.0082093701 -0.0010700001 -0.00025937497
-0.0087264962 -0.0010700001 -0.00025937494
0.014802724 -0.0010700001 -0.00025937494
0.014479521 -0.00013375003 0.0012500002
0.014479521 -0.00013375001 0.000790625
0.012097049 -0.00013375003 -0.00169375
0.012217097 -0.0010700001 -0.00071875006
0.012083503 6.2416686e-05 -0.0017075001
0.011685054 -0.0010700001 -0.00073894236
-0.0031889423 -0.00013375001 -0.0033
-0.003167395 6.6875e-05 -0.0032781251
-0.0020685028 6.6875007e-05 -0.002753125
-0.0020685028 5.7321442e-05 -0.0032499998
-0.0031673948 6.6875e-05 -0.0027531255
0.014802724 0.0010700001 -0.00071875006
0.014802724 0.0010700001 -0.00025937494
0.013768473 0.0010700001 -0.00025937497
0.015707694 0.0010700001 -0.00025937497
0.017776195 0.0010700001 -0.00025937497
0.018293321 0.0010700001 -0.00025937497
-0.0047187721 0.0010700001 -0.00071875
-0.0043955687 6.6875007e-05 -0.002753125
-0.0045248498 6.6875014e-05 -0.002228125
-0.003167395 6.6875007e-05 -0.002228125
-0.0029734729 -0.00013375003 -0.002228125
-0.0031673952 -0.00013375001 -0.0022281248
-0.021072874 -0.00013375003 -0.00124375
-0.021072874 -0.00013375001 -0.002228125
0.0012281736 0.00073562487 -0.00071875006
-0.0042016464 0.0010700001 -0.00025937497
-0.0020685028 4.458335e-05 -0.0017031251
-0.003167395 6.6875014e-05 -0.0017031251
-0.0027795511 0.00074364973 -0.00072925002
-0.0022624251 0.0010700001 -0.00025937497
0.0012281735 -0.0010700001 -0.00025937494
0.00071104791 -0.0010700001 -0.00025937497
0.00064640725 -0.00013375003 0.000790625
0.00071104802 -0.0010700001 -0.00071875006
-0.0071104788 -0.00013375003 -0.002753125
-0.008224288 -0.0010700001 -0.0007389423
-0.0082672071 4.9276328e-05 -0.0016996709
-0.010277874 0.0010700001 -0.00025937497
-0.010859639 3.5666671e-05 0.0016787502
-0.011707726 0.00073027494 -0.00072924996
-0.0077668335 0.00074076909 -0.0007389423
-0.0087265 0.00073562475 -0.00071875006
-0.0097458307 0.0010700001 -0.00073894236
-0.01525521 0.0010700001 -0.00025937497
-0.015255208 0.0010700001 -0.00071875
-0.014802724 0.0010700001 -0.00071875006
-0.016239734 0.0010700001 -0.00030480768
-0.019715415 0.0010700001 -0.00032499997
-0.013251348 0.0010700001 -0.00071875
-0.01273422 0.0010700001 -0.00025937497
-0.012734219 0.00073562475 -0.00071875
-0.013338804 4.7205889e-05 -0.001714706
-0.0031673952 -0.00013375001 0.00125
-0.0043955687 6.6875007e-05 -0.002228125
-0.0045248503 -0.00013375001 -0.002753125
-0.0057530235 -0.00013375001 -0.0032781251
-0.0043955687 6.6875007e-05 -0.0032781251
0.020943591 -0.00013375003 0.000790625
0.019715417 -0.00013375001 0.0017093751
0.018422604 -0.00013375001 -0.002753125
0.017151337 4.458335e-05 -0.0036062498
0.020749671 0.0010700001 -0.000653125
0.020232543 0.0010700001 -0.00032499997
0.020749671 0.0010700001 -0.00032499997
0.020745354 0.00074899994 -0.00033374995
0.021072876 5.7321427e-05 -0.00225625
0.020232545 0.0010700001 -0.00069249998
0.0095668258 6.6875e-05 0.00125
0.012087815 6.6875e-05 0.0012500002
0.013359083 4.4583336e-05 0.0012500002
0.010277873 -0.0010700001 -0.00025937497
0.0095668258 6.6875007e-05 -0.002228125
0.010799307 6.2416679e-05 -0.0017075
0.011699971 -0.0010700001 -0.00025937494
0.0071104788 4.4583343e-05 0.0016875002
0.006925791 -0.00013375001 0.0016812498
0.0069165565 -0.00013375003 0.00125
0.0069165565 -0.00013375001 0.00079062511
-0.021589998 -0.00066875009 -0.00032499997
-0.018422604 6.6875014e-05 -0.002228125
-0.017168576 -0.00013375001 0.00083000003
-0.020943591 5.3500007e-05 0.00127625
-0.018422604 5.3500007e-05 0.00127625
0.014673442 -0.00013375003 0.00125
0.016030898 -0.00013375003 0.0016437499
0.016935868 -0.00013375001 0.00125
0.012087815 -0.00013375001 -0.002753125
0.013371395 -0.00013375001 -0.0027812498
0.014479521 -0.00013375001 -0.0027531248
0.019715417 -0.0010700001 -0.000653125
0.018745808 -0.0010700001 -0.00029874995
0.01831487 -0.0010700001 -0.00067500002
0.016935868 -0.00013375001 -0.0032125001
0.016030898 4.4583343e-05 -0.0027750002
-0.012152455 -0.00013375001 -0.00360625
-0.010924282 5.4569682e-12 -0.00360625
-0.010885496 5.3500007e-05 -0.0032781251
-0.0094375443 -0.00013375001 -0.0032781248
-0.0082740113 -0.00013375003 -0.0027531248
-0.0082740113 -0.00013375001 -0.0032781251
-0.0094375443 -0.00013375001 -0.0027531248
-0.0069165565 -0.00013375001 -0.0032781251
-0.0069257915 6.6875007e-05 -0.0021999998
-0.0069165565 -0.00013375001 -0.0017031251
-0.0057530235 -0.00013375001 -0.001703125
0.0029734729 0.00013375001 -0.0032781248
0.0031673952 -0.00013375001 -0.0032781251
0.0031673952 -0.00013375001 -0.002753125
0.012087814 6.6875007e-05 -0.0032781248
0.0095668258 -0.00013375001 -0.0032781248
0.0095668258 6.6875e-05 -0.0032781251
-0.005753024 6.6875014e-05 -0.0022281248
0.0037491615 0.0010700001 -0.00071875
0.0043955687 6.6875007e-05 -0.001703125
0.004215891 0.00073222438 -0.00076769071
0.0043955687 6.6875007e-05 -0.002228125
0.0031889421 7.4305557e-05 -0.0016958335
0.0043955687 6.6875014e-05 -0.002753125
0.0043955687 6.6875e-05 -0.0032781251
0.01273422 0.0010700001 -0.00025937497
0.013251348 0.0010700001 -0.00071875
0.012217096 0.0010700001 -0.00071874994
0.01169997 0.0010700001 -0.00071875006
0.011247485 0.0010700001 -0.00071875006
0.01447952 6.6875007e-05 -0.0032781251
0.014673442 6.6875007e-05 -0.0032781251
0.013764509 0.00073153054 -0.00072410709
0.0047187721 0.0010700001 -0.00071875
0.00064640713 6.6875007e-05 -0.0032781248
0.0082740122 6.6875014e-05 -0.0032781244
0.0087264962 0.0010700001 -0.00071875
0.0097607477 0.0010700001 -0.00071875
0.0067872759 0.0010700001 -0.00025937497
0.0071104793 5.7321442e-05 0.00078125007
0.013251348 0.0010700001 -0.00025937497
0.012217095 0.0010700001 -0.00025937497
0.011699971 0.0010700001 -0.00025937497
0.010794998 0.0010700001 -0.00025937494
-0.018357964 -0.00013375001 -0.001703125
-0.019724652 -0.00013375003 -0.0022374999
-0.014673442 6.6875007e-05 -0.002228125
-0.01447952 6.6875007e-05 -0.002753125
-0.01447952 6.6875014e-05 -0.0022281248
-0.015858522 5.5729179e-05 -0.001725
-0.016030898 -5.4569682e-12 -0.0032124997
-0.018422604 -0.00013375001 -0.0027312499
-0.010292792 0.0010700001 -0.0007389423
-0.010289279 0.00073955866 -0.00073419121
-0.00960992 6.6875007e-05 -0.0032343753
-0.009631468 6.6875007e-05 -0.0027531246
-0.0094375443 -1.8189894e-12 -0.002753125
-0.01169997 -0.0010700001 -0.00071874994
-0.01085964 -0.00013375003 -0.00360625
-0.0087215248 -0.0010700001 -0.0007389423
-0.0092436224 -0.0010700001 -0.00025937494
-0.012087813 6.6875007e-05 -0.0027531248
-0.013350012 5.6315796e-05 -0.0027496712
0.0071104788 -0.00013375003 -0.002753125
-0.0094375443 -0.00013375001 0.00125
-0.0069165565 -0.00013375001 0.0017093751
-0.0069165565 -0.00013375001 0.0012500002
-0.0062701488 -0.0010700001 -0.00025937497
-0.0045248498 6.6875014e-05 0.0017093751
-0.013768473 -0.0010700001 -0.00071875006
-0.014682676 -0.00013375003 0.0016812498
-0.015836976 -0.00013375001 0.00125
-0.01525521 -0.0010700001 -0.00025937497
-0.014802724 -0.0010700001 -0.00025937497
-0.014673442 -0.00013375001 0.00125
-0.015707694 -0.0010700001 -0.00025937494
-0.0020685028 5.7321435e-05 0.00078125007
-0.0020685028 4.4583343e-05 0.0017093751
-0.013768472 0.0010700001 -0.00071875
-0.013359084 5.944445e-05 -0.0022208334
0.0057530231 -0.00013375001 0.000790625
0.0052358978 -0.0010700001 -0.00025937497
0.0043955687 -0.00013375001 0.000790625
0.0057068518 6.6875007e-05 0.0012593751
0.0062663467 0.00073955866 -0.00073419116
0.0057111979 6.2941188e-05 -0.0016915441
0.0057579959 0.0010700001 -0.00073894236
0.020943591 -0.00013375001 -0.002228125
0.021072874 -0.00013375003 -0.0017031251
0.018413369 -0.00013375001 0.00171875
0.010859641 -0.00013375001 0.0016437499
0.012087815 -0.00013375001 0.00125
0.0045248498 4.458335e-05 -0.0016812502
0.0052447701 0.00072906853 -0.00073419116
0.0071104793 6.6875007e-05 -0.002753125
0.0071104793 6.6875007e-05 -0.002228125
0.0082740132 6.6875014e-05 -0.0027531248
0.003167395 6.6875007e-05 -0.002228125
0.0031673948 6.6875007e-05 -0.002753125
0.0045248498 6.6875014e-05 -0.002753125
0.0047029182 0.00073183945 -0.00074351416
-0.014673442 6.6875014e-05 0.0016437499
0.0062701488 -0.0010700001 -0.00025937497
0.0057530235 -0.00013375001 -0.0032781251
0.0052358969 -0.00073562475 -0.00071875
0.0043955687 -0.00013375003 -0.001703125
0.0057530235 -0.00013375001 -0.0017031252
0.0031803232 -0.00013375001 0.00125
0.0031766295 -0.00013375003 0.00078125007
0.0020685028 -0.00013375003 0.00125
0.0027795506 -0.0010700001 -0.00025937497
0.0020685028 -0.00013375003 0.0016437499
0.0020685028 -0.00013375001 -0.002228125
0.0031673952 -0.00013375003 -0.002228125
-0.0062701497 -0.0010700001 -0.00071875
-0.005753024 -0.0010700001 -0.00075624988
-0.0057530235 -0.00013375001 -0.00360625
-0.00069613068 -0.0010700001 -0.00073894236
-0.00038784431 -0.00013375001 -0.001703125
-0.00064640713 -0.00013375001 -0.001703125
-0.009622233 5.7321449e-05 -0.0017031251
-0.0095668258 -0.00013375001 -0.001703125
0.0020685028 6.6875007e-05 -0.002753125
-0.00038784431 -0.00013375001 -0.0032781251
0.00064640713 6.6875007e-05 -0.0022281257
0.00038784431 0.00013375001 -0.0016375
-0.0020685028 -0.00013375001 -0.002228125
-0.0020685028 -0.00013375001 -0.001703125
-0.0029734729 -0.00013375001 -0.001703125
-0.0071104793 5.7321427e-05 0.00078124995
-0.0071104788 -0.00013375003 0.00125
-0.0073044011 -0.0010700001 -0.00025937494
-0.0069165565 -0.00013375001 0.000790625
-0.0094375443 -0.00013375001 0.000790625
0.0043955687 6.6875007e-05 0.000790625
0.0045248498 5.7321435e-05 0.00078125007
0.00064640725 -0.00013375001 0.0012500002
0.0020685028 6.6875007e-05 0.0017093751
0.0018745809 6.6875007e-05 0.0017093748
0.0018745809 6.6875007e-05 0.00125
0.012217095 -0.0010700001 -0.00025937497
0.013768473 -0.0010700001 -0.00025937497
0.013251348 -0.0010700001 -0.00025937494
0.013402176 -0.00013375001 0.00079062511
0.013393557 -0.00013375001 0.0016437501
0.014479521 3.3437507e-05 0.0016109375
0.0087264962 -0.0010700001 -0.00025937497
0.0082370732 -0.00013375003 0.0012687501
0.0082093701 -0.0010700001 -0.00025937497
-0.0020685028 -1.8189894e-12 -0.00360625
0.013768473 0.0010700001 -0.00071875006
0.015901616 6.6875007e-05 -0.00360625
0.018745808 0.0010700001 -0.00025937497
0.019715415 0.0010700001 -0.00071874994
0.018293323 0.0010700001 -0.00071874994
0.019198297 0.0010700001 -0.00025937497
0.019198297 0.0010700001 -0.00071874994
0.017259073 0.0010700001 -0.00071875006
0.018745808 0.0010700001 -0.00071875
0.016224818 0.0010700001 -0.00025937497
0.016030898 5.35e-05 0.00125
-0.018293323 0.0010700001 -0.00032499997
-0.017763266 0.0010700001 -0.00027249995
0.00071104791 0.0010700001 -0.00071875006
0.00019392215 0.0010700001 -0.00071875006
-0.0012281736 0.0010700001 -0.00071875
-0.0022624249 0.0010700001 -0.00071875006
-0.0012281734 0.00073562493 -0.00071875
-0.00064640702 6.6875007e-05 -0.001703125
-0.001874581 6.6875007e-05 -0.002228125
-0.0020685028 6.6875007e-05 -0.0022281248
-0.021072874 -0.00013375001 -0.0017031251
0.0020685028 6.6875007e-05 0.000790625
0.0018838152 -0.00013375001 0.00078125007
-0.0032966768 0.0010700001 -0.00071875
-0.0042016464 0.0010700001 -0.00071875006
0.0022624251 -0.0010700001 -0.00025937497
0.00064640725 -0.00013375001 -0.001703125
0.0018961276 -0.00013375001 -0.002228125
0.0019392215 -0.00013375001 -0.001703125
0.0057530235 -0.00013375001 -0.00360625
0.0045248503 3.6379788e-12 -0.00360625
0.0043955687 -0.00013375003 -0.0032781248
-0.0071104788 -0.00013375001 -0.002228125
-0.0057530245 0.0010700001 -0.00025937494
-0.0057314769 6.6875007e-05 0.00076874997
-0.0057530235 6.6875014e-05 0.0012500002
-0.0047063399 0.00073048071 -0.0007389423
-0.0052398541 0.00073153048 -0.00072410703
-0.016209902 -0.0010700001 -0.0007389423
-0.01572261 -0.0010700001 -0.00073894236
-0.016748289 -0.00073955866 -0.00073419121
-0.0082857646 6.0795464e-05 -0.0022400571
-0.0094375443 1.8189894e-12 -0.002228125
-0.0097607486 0.0010700001 -0.00025937497
-0.0094375443 5.35e-05 0.0017225002
-0.012087815 5.3500007e-05 0.0016699999
-0.012087815 5.35e-05 0.00127625
-0.013374754 6.0795472e-05 0.0012619318
-0.017246144 0.0010700001 -0.00027249995
-0.017259074 0.0010700001 -0.00071874994
-0.015689226 0.0010700001 -0.00028749995
-0.012217096 0.0010700001 -0.00025937497
-0.013251348 0.0010700001 -0.00025937494
-0.013768468 0.00073562493 -0.00071875006
-0.01273422 0.0010700001 -0.00071875
-0.01447952 5.7321427e-05 -0.0032500003
-0.0045248503 -0.00013375001 0.000790625
-0.0045248503 -0.00013375003 0.0012500002
-0.0042016464 -0.0010700001 -0.00025937494
-0.0052358978 -0.0010700001 -0.00071875006
-0.0045248503 -0.00013375001 -0.0032781248
-0.0045248503 -0.00013375003 -0.002228125
-0.0045248503 -0.00013375001 -0.0017031251
-0.0043309284 -0.00013375001 -0.0017031252
-0.0047038551 -0.0010700001 -0.0007389423
-0.004330928 -0.00013375001 -0.0032781251
-0.0043309284 -0.00013375001 -0.002753125
0.020236664 0.00073989353 -0.00032779246
0.019715415 -0.0010700001 -0.00032499997
0.018422604 -0.00013375003 -0.002228125
0.019676637 5.3500014e-05 -0.002753125
0.0095668258 -0.00013375001 0.000790625
0.01085964 -0.00013375001 0.000790625
0.0094375452 6.6875007e-05 0.0017093751
0.0082740113 6.6875014e-05 0.0017034095
0.0094375443 -0.00013375001 -0.002228125
0.0094375452 6.6875e-05 -0.002228125
0.0094375452 6.6875014e-05 -0.001703125
0.0092436224 0.0010700001 -0.00071875
0.011699967 0.00073314796 -0.00074791681
0.0077568865 0.0010700001 -0.00025937497
0.0071104788 -0.00013375003 0.0016437501
0.0071104788 -0.00013375001 -0.002228125
0.0071104788 -0.00013375001 -0.0017031251
0.0069553414 -0.00013375001 -0.0021887501
0.0087265 0.00073562487 -0.00071874994
0.0082740132 6.6875007e-05 -0.001703125
0.0069208657 6.2416679e-05 -0.0017074998
0.006925791 -0.00013375001 -0.0016750001
-0.019182894 0.00071970228 -0.00070000003
-0.017129792 -0.00013375001 0.00125
-0.018422604 5.7321442e-05 0.00078125007
-0.017125484 6.2416671e-05 0.00078624999
-0.016030898 0 0.000790625
-0.020943593 5.7321442e-05 0.00078125007
-0.018390285 -0.00013375001 0.0012171874
0.014673442 -0.00013375003 0.000790625
0.015836976 -0.00013375003 0.0017093751
0.016935868 -0.00013375003 0.00085624994
0.014479521 5.3500007e-05 0.00125
0.014285596 0.0010700001 -0.00025937494
0.014479521 4.458335e-05 0.00081250002
0.016030898 -0.00013375001 0.000790625
0.015846211 -0.00013375003 0.00080000004
0.016030898 -0.00013375003 -0.001703125
0.014479521 -0.00013375001 -0.0017031251
0.017757727 -0.0010700001 -0.00028749998
0.01085964 -0.00013375001 -0.0027531248
0.0095668258 -0.00013375001 -0.002753125
0.014673442 6.6875007e-05 -0.0027531248
0.014673442 6.6875014e-05 -0.002228125
0.015836975 6.6875007e-05 -0.002753125
0.014479521 -0.00013375001 -0.002228125
0.014673442 -0.00013375001 -0.002228125
0.014673442 -0.00013375001 -0.002753125
0.017776199 -0.0010700001 -0.000653125
0.016030898 -0.00013375001 -0.0032781251
-0.0073044007 0.0010700001 -0.00071875
-0.0071104788 6.6875007e-05 -0.00360625
-0.0069811973 6.6875e-05 -0.0036718752
-0.0071104788 -0.00013375003 -0.00360625
-0.0057400954 5.3500007e-05 -0.0036325001
-0.005753024 6.6875007e-05 -0.0032781251
-0.013315988 -0.00013375003 -0.00360625
-0.013315988 -0.00013375001 -0.0032781248
-0.0069381036 -0.00013375001 -0.0036500001
-0.0095668258 -0.00013375003 -0.0027531248
-0.0095668258 -0.00013375001 -0.002228125
-0.010816547 -0.00013375001 -0.0027531248
-0.0071104788 -0.00013375001 -0.0032781248
0.0031788023 7.0808834e-05 -0.0032897058
0.0094375452 6.6875014e-05 -0.0032781251
0.0082998676 -0.00013375001 -0.0032649997
-0.016224828 0.000754732 -0.00028749995
-0.016736781 0.00073829986 -0.00031449992
0.0032966763 0.0010700001 -0.00071875006
0.0032966747 0.00073562475 -0.00078437489
0.003749162 0.00073562493 -0.00071875018
0.0043955687 6.6875007e-05 -0.00360625
0.01273422 0.0010700001 -0.00071874994
0.010794998 0.0010700001 -0.00071874994
0.010289279 0.00073169096 -0.00073419121
0.0052358978 0.0010700001 -0.00071875006
0.0087264972 0.0010700001 -0.00025937497
0.0092436224 0.0010700001 -0.00025937497
0.0082740122 6.6875007e-05 0.000790625
0.015836978 5.3500007e-05 0.00125
0.01525521 0.0010700001 -0.00025937497
0.014673442 4.4583343e-05 0.00081250002
0.013359084 4.4583343e-05 0.00079062511
0.012734219 0.000754732 -0.00028749989
0.012083504 6.2416686e-05 0.00078624999
-0.018422604 4.4583336e-05 -0.0017250002
-0.017129792 -0.00013375001 -0.001703125
-0.020943591 -0.00013375003 -0.002228125
-0.016030898 5.4569682e-12 -0.0017031251
-0.016030898 5.4569682e-12 -0.002753125
-0.017141199 6.2941188e-05 -0.002239706
-0.016030898 1.8189894e-12 -0.002228125
-0.016741946 0.0010700001 -0.00071875
-0.015846211 -0.00013375001 -0.0022374999
-0.0094375443 -3.6379788e-12 -0.0032781251
-0.012087815 -0.00013375003 -0.002228125
-0.012087815 -0.00013375001 -0.001703125
-0.013272895 -0.00013375001 -0.001659375
-0.010816547 -0.00013375001 -0.003234375
-0.0094375443 -0.00013375001 -0.002228125
-0.013315988 -0.00013375003 -0.002228125
-0.012087814 6.6875007e-05 -0.002228125
-0.01207858 -0.00013375001 -0.0032499998
-0.012087815 -0.00013375001 -0.002753125
0.0071104788 -0.00013375001 -0.0032781248
0.0082596466 -0.00013375001 -0.0027312499
-0.02159 -0.00013375001 -0.00019374996
-0.0095668258 -0.00013375001 0.00125
-0.0082740113 -0.00013375003 0.0012500002
-0.0057530235 -0.00013375001 0.00125
-0.006916556 6.6875007e-05 0.00125
-0.014479521 -0.00013375003 -0.0032781251
-0.014479521 -0.00013375001 -0.002753125
-0.013768474 -0.0010700001 -0.00025937497
-0.014285597 -0.0010700001 -0.00025937497
-0.014479521 -0.00013375001 0.000790625
-0.013251348 -0.0010700001 -0.00025937494
-0.014479521 -0.00013375001 0.00125
-0.014285598 -0.0010700001 -0.00071875006
-0.0018795531 6.1730789e-05 0.0016639421
0.0045248503 5.3500014e-05 0.00125
0.005753024 0.0010700001 -0.00025937497
0.0057087964 7.0394744e-05 0.0017128289
0.020943591 5.4569682e-12 -0.002228125
0.0045248498 4.4583343e-05 -0.0032343746
-0.011711376 -0.00073169108 -0.00073419133
-0.014673442 6.6875007e-05 0.00125
-0.014673442 -0.00013375001 0.000790625
0.0032966763 -0.0010700001 -0.00025937497
0.0047187726 -0.0010700001 -0.00025937497
0.0042016464 -0.0010700001 -0.00025937494
0.010794998 -0.0010700001 -0.00025937494
0.0057530245 -0.0010700001 -0.00025937497
0.0043955687 -0.00013375003 -0.0027531248
0.0020685028 -0.00013375001 -0.001703125
-0.0022574526 -0.0010700001 -0.00073894236
-0.0097607477 -0.0010700001 -0.00075625
-0.009631468 6.6875007e-05 -0.002228125
-0.00038784431 1.8189894e-12 -0.00176875
0.0029734729 0.00013375001 -0.002753125
-0.00025856288 -0.0010700001 -0.00071875
-0.012087815 5.7321442e-05 0.00078125007
0.00065816008 -0.00013375001 0.0016914774
-0.00038784431 -0.00013375001 0.00125
0.0020685028 6.6875e-05 0.00125
0.012734219 -0.0010700001 -0.00025937497
0.013393557 -0.00013375003 0.0012237499
0.014479521 -0.00013375003 0.0016437499
0.0097607486 -0.0010700001 -0.00025937497
0.014285598 0.0010700001 -0.00071875
0.014673442 6.6875007e-05 -0.0017031251
0.015836975 6.6875007e-05 -0.0032781251
0.015707694 0.0010700001 -0.00071875006
0.016224818 0.0010700001 -0.00071875
0.017776197 0.0010700001 -0.00071875
0.017151335 5.9444457e-05 -0.0016958335
0.017776204 0.00073562487 -0.00071875
0.018407686 5.1442323e-05 -0.0017182692
0.016030898 3.34375e-05 0.0016765625
0.017259073 0.0010700001 -0.00025937497
0.016741944 0.0010700001 -0.00025937497
0.016030898 -3.6379788e-12 0.000790625
-0.018310951 0.0010700001 -0.00070681819
-0.00071104779 0.0010700001 -0.00071875006
0.00038784431 0.00013375001 -0.00308125
-0.0017452994 0.0010700001 -0.00071874994
-0.001874581 6.6875007e-05 -0.001703125
0.0018745807 6.6875007e-05 0.000790625
0.0018875089 -0.00013375001 0.00125
-0.0037491615 0.0010700001 -0.00071875
-0.0037491615 0.00073562493 -0.00071874994
-0.0031673952 -0.00013375001 -0.0017031252
0.0017452993 -0.0010700001 -0.00025937494
0.0020685028 -0.00013375001 0.000790625
0.0020685028 -0.00013375001 -0.002753125
0.0097607486 -0.0010700001 -0.00071874994
-0.0027795509 -0.0010700001 -0.00071875006
-0.0082740113 -0.00013375001 -0.002228125
-0.0082740113 -0.00013375001 -0.001703125
-0.0052358978 0.0010700001 -0.00025937494
-0.0087264972 0.0010700001 -0.00025937497
-0.016727028 0.0010700001 -0.00030480768
-0.014664208 5.7321427e-05 0.00078125007
-0.01447952 5.7321427e-05 0.00078125007
-0.014802724 0.0010700001 -0.00025937494
-0.019669246 4.776787e-05 0.0012593749
-0.019671192 4.9276336e-05 0.00078717107
-0.013768473 0.0010700001 -0.00025937494
-0.012734219 0.00075473211 -0.00028749992
-0.013359081 4.4583336e-05 -0.0036062498
-0.0037491617 -0.0010700001 -0.00025937494
-0.0032966766 -0.0010700001 -0.00025937497
-0.0031673952 -0.00013375003 0.000790625
-0.0027795506 -0.0010700001 -0.00025937494
-0.0052358974 -0.0010700001 -0.00025937497
-0.004330928 -0.00013375001 -0.00360625
-0.004330928 -0.00013375003 -0.002228125
0.019691177 5.0156261e-05 -0.001711328
0.020223305 0.00073880941 -0.00069999998
0.01841763 5.1442315e-05 0.00081586535
0.020943591 -1.8189894e-12 -0.001703125
0.019198293 -0.0010700001 -0.00032499997
0.018418293 6.2416679e-05 -0.0022412501
0.0095668258 -0.00013375001 0.00125
0.0092436224 -0.0010700001 -0.00025937497
0.0094375452 6.6875014e-05 0.00125
0.0095668258 6.6875e-05 -0.001703125
0.011247485 0.00073562493 -0.00071875006
0.0082093701 0.0010700001 -0.00025937494
0.008209371 0.0010700001 -0.00071875006
0.0077568865 0.0010700001 -0.00071875
0.0082309172 -0.00013375001 -0.0022062499
-0.020232534 0.00073562487 -0.00032499988
-0.019715417 -0.00013375001 0.000790625
0.017141199 6.2941188e-05 0.00079448533
0.015836976 -0.00013375001 0.00125
0.017129792 6.6875e-05 -0.002228125
0.015836978 5.7321442e-05 -0.00225625
0.016030898 0 -0.001703125
0.016741952 0.00073562493 -0.00071875
0.016220869 0.00073153048 -0.00072410703
0.014673442 -0.00013375001 -0.0017031251
0.01085964 -0.00013375001 -0.0032781248
0.017246146 -0.0010700001 -0.00027249995
0.016720399 -0.0010700001 -0.00067500002
0.017259073 -0.0010700001 -0.000653125
0.017263204 -0.00073135627 -0.00071595755
0.017162111 -0.00013375001 -0.0016703126
-0.0071104793 6.6875e-05 -0.0032781246
-0.013251348 -0.0010700001 -0.00071875
-0.006805744 -0.0010700001 -0.00075624994
-0.0095668258 -0.00013375001 -0.0032781248
0.0094375452 6.6875007e-05 -0.002753125
0.019185361 -0.00072224997 -0.00066999992
0.018308239 -0.0010700001 -0.00030480768
0.003167395 6.6875007e-05 -0.00360625
0.00571424 8.0250022e-05 -0.0022281252
0.0045248498 6.6875007e-05 -0.002228125
0.014673442 5.3500014e-05 0.00125
0.012097049 -0.00013375003 0.00080000004
-0.018749606 0.00074349256 -0.0007110294
-0.015255211 0.00073562493 -0.00071874994
-0.016935868 0.00013375001 -0.0016375
-0.015858522 6.6875e-05 -0.0022499997
-0.0094375443 -0.00013375003 -0.001703125
-0.010885496 5.3500007e-05 -0.0022281252
-0.013315988 -0.00013375001 -0.002753125
-0.0095668258 -0.00013375001 0.000790625
-0.0057530235 -0.00013375001 0.0017093751
-0.006916557 6.6875e-05 0.000790625
-0.0043955687 6.6875007e-05 0.00125
-0.0045248498 5.7321435e-05 0.00078125007
-0.014479521 -0.00013375001 0.0016437501
-0.013264276 -0.00013375001 0.00125
-0.014802724 -0.0010700001 -0.00071875
-0.015255208 -0.0010700001 -0.00071874994
-0.014673442 -0.00013375001 -0.002228125
-0.00064640713 -0.00013375001 0.0017093751
0.0052358974 0.0010700001 -0.00025937497
0.020943591 0 -0.002753125
0.0031766295 -0.00013375001 -0.0017312499
-0.014479521 5.3500014e-05 0.00127625
-0.013376322 6.2416679e-05 0.00078624999
0.0037491617 -0.0010700001 -0.00025937497
0.011247486 -0.0010700001 -0.00025937497
0.0077568865 -0.0010700001 -0.00025937497
0.0073044007 -0.0010700001 -0.00025937497
0.0071104788 -0.00013375003 0.000790625
0.006787275 -0.0010700001 -0.00025937497
0.0057530235 -0.00013375001 -0.0022281248
0.0027795506 -0.0010700001 -0.00075625005
0.0022624249 -0.0010700001 -0.00071875
-0.0020685028 -0.00013375001 -0.002753125
-0.00071104791 -0.0010700001 -0.00025937497
-0.0012281735 -0.0010700001 -0.00025937497
-0.00064640713 -0.00013375001 0.0012500002
-0.0012281736 -0.0010700001 -0.00071875
-0.0017452994 -0.0010700001 -0.00025937497
-0.010277873 -0.0010700001 -0.00025937494
-0.0057314765 -0.00013375001 0.00076874997
0.01447952 5.7321442e-05 -0.00225625
0.016030898 5.7321435e-05 -0.0033062496
0.016741946 0.0010700001 -0.00071875
0.015255209 0.0010700001 -0.00071874994
0.015255211 0.00073562487 -0.00071874983
-0.017758567 0.0010700001 -0.00070681819
-0.017776204 0.00073562493 -0.00071875
-0.00025856285 0.0010700001 -0.00071874994
-0.0012281736 0.0010700001 -0.00025937497
-0.001874581 6.6875e-05 0.000790625
-0.0017452994 0.0010700001 -0.00025937497
-0.001874581 6.6875014e-05 -0.002753125
-0.003167395 6.6875007e-05 -0.00360625
-0.004381204 5.944445e-05 0.00076874997
-0.0043955687 6.6875007e-05 -0.001703125
0.0012281736 -0.0010700001 -0.00071875
-0.0032837482 -0.0010700001 -0.00077124999
-0.0077698147 -0.0010700001 -0.00074500003
-0.0045248503 5.3500007e-05 0.00125
-0.008209371 0.0010700001 -0.00025937494
-0.015854605 6.0795472e-05 0.0008085228
-0.019675018 5.0156261e-05 0.0016601563
-0.014664208 5.7321435e-05 -0.0032499998
-0.0037491615 -0.0010700001 -0.00071874994
-0.0029734729 -0.00013375001 0.0016437501
-0.0020685028 -0.00013375001 0.0017093751
0.019198284 0.00075473206 -0.00028749992
0.019696949 0.0010700001 -0.00028749998
0.019679509 5.2013907e-05 -0.0022499999
0.018422604 -0.00013375001 0.000790625
0.019198284 -0.00073562475 -0.00032499991
0.020232543 -0.0010700001 -0.00032499997
0.020232538 -0.00073562493 -0.00032499986
0.01970249 -0.00013375001 0.00127625
0.010859641 -0.00013375001 0.0012500002
0.0095668258 -0.00013375001 0.0017093751
0.0082740122 6.6875007e-05 0.00125
0.0095668258 6.6875007e-05 0.000790625
0.0082740113 -0.00013375001 0.00075124996
0.009764404 0.00073941029 -0.0007435141
0.012735538 0.00073971925 -0.00072410709
0.0082740113 6.6875007e-05 -0.0022281252
0.0082309172 -0.00013375001 -0.0016812501
0.0071104788 4.458335e-05 -0.0016812501
0.0077568879 0.00073562493 -0.00071875012
-0.021072874 -0.00013375001 0.000790625
0.017129792 6.6875007e-05 0.00125
0.016030898 -0.00013375001 0.00125
0.015836976 5.7321449e-05 -0.0017125
0.017774699 -0.0007154069 -0.00070348842
0.016935868 -0.00013375001 -0.002228125
0.016030898 -0.00013375001 -0.002228125
0.016935868 -0.00013375001 -0.002753125
-0.0069257915 6.6875014e-05 -0.0033062499
-0.0071104788 -0.00013375001 -0.0017031251
0.018422604 -0.00013375003 -0.0017031252
-0.014664208 5.7321435e-05 -0.0017312501
-0.017120559 5.7321442e-05 -0.0017125
-0.014479521 -0.00013375001 -0.002228125
-0.010885496 5.3500014e-05 -0.0027531246
-0.0097607495 -0.0010700001 -0.00025937497
-0.005753024 -0.0010700001 -0.00025937497
-0.0045248503 -0.00013375001 0.0016437501
-0.014673442 -0.00013375001 -0.002753125
0.0071104788 -0.00013375001 0.00125
0.0043955687 -0.00013375001 -0.002228125
0.0032966763 -0.0010700001 -0.00071875
0.0017502718 -0.0010700001 -0.00073894241
-0.0020685028 -0.00013375001 -0.0032781248
-0.0022624251 -0.0010700001 -0.00025937497
-0.0020685028 -0.00013375001 0.000790625
-0.00038784431 -0.00013375003 0.0016437499
-0.00025856288 -0.0010700001 -0.00025937497
-0.00038784431 -0.00013375003 0.000790625
-0.0092585394 -0.0010700001 -0.00073894236
-0.010292792 -0.0010700001 -0.0007389423
0.012734223 -0.00073562475 -0.00071874988
-0.004330928 -0.00013375001 0.000790625
-0.0029734729 -0.00013375001 0.000790625
-0.0045248498 4.458335e-05 -0.001703125
0.0012281734 -0.00073562487 -0.00071875006
-0.004220115 -0.0010700001 -0.00075625005
-0.0029734729 -0.00013375001 0.00125
-0.001874581 -0.00013375001 0.0012500002
-0.0018745807 -0.00013375003 0.0017093751
-0.00064640713 -0.00013375001 0.000790625
-0.0018745807 -0.00013375003 0.000790625
0.0094375452 6.6875e-05 0.000790625
0.0087265 -0.00073562487 -0.00071875006
0.0073044007 0.0010700001 -0.00071875
-0.019194327 0.00073971925 -0.0003196428
0.015842851 4.8636372e-05 0.00082045444
0.017120557 -0.00013375003 -0.0022187501
0.016935868 -0.00013375001 -0.0017031251
0.016030898 -0.00013375001 -0.002753125
-0.014479521 4.4583343e-05 -0.001725
-0.014673442 -0.00013375003 -0.001703125
-0.01587576 -0.00013375001 -0.0017425001
-0.0047187721 -0.0010700001 -0.00025937494
-0.013272895 -0.00013375001 0.00079062511
0.0062701488 -0.0010700001 -0.00075625005
-0.0017502717 -0.0010700001 -0.00073894236
0.00019392214 -0.0010700001 -0.00025937494
-0.0020685028 -0.00013375001 0.0012500002
-0.0018745807 6.6875007e-05 0.0012500002
0.019198285 0.00073562487 -0.00071875006
0.018745802 0.00073562493 -0.00071874988
0.01970249 5.3500007e-05 0.00083000003
0.017129792 -0.00013375003 -0.002753125
0.015836976 -0.00013375001 -0.002753125
0.016030898 2.6749998e-05 -0.0022412499
0.015836976 -0.00013375001 -0.001703125
0.0042016464 -0.0010700001 -0.00075624988
0.0052358978 -0.0010700001 -0.00071875
0.0081944531 -0.0010700001 -0.00073894224
0.019676635 -0.00013375001 0.00083000003
0.015836976 -0.00013375001 -0.002228125
0.0037491617 -0.0010700001 -0.00078437501
