# .PCD v0.7 - Point Cloud Data file format
VERSION 0.7
FIELDS x y z
SIZE 4 4 4
TYPE F F F
COUNT 1 1 1
WIDTH 1175
HEIGHT 1
VIEWPOINT 0 0 0 1 0 0 0
POINTS 1175
DATA ascii
0.011735016 0.00081318669 -0.00027636357
0.011129336 -0.00084615394 0.00073818199
0.012264986 -0.00030769227 -0.0004072726
-0.019078866 -0.00084615382 -0.0037672725
-0.020895898 -0.00088461541 -0.0037672725
-0.019078864 0.00084615382 -0.0037672725
-0.020895898 -0.00084615377 -0.0032327273
-0.019078866 -0.00084615377 -0.0032327273
-0.019078864 -0.00084615377 -0.0026981814
-0.020895898 -0.00092307694 -0.0026981819
-0.021198737 0.00084615382 -0.0037672725
-0.023091482 0.0010769231 -0.0032327273
-0.019078866 0.00084615377 -0.0032327273
-0.019078866 0.00084615382 -0.0026981814
-0.022258673 0.00023411369 -0.0017751786
-0.021198737 0.00084615382 -0.0026981814
-0.022889592 0.0011282051 -0.0042254543
-0.020895898 0.001153846 -0.0042254538
0.023710929 -0.00028671324 -0.0017262809
-0.020214509 -0.00030769221 -0.0017818185
-0.020744478 -0.0017692309 -0.0012472727
-0.011129337 -0.00087179482 -0.0051927273
-0.014839115 -0.001153846 -0.0032327273
-0.014839116 -0.001153846 -0.0037672725
-0.014864353 -0.00087179494 -0.0037672725
-0.0128959 0.00087179494 -0.0037672725
-0.012870665 -0.00084615382 -0.0037672725
-0.010902208 0.001153846 -0.0037672725
-0.011129337 0.00084615382 -0.0026981819
-0.011129337 0.0011538462 -0.0026981814
-0.005148265 0.001153846 -0.0032327268
-0.005148265 0.001153846 -0.0026981819
-0.0049211355 0.0011076924 -0.0032785451
-0.0049211355 0.0010769231 -0.0026981819
-0.0062839119 0.0020000001 -0.0007127272
0.0090700323 0.0011384615 -0.0027134544
0.0090743592 0.001142857 -0.0032436363
0.0090851737 0.001153846 -0.0037672725
0.010917352 0.0012000001 -0.0032327273
0.006738171 0.0020000001 -0.0007127272
0.0028921135 0.0011999999 0.0017309092
0.0028921135 0.0011999999 -0.0026981817
0.0031041009 0.0011538462 -0.0026981814
0.0011356467 0.0011538462 -0.0026981817
0.0017413249 0.0020000001 -0.001781818
0.0017413247 0.0016923076 -0.0017818182
0.0022712937 0.0020000001 -0.001781818
0.00022712935 0.0020000001 -0.00071272714
0.0012870661 0.0020000001 -0.00071272714
0.0017413249 0.0020000001 -0.0007127272
0.0028012618 0.0015384615 -0.0020872727
0.0022712934 0.0020000001 -0.00071272714
0.014233438 0.0016923076 -0.00025454536
0.010750788 0.0020000001 -0.00071272708
0.011280756 0.0020000001 -0.0012472726
0.012264985 0.0020000001 -0.00071272714
0.015747635 0.0020000001 -0.00025454536
0.0177918 0.0020000001 -0.00025454536
0.011735016 0.0020000001 -0.001781818
0.011735017 0.0020000001 -0.0012472726
0.011280758 0.0020000001 -0.0007127272
0.011735016 0.0020000001 -0.00071272714
-0.01370347 0.0020000001 -0.0012472727
-0.009766561 0.0020000001 -0.00025454536
-0.011129337 0.0011384615 0.0021585454
-0.011129337 0.0011538462 0.0017309092
-0.017110409 0.00084615382 0.0017309092
0.018246055 0.00023076919 -0.0017818185
0.019063722 0.0011999999 0.0012727272
-0.020214511 -0.00030769227 -0.00040727266
-0.020214513 -0.00081318669 -0.00027636351
-0.02364669 0.0016410257 -0.0012472727
0.021123029 0.00084615388 0.0017309092
0.022889592 -0.00087179494 0.0017309092
0.020895898 -0.00084615377 0.00073818199
0.019230284 0.0020000001 -0.001781818
0.020933755 0.0011153846 -0.0051799999
0.019041009 0.0011153846 -0.0051799999
0.021123029 0.0011538462 -0.0042254548
0.020911042 0.0011692307 -0.0042254543
0.022889592 0.0011282051 -0.0042254538
0.016731862 0.0020000001 -0.00071272714
0.017261829 0.0020000001 -0.0007127272
0.016277604 0.0020000001 -0.0012472726
0.017261829 0.0020000001 -0.001781818
0.019760251 0.0020000001 -0.0007127272
0.020214511 0.0020000001 -0.0012472726
0.019230284 0.0020000001 -0.0012472727
0.019230284 0.0020000001 -0.00071272714
0.013156679 0.0011880342 -0.0032496969
0.014864352 0.0011282051 -0.0037672725
0.014864353 0.001128205 -0.0032327268
0.015116718 0.0011282051 -0.0037672725
0.015116719 0.001128205 -0.0032327268
0.016883282 0.0011538462 -0.0037672725
0.015116718 0.0011282051 -0.0042254543
0.014763406 0.0020000001 -0.001781818
0.011129336 -0.0011538462 -0.0032327273
0.013097792 -0.00084615382 -0.0042254548
0.014864353 -0.00087179494 -0.0042254543
0.014859763 -0.00088111887 -0.0047391732
0.013097792 -0.00084615388 -0.0047599999
0.01316662 0.00085314678 -0.0042393385
0.014881179 0.00087179494 -0.0047006062
0.012885804 0.0012000001 -0.0032327273
0.01316662 0.00085314683 -0.0037672725
0.012895898 0.00092307694 -0.0051927273
0.01290311 0.0011868132 -0.0051854546
0.013097791 0.0012000001 -0.005202909
0.012946373 -0.00084615388 -0.0047599999
0.010927445 0.0011538462 -0.0051927273
0.010917351 0.0011999999 -0.0026981814
0.011129336 0.0011538462 -0.0032327273
-0.022258677 0.00081065088 -0.0002897901
-0.015066247 0.00084615388 -0.0042254548
-0.016883282 0.00084615388 -0.0042254548
-0.015066247 0.00084615382 -0.0037672725
-0.015135073 -0.00083916076 -0.0037811571
-0.015066247 0.00086153846 0.0021585459
-0.01315836 -0.0011384615 0.001746182
-0.016277602 0.00081318669 -0.00027636351
-0.016277602 0.00023076923 -0.0004072726
-0.012946373 0.0011538462 -0.0047599999
-0.011170634 -0.0011328671 -0.0032535535
-0.011735018 -0.0017692308 -0.0012472727
-0.011205048 -0.00084615382 -0.0037672725
-0.011129337 0.00084615388 -0.0037672725
-0.012946373 0.0011538462 -0.0032327273
-0.013152854 0.0011608391 -0.0026981814
-0.014763405 -0.0017692311 -0.0012472727
-0.014864353 -0.00087179494 -0.0026981817
-0.01315836 -0.0012000001 -0.0047599999
-0.01673186 -0.0017692306 -0.0017818185
-0.01324921 -0.0017692308 -0.0012472728
-0.015217666 -0.0017692308 -0.00071272737
-0.01673186 -0.0017692311 -0.0012472728
-0.015747635 -0.0017692313 -0.0007127272
-0.016277602 -0.0017692308 -0.00025454536
-0.015747638 -0.0017692308 -0.00025454536
-0.017261831 -0.0017692311 -0.00071272714
-0.017261831 -0.0017692311 -0.00025454536
-0.01673186 -0.0017692306 -0.0007127272
-0.01688328 -0.0008615384 0.0013032727
-0.015141957 -0.00084615382 0.0017309092
-0.017791798 -0.0017692308 -0.00025454536
-0.012885804 -0.0011999999 0.00073818199
-0.013249214 -0.0017692308 -0.00025454536
-0.013173502 -0.00084615371 0.00073818176
-0.014914826 0.00084615382 0.00073818199
-0.010910622 -0.0011794871 0.0007466668
-0.011205047 -0.00084615382 0.0012727274
-0.011129337 0.00084615382 0.0012727274
-0.010902207 0.00084615382 0.0012727274
-0.010902208 0.00084615382 0.00073818199
-0.0090599377 0.00087179482 0.00073818176
-0.0090851746 -0.00084615377 0.00073818176
-0.0090851746 -0.00084615388 0.0012727274
-0.011129337 0.0011538462 0.0012727274
-0.011280756 0.0020000001 -0.00025454536
-0.010750789 0.0020000001 -0.00025454536
-0.013148266 0.0011282051 0.0012727274
-0.012946372 0.0011538462 0.0017309092
-0.0028769716 -0.00084615371 0.00073818176
-0.0022712934 -0.00030769227 -0.0004072726
-0.0022712932 -0.00081318681 -0.00027636351
-0.0028012618 -0.0017692308 -0.00071272725
0.021728707 0.0016923075 -0.00025454536
0.022788644 0.0020000001 -0.00071272714
0.021728706 0.0020000001 -0.0007127272
0.021274447 0.0020000001 -0.0007127272
0.022258675 0.0020000001 -0.0012472727
-0.011735016 0.0020000001 -0.0012472727
-0.012264985 0.0020000001 -0.0012472726
-0.010750789 0.0020000001 -0.0017818178
-0.0070410096 0.00092307694 -0.005141818
-0.0090599367 0.0011282051 -0.005141818
-0.0031041009 0.0010769231 -0.005141818
-0.0011356467 0.00087179494 -0.0051927273
-0.0011356467 0.0011282051 -0.0051927273
-0.0052239746 0.00092307694 -0.005141818
-0.005148265 0.00084615382 -0.0047599999
-0.0017413249 0.0020000001 -0.001781818
-0.0022712927 0.0016923076 -0.0017818185
-0.0017413247 0.0016923075 -0.0017818185
-0.0047697159 0.0020000001 -0.0012472727
0.00022712935 0.0020000001 -0.001781818
-0.0017413249 0.0020000001 -0.0007127272
-0.0029526816 0.0011794872 -0.0037418175
-0.0029526816 0.0011282052 -0.0032836366
-0.0011680936 0.0011868131 -0.0032327273
-0.0090851737 0.001153846 -0.0037672725
-0.0092365937 0.0020000001 -0.0012472727
-0.0087066246 0.0020000001 -0.001781818
-0.0097665619 0.0020000001 -0.0017818182
-0.0090851737 0.001153846 -0.0026981814
-0.011280757 0.0020000001 -0.0012472726
0.0037097791 0.0020000001 -0.001781818
-0.0072681392 0.0020000001 -0.0012472727
-0.0082523655 0.0020000001 -0.0012472727
0.0047697159 0.0020000001 -0.00071272714
0.0077981073 0.0020000001 -0.001781818
0.0067381701 0.0020000001 -0.001781818
0.0087066237 0.0020000001 -0.0012472727
0.0072681392 0.0020000001 -0.0012472728
0.0072681396 0.0020000001 -0.001781818
0.005072555 0.0011538462 -0.005141818
-0.020214511 0.0020000001 -0.0017627273
-0.01973862 0.0020000001 -0.0017381816
-0.019230282 0.0020000001 -0.0017054545
-0.018851737 0.0011428572 -0.0047272728
-0.021274447 0.0020000001 -0.0017054545
-0.019760251 0.0020000001 -0.0012472727
-0.020214511 0.0020000001 -0.0012472727
-0.020214511 0.0020000001 -0.0007127272
-0.018851735 0.00084615388 0.00073818199
-0.018851735 -0.00087179494 0.00071272731
-0.0208959 -0.0011153846 0.0021890909
-0.016277604 0.0016923075 -0.00025454536
-0.0177918 0.0016923075 -0.00025454536
-0.014914826 0.0011538462 0.0012727274
-0.010750789 0.0020000001 -0.0007127272
-0.017261829 0.0020000001 -0.0012472727
-0.0090851746 -0.00084615377 -0.0032327273
-0.0090851746 -0.00084615382 -0.0026981814
-0.0090599377 0.00087179494 -0.0026981817
-0.0031419562 0.0011923077 -0.0032327273
-0.0022712934 0.0020000001 -0.001781818
-0.0017413249 -0.00030769227 -0.00040727266
-0.0017413249 0.00023076922 -0.0004072726
0.00022712939 -0.00030769227 -0.0017818182
0.00098422717 -0.00084615382 -0.0026981819
0.0011356467 0.00092307694 -0.0037672725
0.0047697155 -0.0017692308 -0.00071272714
0.0052239746 -0.0017692308 -0.00071272725
-0.0011356467 -0.0011538462 -0.0042254543
-0.0011356467 -0.0011538462 -0.0037672725
-0.0028921135 -0.0011999999 -0.0037672729
0.01370347 0.0020000001 -0.00071272714
0.01370347 0.0016923075 -0.00025454536
0.0052239746 0.0020000001 -0.0012472726
0.0057539437 0.0020000001 -0.001781818
0.0042397473 0.0016923076 -0.00025454536
0.0037097791 0.0016923075 -0.00025454536
-0.016277604 0.0020000001 -0.00071272714
-0.016277602 0.0020000001 -0.0012472726
-0.014763406 0.0020000001 -0.00071272714
-0.0029526812 0.0010769231 -0.0026981819
-0.0029310503 0.0008351648 0.0017527273
-0.00098422717 0.00084615382 0.0012727274
-0.00098422717 0.00084615382 0.00073818199
-0.00022712933 0.00023076922 -0.0004072726
-0.00022712938 0.00081318669 -0.00027636351
-0.005148265 0.00084615382 0.0017309092
-0.0068895896 -0.00084615388 0.0012727274
-0.0068895896 -0.0012307692 0.0017309092
-0.0068895896 -0.0012307692 0.00073818199
-0.004921135 0.0011538462 0.00073818176
-0.004921135 0.00084615388 0.0012727274
-0.004921135 0.00084615394 0.00073818176
-0.0042397478 -0.00081318675 -0.00027636351
-0.0029526816 0.00084615388 -0.0032327273
-0.0029148266 0.00082692306 -0.0037863636
-0.0077981078 0.00081318669 -0.00027636357
-0.0077981069 0.00023076922 -0.0004072726
-0.0090094637 -0.00046153844 -0.0020872727
-0.0068895896 -0.00084615388 -0.0026981819
-0.0057539432 0.00023076919 -0.0017818182
-0.0057539428 -0.00030769221 -0.0017818182
-0.0062839133 0.0002307692 -0.0017818185
-0.010902208 0.001153846 0.0017309092
-0.0088580437 -0.0011538462 0.00073818199
-0.0082523655 0.0012307694 -0.00025454536
0.0071167191 -0.001153846 0.00073818199
0.0051413826 0.0011468531 0.0012866115
0.0068391166 0.00087179494 0.0012727274
0.0068895905 -0.00076923077 0.0012727274
0.011179811 0.00087179494 0.0017309092
0.005148265 -0.001153846 0.00073818176
0.0049211355 -0.0010769231 0.00073818199
0.0068895901 -0.00076923077 0.0020363638
0.00090851734 0.00084615371 0.00073818199
0.0012063091 -0.00084102555 0.00072290923
0.0029526816 -0.00084615394 0.00073818199
0.0031545742 -0.001128205 0.00073818199
0.0028877873 0.00087912095 0.0021454548
0.0029526816 -0.00084615388 0.0017309092
-0.0029022084 0.00082051271 -0.0042254543
-0.0028769718 -0.00084615377 -0.0042254538
-0.0028769716 -0.00084615382 -0.0037672725
-0.0031041009 -0.00084615388 -0.0037672725
-0.0031798107 0.00084615388 -0.0037672725
-0.0031798107 0.00084615371 -0.0032327273
-0.0031041009 -0.00084615382 -0.0032327273
-0.004845425 -0.00084615377 -0.0032327268
-0.005072555 -0.00084615382 -0.0047599999
-0.005072555 -0.00084615388 -0.0042254548
0.017099593 0.0011868131 0.0017309092
0.013097791 -0.0008615384 0.0021585454
0.013097792 -0.00084615388 0.0017309092
0.016731858 -0.0017692308 -0.00071272714
0.01688328 -0.0010769231 0.0012727274
0.01688328 -0.0010769231 0.0017309092
0.017110409 -0.00084615382 0.0017309092
0.018851735 -0.00088461529 0.0021890909
0.014233437 -0.00030769227 -0.0004072726
0.014873529 -0.00086713297 0.00074512407
0.014233439 -0.00081318681 -0.00027636351
0.01370347 -0.00081318681 -0.00027636357
0.01370347 -0.00030769233 -0.00040727266
0.01423344 0.00023076922 -0.00040727254
0.015747635 -0.00081318675 -0.00027636351
0.016277602 -0.00081318669 -0.00027636357
0.020214513 0.0002307692 -0.0017818182
-0.017072555 -0.00086538465 -0.0026790909
-0.0170347 0.0004615385 -0.0020872727
-0.016883282 -0.0011538462 -0.0026981819
-0.0088580437 0.00084615382 -0.0042254538
-0.0070914826 0.00087179494 -0.0042254538
-0.0088075716 -0.00082051283 -0.0042254543
-0.0088167479 -0.00082517473 -0.0047391737
-0.0070914826 -0.00087179482 -0.0047600004
-0.0090700332 0.00086153846 -0.0042407271
-0.022889592 -0.00087179494 -0.0042254543
-0.010220821 -0.0017692308 -0.00071272725
-0.0031041009 -0.0011538462 -0.0047599999
-0.0062839137 -0.0017692308 -0.0017818185
-0.005072555 -0.0011538462 -0.0032327273
-0.005072555 -0.0011538462 -0.0026981819
-0.0048498795 -0.0011674208 -0.0032462031
-0.004845426 -0.001153846 -0.0026981814
-0.0048562414 -0.0011868132 -0.003778182
-0.0042397468 -0.0017692308 -0.00071272731
-0.0031041009 -0.0011538462 0.0012727274
-0.0031041009 -0.0011538462 0.0017309092
-0.0031041009 -0.0011538462 0.0021127271
-0.004851249 -0.0011715975 0.0017309092
-0.0057539432 -0.00030769227 -0.0004072726
-0.0057539446 -0.00081318681 -0.00027636351
-0.019760255 -0.0017692308 -0.0017818185
-0.019230278 -0.0017692314 -0.0012472726
-0.019760255 -0.0017692307 -0.0012472726
-0.019235326 -0.0017538463 -0.0017716368
-0.018851735 0.00084615377 -0.0026981819
-0.018246058 0.00023076922 -0.0017818182
-0.018851735 -0.0011538462 -0.0032327273
-0.019760249 -0.0017692308 -0.00071272737
-0.015066246 0.00084615388 -0.0032327273
-0.016883282 0.0011538462 -0.0032327273
-0.015066247 0.0012307692 -0.0032327273
-0.015066247 0.00084615388 -0.0026981819
-0.017110411 0.001153846 -0.0032327273
-0.018851735 0.0011538462 -0.0032327273
0.020921135 -0.00087179482 -0.005141818
0.020895902 -0.0011538462 -0.0047599999
0.019078864 -0.00084615382 -0.0047599999
0.020895896 -0.00084615371 -0.0047599995
0.021123029 0.00084615388 -0.0047599999
0.018851735 0.00084615388 0.00073818199
0.017110409 0.00084615388 0.0012727274
0.017110407 0.00084615377 0.00073818176
0.013703467 -0.0017692306 -0.00071272731
0.013097792 -0.0011538462 -0.0026981819
0.0031041009 0.00084615382 0.00073818176
0.0037097789 0.00081318669 -0.00027636351
0.0042397478 0.00081318681 -0.00027636351
0.0082523655 0.0016923075 -0.00025454536
0.0077981078 0.0016923075 -0.00025454536
0.0077981073 0.0020000001 -0.00025454536
0.013097792 -0.00084615388 0.0012727274
0.013148265 0.00085470092 0.0012557575
0.013125322 0.0012027972 0.0017309092
0.012885806 0.0011999999 0.0012727272
0.01315836 0.00086153846 -0.0027134544
0.01324921 -0.0017692312 -0.0012472727
-0.021198737 0.00084615382 0.0017309092
-0.021123029 -0.00084615388 0.0012727274
0.023129337 0.0011346154 -0.0042254543
0.022902209 0.0008653847 -0.0037672725
0.014876971 -0.00086538465 -0.0026981814
0.019063722 0.0012000001 -0.0032327273
0.015116719 0.001128205 -0.0047600004
0.014873529 0.0011328671 -0.0047391737
0.018851735 0.00084615382 -0.0042254548
0.018851735 0.00084615388 -0.0037672725
0.018851735 0.0011538462 -0.0037672725
0.019078866 -0.00084615382 -0.0042254543
0.019078866 0.00084615377 -0.0047599999
0.01688328 0.00092307694 -0.005141818
0.016277604 -0.00030769221 -0.0017818182
0.017110409 -0.001153846 -0.0026981814
0.015747633 -0.0017692308 -0.0017818185
0.014864353 -0.001128205 -0.0047599999
0.015135073 -0.0011468531 -0.0026842973
0.015747633 0.00081318693 -0.00027636351
0.021123029 0.0011538462 -0.0032327273
0.02074448 0.0020000001 -0.001781818
0.020895898 0.001153846 -0.0026981814
0.01688328 -0.0010769231 -0.0032327273
0.020214511 -0.00030769227 -0.00040727266
0.016277604 0.0016923075 -0.00025454536
0.014864353 0.00087179494 0.0017309092
0.01488959 -0.00087179482 0.0021636365
0.015135071 -0.0011468531 0.0017170251
0.015141957 0.00084615382 0.0017309092
0.016277604 -0.00030769233 -0.00040727266
0.016277602 0.00023076925 -0.0004072726
0.021123029 0.0011538462 0.0012727274
0.017110411 -0.00084615371 0.00073818199
0.017791798 -0.00081318681 -0.00027636357
0.017791798 -0.00030769227 -0.00040727266
0.019078866 -0.00084615388 0.0012727272
0.019053629 -0.001128205 0.00073818176
-0.020887487 -0.00087179482 0.0017478789
-0.020880755 -0.0011384615 0.0017309092
-0.0208959 -0.001153846 0.00073818199
-0.019078866 0.00084615382 0.0012727274
-0.018851735 -0.0011538462 0.0012727274
-0.020736068 0.0020000001 -0.0017309091
-0.021728704 0.0016923076 -0.0017054544
-0.019230284 0.0020000001 -0.00071272714
-0.019760253 0.00023076919 -0.0017818182
-0.020895898 0.00084615377 -0.0032327273
-0.019078866 0.001153846 -0.0032327273
-0.019078864 0.001153846 -0.0037672729
-0.015747633 0.00023076925 -0.00040727254
0.0082523655 -0.00081318669 -0.00027636357
0.0077981073 -0.00030769227 -0.00040727266
0.0077981069 -0.00081318681 -0.00027636357
0.012946372 -0.0011538462 0.0012727274
-0.00022712948 -0.0017692306 -0.00071272731
-0.0028769714 -0.00084615371 -0.0032327273
-0.0029526816 0.00084615388 -0.0026981819
-0.0028517351 -0.0011794871 -0.005141818
-0.0042397468 -0.0017692312 -0.0017818187
0.004845426 0.00084615382 -0.0042254548
0.00098422717 -0.00084615394 -0.0032327273
0.00022712942 0.00023076919 -0.0017818182
0.0029022081 0.00087179482 -0.0032327273
0.0029526816 -0.00084615382 -0.0032327273
-0.0028769714 -0.00084615377 -0.0047600004
-0.0012113565 0.00084615382 -0.0042254538
-0.0012113566 0.00084615377 -0.0047599999
-0.010220822 -0.0017692308 -0.0017818185
-0.0092365937 -0.0017692311 -0.0012472724
-0.0087066256 -0.0017692308 -0.0017818182
-0.0087066256 -0.0017692308 -0.00071272737
-0.0082523627 -0.0017692311 -0.0012472729
-0.0082523637 -0.0017692306 -0.0017818182
-0.0087066246 -0.0017692306 -0.00025454536
-0.0068895901 -0.0011999999 -0.0047447281
-0.0068895896 -0.0012115384 -0.0042254548
0.0068895901 -0.0010769231 -0.0038436363
0.0071167201 -0.001153846 -0.0037672725
0.005148265 -0.001153846 -0.0032327273
0.0068895901 -0.00076923077 -0.0032327268
0.0070914826 -0.00087179471 -0.0032327273
0.0070914831 -0.00087179482 -0.0037672725
0.0070914831 -0.00087179494 -0.0026981817
0.004921135 -0.00084615382 -0.0037672725
0.004921135 -0.00084615388 -0.0032327273
0.0049211355 -0.0010769231 -0.0037672725
0.0048454246 0.00084615371 -0.0047599999
0.0068895901 -0.0008076923 -0.0042636362
0.0068895901 -0.0010769231 -0.0043781819
0.005148265 -0.00084615382 -0.0042254548
0.011129336 -0.00084615382 -0.0047599999
0.0082523646 -0.00030769221 -0.0017818182
0.0077981078 -0.00030769221 -0.0017818185
0.0082523637 0.00023076919 -0.001781818
0.0088580437 0.00084615388 -0.0026981819
0.0090851737 -0.00084615377 -0.0026981814
0.010977917 -0.00084615382 -0.0026981819
0.0090851737 0.00084615382 -0.0026981819
0.0082523664 -0.00076923071 -0.001781818
0.0088580437 0.00084615388 -0.0032327273
0.0068895901 -0.00092307694 -0.005141818
-0.016883282 -0.0011538462 -0.0047599999
-0.013703469 -0.00030769227 -0.001781818
-0.0011356467 -0.00092307694 -0.0026981819
-0.0028769716 -0.00084615382 -0.0026981814
-0.00022712942 0.00023076919 -0.0017818182
0.00092365936 0.0011999999 -0.0026981814
0.0011356467 0.00092307694 -0.0032327268
0.0011356467 0.00092307694 -0.0026981819
0.0031798107 -0.00084615377 -0.0032327273
0.0031798107 -0.00084615382 -0.0026981819
0.0011938849 -0.00082840223 -0.0032268534
0.0012113565 -0.00084615382 -0.0026981814
0.0017413252 0.00023076923 -0.0017818182
0.0077981078 0.0002307692 -0.001781818
0.01906204 0.0011880342 -0.0047515151
0.018851735 0.0011538462 -0.0047599999
0.020895898 -0.00084615388 -0.0037672725
0.020895898 -0.00084615382 -0.0042254543
0.021123029 -0.00084615377 -0.0042254543
0.018851735 -0.00084615382 -0.0037672725
0.017110409 -0.001153846 -0.0037672725
0.0088580437 0.00084615388 0.0012727274
0.0090700323 0.0011384615 0.0012727272
0.0090851737 0.00084615377 0.0017309092
0.0088580437 -0.0011153846 0.00016545458
0.007099248 -0.00086390536 0.00075580424
0.0077981059 0.00023076923 -0.0004072726
0.0071167201 0.00084615377 0.00073818176
0.0057539432 -0.00030769227 -0.0004072726
0.005148265 -0.00084615377 0.00073818176
0.0057539432 0.00023076922 -0.00040727254
0.0057539428 -0.00081318675 -0.00027636351
0.011735015 -0.00081318681 -0.00027636357
0.011129337 -0.00084615377 0.0012727274
0.013097792 -0.00084615382 0.00073818176
0.013156031 0.0008639053 0.0007205595
0.01117981 0.0011282051 0.0012727274
0.010915569 0.0011764705 0.002234011
0.012264983 -0.00081318681 -0.00027636351
-0.021198737 0.00084615377 -0.0032327273
-0.020895898 0.00084615382 -0.0037672725
-0.022889592 0.00087179494 -0.0026981817
-0.023091482 0.0010769231 -0.0037672725
-0.022254219 -0.00031221716 -0.0017728345
-0.021716595 -0.0003138461 -0.0017696002
-0.021724118 0.0002377622 -0.0017679338
-0.012870663 -0.00084615382 -0.0042254548
-0.015066247 0.0012307692 -0.0037672725
-0.014914826 0.0011538462 -0.0032327273
-0.014914826 0.0011538462 -0.0026981819
-0.011129337 0.00084615388 -0.0042254548
-0.011129336 0.00084615394 -0.0032327273
-0.004921135 0.00084615382 -0.0026981819
-0.0031798107 0.00084615382 -0.0026981814
-0.0048454255 -0.00084615382 -0.0026981814
0.0087282555 0.0020000001 -0.0017381816
0.0088580437 0.0011538462 -0.0026981819
0.0090851746 0.00084615382 -0.0042254548
0.010902207 0.00084615382 -0.0037672725
0.0090851737 0.00084615388 -0.0037672725
0.0072681396 0.0020000001 -0.00071272714
0.0028921135 0.0011999998 -0.0042254543
0.0011356467 0.0011538462 -0.0042254543
0.0011356467 0.0011538462 -0.0032581817
0.002271293 0.0016923075 -0.0017818182
0.0022712934 0.0020000001 -0.0012472727
0.01315358 0.0011983805 0.00073416263
0.012264985 0.0020000001 -0.00025454536
0.012264985 0.0020000001 -0.0012472727
0.014763406 0.0020000001 -0.0012472727
0.015747635 0.0020000001 -0.001781818
0.015747633 0.0020000001 -0.0012472727
0.016277604 0.0020000001 -0.00025454536
0.015747635 0.0020000001 -0.00071272714
0.018700315 0.0020000001 -0.0012472727
0.0177918 0.0016923076 -0.00025454536
0.011735016 0.0020000001 -0.00025454536
0.011735017 0.0016923075 -0.00025454536
-0.01370347 0.0020000001 -0.001781818
-0.0087066246 0.0020000001 -0.0012472727
0.018246055 -0.00030769221 -0.0017818182
0.020895898 0.001153846 0.0012727274
0.017791798 0.00023076922 -0.0004072726
0.018246055 -0.00030769233 -0.00040727266
-0.019760251 0.00023076925 -0.0004072726
-0.019760251 0.00081318681 -0.00027636357
0.019760253 0.00081318669 -0.00027636357
0.018246055 0.0020000001 -0.001781818
0.020214511 0.0020000001 -0.001781818
0.019754194 0.0016799999 -0.0017696002
0.022258677 0.0020000001 -0.0017054545
0.018700315 0.0020000001 -0.00071272714
0.017261829 0.0020000001 -0.0012472727
0.017791798 0.0020000001 -0.0012472726
0.016731862 0.0020000001 -0.0012472727
0.020214509 0.0016923073 -0.00025454536
0.019760251 0.0020000001 -0.0012472727
0.015116718 0.0011282051 -0.0026981817
0.016883282 0.0011538462 -0.0026981814
0.011129337 -0.0011538462 -0.0037672725
0.0090851737 0.00084615377 -0.0032327273
0.010902207 0.00084615382 -0.0026981814
0.013162687 0.00085714273 -0.0047381818
0.014864353 0.0011282051 -0.0042254548
0.010902208 0.00084615382 -0.0032327273
0.010917351 0.0011999999 -0.0037672725
0.010917351 0.0011999999 -0.0042254543
0.012885804 0.0011999999 -0.0037672725
0.011179811 0.00087179482 -0.0032327273
0.014864352 0.00087179482 -0.0042254543
0.011129336 0.0011538462 -0.0047599999
0.010917352 0.0012000001 -0.0047599999
-0.015066246 0.00084615382 -0.0047599999
-0.014914826 0.00084615382 -0.0037672725
-0.015135073 -0.00083916081 0.0012727274
-0.014864353 -0.00087179494 0.0017309092
-0.01688328 -0.00088461541 0.002150909
-0.01511672 -0.0011282051 0.0017309092
-0.015111672 -0.00084615388 0.0022043637
-0.015066247 0.00084615388 0.0017309092
-0.015747633 0.0016923076 -0.00025454536
-0.015747631 0.00081318681 -0.00027636351
-0.011129336 0.0011428572 -0.0047272728
-0.010750789 -0.0017692308 -0.00071272714
-0.010902207 -0.00084615382 -0.0026981819
-0.012946372 0.0011538462 -0.0026981819
-0.015135073 -0.00083916081 -0.0027120658
-0.016277604 -0.00030769221 -0.0017818182
-0.015747631 -0.00030769221 -0.0017818182
-0.01688328 -0.00088461541 -0.0026981817
-0.012885803 -0.0012000001 -0.0047599999
-0.0088580437 -0.0011538462 -0.0026981819
-0.016731858 -0.0017692308 -0.00025454536
-0.0162776 -0.0017692308 -0.00071272731
-0.017110409 -0.00084615377 0.0017309092
-0.018851735 -0.0011153846 0.002150909
-0.016883282 -0.0011538462 0.00073818199
-0.018246053 -0.0017692306 -0.00025454536
-0.018851735 -0.0011538462 0.0017309092
-0.013703469 -0.00030769233 -0.00040727266
-0.01370347 0.00023076925 -0.0004072726
-0.009766561 -0.00081318669 -0.00027636351
-0.010220821 -0.00081318669 -0.00027636357
-0.011187575 -0.0011360946 0.00073230767
-0.012870664 -0.00084615377 0.00073818176
-0.011205047 -0.00084615377 0.00073818176
-0.011129336 0.00084615388 0.00073818199
-0.012264985 -0.00030769227 -0.0004072726
-0.011735016 -0.00030769233 -0.00040727266
-0.010902208 -0.00084615377 0.00073818199
-0.0090599377 0.00087179494 0.0012727274
-0.010902207 -0.00084615388 0.0012727274
-0.010902209 0.001153846 0.00073818199
0.021274447 0.0020000001 -0.00025454536
0.02074448 0.0020000001 -0.0012472726
-0.011735016 0.0002307692 -0.0004072726
-0.012794953 0.0020000001 -0.00071272725
-0.011129336 0.0011538462 -0.0032327273
-0.0070914826 0.00087179482 -0.0047600004
-0.0070914831 -0.00087179494 -0.0042254538
-0.0070410096 0.0010769231 -0.005141818
-0.0031798105 0.00084615382 -0.005141818
-0.0047697164 0.0020000001 -0.001781818
-0.0077981073 0.0020000001 -0.001781818
-0.0029526816 0.0011965812 -0.0047175759
-0.0037097791 0.0020000001 -0.0007127272
-0.00022712933 0.0020000001 -0.0012472727
0.00075709779 0.0020000001 -0.001781818
-0.00098422717 0.00084615394 -0.0047599999
-0.00098422717 0.0011538462 -0.0042254538
-0.0011735015 0.0011923077 -0.0042254538
-0.00098422717 0.0011868132 -0.0037672725
-0.00098422717 0.0012000001 -0.0047599999
-0.0022712934 0.0020000001 -0.0012472727
-0.0017413249 0.0020000001 -0.0012472727
-0.0022712934 0.0020000001 -0.00071272714
-0.0012870663 0.0020000001 -0.00071272714
-0.0011735015 0.0011923077 -0.0037672725
-0.00098422717 0.0011538462 -0.0032327278
-0.0072681401 0.0020000001 -0.001781818
-0.0082523655 0.0020000001 -0.001781818
-0.0097665628 0.0020000001 -0.0012472727
-0.0092365928 0.0020000001 -0.001781818
-0.011280757 0.0020000001 -0.001781818
-0.011735016 0.0020000001 -0.001781818
-0.0032555205 0.0020000001 -0.0007127272
-0.01022082 0.0020000001 -0.001781818
-0.010220821 0.0016923075 -0.0017818182
0.0052239746 0.0020000001 -0.001781818
0.0028012618 0.0020000001 -0.001781818
0.0048454255 0.001153846 -0.0032327278
-0.0037097791 0.0020000001 -0.001781818
-0.0012870663 0.0020000001 -0.001781818
-0.006738171 0.0020000001 -0.0012472726
-0.018700317 0.0020000001 -0.0017054545
-0.020744482 0.0020000001 -0.0012472727
-0.018246057 -0.0017692306 -0.0012472727
-0.018700318 -0.0017692312 -0.0012472725
-0.019053629 -0.0011282051 0.0021890909
-0.020214515 -0.0017692308 -0.0012472726
-0.015747635 0.0020000001 -0.001781818
-0.016731864 0.0020000001 -0.0012472727
-0.014893196 0.0011428572 0.0017527273
-0.011280757 0.0020000001 -0.00071272714
-0.0177918 0.0020000001 -0.00071272725
-0.007062641 -0.0011428572 -0.00272
-0.0088580437 0.00084615388 -0.0032327273
-0.0088580437 0.00084615388 -0.0026981819
-0.0071167201 0.001153846 -0.0026981814
-0.0071167201 0.001153846 -0.0037672725
-0.0017413249 -0.00081318681 -0.00027636357
-0.0011356467 -0.00092307694 -0.0047599999
-0.0011356467 -0.0008615384 -0.0042254543
0.013703469 0.0020000001 -0.0012472727
0.014233437 0.0020000001 -0.001781818
0.0047697159 0.0020000001 -0.0012472727
0.0047697159 0.0020000001 -0.001781818
-0.014233439 0.0020000001 -0.0012472727
-0.00098422717 0.0011538462 0.00073818176
-0.0022712934 0.00023076922 -0.00040727254
-0.0012113563 0.00084615377 0.00073818176
-0.0022712932 0.00081318681 -0.00027636351
-0.0029223976 0.00083076925 0.000722909
-0.0031495269 0.0011538462 -0.0027134542
-0.0022712934 0.00023076918 -0.0017818187
-0.0022712937 -0.00030769221 -0.0017818182
-0.001176943 0.0011748251 -0.0026842973
-0.0029526814 0.00086153846 0.0021585454
-0.00098422717 0.00084615377 0.0017309092
-0.00090851734 -0.00084615377 0.00073818176
0.009766561 0.0016923075 -0.0017818182
-0.0051671918 0.00084615388 0.0021318183
-0.0031798107 0.00084615382 0.0012727274
-0.005072555 -0.00084615382 -0.0026981819
-0.005072555 -0.00084615388 -0.0032327273
-0.0042397468 0.00023076919 -0.0017818185
-0.0049211355 0.0004615385 -0.0020872727
-0.0037097791 0.00023076919 -0.0017818182
-0.0042397482 0.00081318675 -0.00027636351
-0.0068895896 0.00084615388 -0.0042254548
-0.0068895896 0.00084615388 -0.0037672725
-0.0031041009 0.0004615385 -0.0020872727
-0.0031041009 -0.0011538462 -0.0026981819
-0.0028921133 -0.0012000001 -0.0032327273
-0.0028921135 -0.0011999999 -0.0026981814
-0.0062839119 -0.00081318669 -0.00027636351
-0.0082523655 0.00081318681 -0.00027636357
-0.0077981073 -0.00030769227 -0.00040727266
-0.0082523655 -0.00030769227 -0.00040727266
-0.0082523664 0.00023076925 -0.0004072726
-0.0077981069 -0.00081318669 -0.00027636351
-0.0068895896 -0.00084615388 0.00073818199
-0.006829022 -0.00083076919 0.00018836372
-0.0062839119 -0.00030769227 -0.001781818
-0.00976656 0.0016923075 -0.00025454536
-0.0090851746 0.0011384615 0.0021585454
-0.0090599377 0.00087179494 0.0017309092
-0.010902207 0.00084615388 0.0017309092
-0.010902207 0.001153846 0.0012727274
-0.0082523655 -0.0017692306 -0.00025454536
-0.0087873805 -0.00084102561 0.00072290923
-0.0090851728 -0.001153846 0.00073818176
-0.0082523655 0.0016923076 -0.00025454536
0.0068895901 -0.0010769231 0.00066181819
0.0068482934 0.00086713285 0.00073123968
0.012946372 -0.00084615382 0.0017309092
0.005148265 -0.00084615388 0.0012727272
0.0049211355 -0.0010769231 0.0012727274
0.0042397478 0.00023076925 -0.00040727254
0.0068895901 -0.00083076925 0.0017309092
0.0011356467 0.00092307694 0.00073818176
0.0017413249 0.00081318669 -0.00027636351
0.001741325 0.00023076922 -0.0004072726
0.00022712933 0.00023076922 -0.0004072726
0.004921135 -0.00084615382 -0.0026981814
0.0042397464 0.0002307692 -0.0017818185
0.0048454255 0.00084615382 -0.0026981819
0.0052239746 -0.00041025638 -0.0020872727
0.00511041 0.00084615382 -0.0026981817
0.005148265 -0.00084615382 -0.0026981814
0.00022712935 -0.00081318681 -0.00027636351
-0.00022712939 -0.00081318681 -0.00027636357
-0.00022712935 -0.00030769233 -0.00040727266
0.0029526814 -0.0010769231 0.00073818176
0.0022712927 -0.00081318675 -0.00027636351
0.0017413249 -0.00030769227 -0.00040727266
0.00098422717 -0.0011538462 -0.0026981819
0.0022712925 -0.0017692311 -0.00071272755
-0.005072555 -0.00084615382 -0.0037672725
-0.0068895896 -0.00084615388 -0.0037672725
0.013119424 0.0008791209 0.002210909
0.017110409 -0.001153846 0.0017309092
0.017110409 0.00084615377 0.0017309092
0.017101998 -0.0011452991 0.0021381816
0.019760249 -0.0017692312 -0.0012472726
0.019760251 0.00023076922 -0.0004072726
0.014233441 0.00081318681 -0.00027636351
0.013703472 0.00023076922 -0.0004072726
0.014873531 0.00086713285 0.00075900822
0.015747633 -0.00030769227 -0.0004072726
0.020214511 -0.00030769227 -0.0017818182
0.019078866 0.00084615382 -0.0026981814
-0.015747631 0.00023076922 -0.0017818185
-0.0177918 -0.00030769221 -0.0017818182
-0.0070914831 0.00087179494 -0.0037672725
-0.0070914831 -0.00087179482 -0.0037672725
-0.0088580437 -0.0011538462 -0.0037672725
-0.0070960713 -0.0011608391 -0.0037672725
-0.0090851737 -0.00084615388 -0.0042254538
-0.00976656 -0.0017692308 -0.00071272725
-0.005072555 -0.0011538462 -0.0042254548
-0.0048454255 -0.00084615382 -0.0037672729
-0.0031041009 -0.0011538462 -0.0042254548
-0.0037097791 -0.0017692306 -0.00025454536
-0.0042397468 -0.0017692313 -0.0012472725
-0.0037097789 -0.0017692311 -0.0012472727
-0.0077981083 -0.00030769221 -0.0017818185
-0.0070914831 -0.00087179494 -0.0026981814
-0.0088075697 -0.00082051283 -0.0026981814
-0.018851735 -0.0011538462 -0.0037672725
-0.020214515 -0.0017692306 -0.00071272743
-0.016883282 0.00084615382 -0.0026981819
-0.017105361 0.0011487178 -0.0047447276
-0.017110409 0.001153846 -0.0042254543
-0.019078866 0.001153846 -0.0042254543
-0.017110409 0.00084615382 -0.0042254538
-0.016731864 0.0020000001 -0.001781818
-0.018851735 0.0011538462 -0.0037672725
0.021123029 -0.00092307694 -0.005141818
0.021123029 0.00084615388 -0.0042254543
0.020906717 0.00085714285 -0.0042254543
0.018851735 0.00084615382 0.0012727274
0.018851735 -0.00084615388 0.0012727274
0.018851735 -0.00084615382 0.00073818176
0.018246057 0.00023076925 -0.0004072726
0.0090851737 -0.00084615382 -0.0037672725
0.0090851737 -0.001153846 -0.0037672725
0.0088580437 0.00084615382 -0.0037672725
0.0029022081 0.00087179482 0.00073818199
0.0022712934 0.00023076922 -0.00040727254
0.0082523664 0.0020000001 -0.00025454536
0.0090851737 0.00084615377 0.00073818199
0.00976656 0.00081318669 -0.00027636351
0.01022082 0.00081318669 -0.00027636357
0.013168456 0.00085128198 -0.0032479996
0.012946372 -0.00084615388 -0.0026981814
0.011129337 -0.00084615382 -0.0026981819
0.012264984 -0.00030769227 -0.0017818182
0.012946373 -0.00084615382 -0.0032327273
0.011735016 0.0016923076 -0.0017818182
0.012264984 0.0016923076 -0.0017818182
0.010977917 -0.00084615382 -0.0032327273
0.012946372 -0.00084615388 -0.0042254543
0.012946372 -0.00084615388 -0.0037672725
0.012794952 -0.0017692308 -0.0012472725
0.010220819 0.00023076922 -0.0004072726
-0.021123029 -0.00084615388 0.0021127271
-0.021123029 -0.0011384615 0.0013032727
0.016883282 0.0011538462 -0.0032327273
0.017101999 0.0011794871 -0.0032412121
0.017095266 0.0011999999 -0.0037672725
0.014914826 0.00092307694 -0.005141818
0.018851735 0.0011538462 -0.0032327273
0.019078866 0.00084615388 -0.0042254543
0.020895896 0.001153846 -0.0047599999
0.019041009 0.00088461535 -0.0051799999
0.020908518 0.00085897435 -0.0047600004
0.021123029 0.0011538462 -0.0037672725
0.012264984 0.00081318675 -0.00027636351
0.014871563 -0.0011208792 0.0021454548
0.015066247 -0.00084615382 0.0017309092
-0.019061394 -0.0011834318 0.0017074129
-0.020214511 -0.0017692308 -0.00025454536
-0.021123029 -0.0011538462 0.00073818199
-0.020895898 0.00084615382 -0.0026981814
-0.018700315 0.0020000001 -0.0007127272
-0.019078866 0.001153846 -0.0026981819
-0.019746484 0.0016923076 -0.0017471076
0.021728706 -0.00030769227 -0.00040727266
-0.0031041009 -0.0011538462 -0.0032327273
0.0071167187 0.00084615377 -0.0042254538
0.0088580437 0.00084615388 -0.0042254548
0.0071167187 0.00084615377 -0.0037672725
0.005148265 -0.00084615377 -0.0032327273
0.0068895896 0.00084615382 -0.0037672725
0.0068895896 0.00084615388 -0.0032327273
0.00511041 0.00084615388 -0.0037672725
0.00511041 0.00084615382 -0.0041872729
-0.00098422717 0.00084615382 -0.005141818
-0.0012113564 0.00084615388 -0.0037672725
-0.011280755 -0.0017626374 -0.0017774547
-0.009766561 -0.0017692308 -0.0012472727
-0.0082523637 -0.0017692308 -0.00071272737
-0.0087066265 -0.0017692307 -0.0012472728
-0.0071059042 -0.0011868131 -0.0042254538
0.0068895901 -0.0008076923 -0.0038054544
0.0051138517 0.00083916081 -0.0048085954
0.0068895905 -0.0010769231 -0.0047345455
0.0071167201 -0.001153846 -0.0042254543
0.0088580437 0.00084615382 -0.005141818
0.0090743583 0.00085714279 -0.0052072727
0.0090851737 0.00084615377 -0.0047599999
-0.014233439 -0.00030769227 -0.0004072726
-0.015217666 -0.0017692308 -0.00025454524
-0.01423344 -0.00030769227 -0.0017818182
-0.00090851734 -0.001153846 -0.0026981814
0.00022712939 -0.0012307694 -0.0017818182
0.00075709767 -0.0017692311 -0.0017818187
0.00022712939 -0.0017692311 -0.0012472729
-0.00022712944 -0.0017692311 -0.0012472727
-0.0022712934 -0.0017692308 -0.0017818182
-0.0028012618 -0.0017692308 -0.0012472725
-0.0028012618 -0.0017692306 -0.0017818185
-0.0012113565 0.00084615377 -0.0026981819
0.00090851734 0.00084615377 -0.0032327273
-0.00022712942 -0.00030769221 -0.0017818182
0.00092365942 0.0011999999 -0.0042254543
0.00092365936 0.0011999998 -0.0037672725
0.0029526816 -0.00084615388 -0.0026981819
0.0028012618 0.0004615385 -0.0020872727
0.0071167191 0.00084615377 -0.0032327273
0.0068895896 0.00084615388 -0.0026981814
0.020895898 -0.001153846 -0.0042254543
0.019078866 -0.00084615382 -0.0037672725
0.010902208 0.00084615382 0.0017309092
0.0071015777 -0.0008615384 0.0012727272
-0.018246055 -0.00030769221 -0.0017818182
-0.021123029 0.0011538462 -0.0032327273
-0.020895898 0.001153846 -0.0037672725
-0.022871237 0.0011468531 -0.0027120658
-0.02315205 0.00086153857 -0.0037672725
-0.019760251 -0.00030769233 -0.00040727266
-0.012895901 0.00087179494 -0.0042254543
-0.015066247 0.0012307693 -0.0026981814
-0.0051482646 0.0004615385 -0.0020872727
-0.0068895901 0.0010769231 -0.0032327273
-0.005148265 0.00084615377 -0.0032327268
-0.0062839114 0.0016923078 -0.0017818182
-0.0057539428 0.0016923076 -0.0017818182
-0.0068895905 0.0010769231 -0.0026981819
-0.0070914826 0.00087179482 -0.0032327268
-0.0057539437 0.0020000001 -0.0007127272
-0.0057539428 0.0020000001 -0.0012472726
0.0088580437 0.0011538462 -0.0032327273
0.0088580437 0.0011538462 -0.0037672725
0.0070823058 0.001188811 -0.0037950412
0.0082334382 0.0020000001 -0.0017627273
0.0082523664 0.0016923075 -0.0017818185
0.004845426 0.00084615377 0.00073818199
0.0077981059 0.0020000001 -0.0012472727
0.0011356467 0.0011538462 -0.0036909087
0.0009236593 0.0012000001 -0.0032327273
-0.00022712935 0.0020000001 -0.00071272714
0.0057539428 0.0016923075 -0.0017818182
0.0051230285 0.0011623931 -0.0026981817
0.0068391166 0.0011794871 -0.0026981817
0.0070410096 0.0011538462 -0.0026981819
0.012264985 0.0016923075 -0.00025454536
0.015217666 0.0020000001 -0.0012472726
0.016883282 0.0011538462 -0.0042254548
0.015217667 0.0020000001 -0.00025454536
0.018246057 0.0016923075 -0.00025454536
-0.0082523655 0.0020000001 -0.00071272714
-0.0087066246 0.0020000001 -0.0007127272
0.020895896 0.001153846 0.00073818199
0.016277602 0.00081318669 -0.00027636357
0.017791798 0.00081318669 -0.00027636357
0.017791798 0.0020000001 -0.001781818
0.019063722 0.0012000001 -0.0042254548
0.019760253 0.0020000001 -0.001781818
0.020214507 0.0016730769 -0.0017627273
0.021728707 0.0020000001 -0.0017054545
0.022788644 0.0020000001 -0.0017054545
0.018246057 0.0020000001 -0.0012472726
0.014864352 0.00087179494 -0.0026981819
0.011129337 -0.0011538462 -0.0042254548
0.010977917 -0.0011538462 -0.0032327273
0.011150969 0.0011428572 -0.003789091
0.011150969 0.0011428572 -0.0026981819
0.014864353 0.00087179494 -0.0037672725
0.010902209 0.00084615377 -0.0047599995
0.010977917 -0.00084615388 -0.0042254548
0.010902208 0.00084615382 -0.0042254543
0.0090851737 0.001153846 -0.0042254548
0.011129337 0.0011538462 -0.005141818
-0.014895899 0.00086538465 -0.004721818
-0.018700317 -0.0017692308 -0.00071272737
-0.014864353 -0.00087179482 0.00073818176
-0.013173503 -0.00084615377 0.0017309092
-0.014864353 -0.00087179494 0.0012727274
-0.01511672 -0.0011282051 0.0012727274
-0.014864353 -0.0011282051 0.0017309092
-0.011280756 -0.0017692308 -0.00071272725
-0.010902207 0.00084615377 -0.0026981814
-0.011735018 0.00023076922 -0.0017818185
-0.01513691 -0.00084102555 -0.0032276362
-0.013097792 -0.0011538462 -0.0052181818
-0.0088580437 -0.0011538462 -0.0032327273
-0.018246055 0.00023076922 -0.0004072726
-0.0177918 -0.00030769233 -0.00040727266
-0.018246057 0.00081318669 -0.00027636357
-0.017095268 -0.0011999999 0.0012727272
-0.013703467 -0.0017692306 -0.00071272731
-0.0088580437 0.00084615377 0.0012727274
-0.0032555207 -0.0017692311 -0.0012472727
0.02074448 0.0020000001 -0.0007127272
-0.012264987 0.00023076925 -0.00040727254
-0.012264984 0.00081318681 -0.00027636351
-0.013097792 0.00084615394 0.00073818176
-0.014233438 0.00081318675 -0.00027636351
-0.012264985 0.0020000001 -0.0007127272
-0.0071167201 0.001153846 -0.0042254543
-0.0088580437 0.0010769231 -0.0048363637
-0.0068895905 0.0010769231 -0.0046836361
-0.0029113851 0.00082517473 -0.0047669425
-0.0052239746 0.0020000001 -0.0012472727
-0.005148265 0.001153846 -0.0037672725
-0.0049211355 0.0011153846 -0.0037672725
0.00022712933 0.0020000001 -0.0012472727
-0.0011861197 0.0011965812 -0.0047599999
-0.0077981087 0.0016923076 -0.0017818182
-0.00976656 0.0016923075 -0.0017818185
-0.011129337 0.0011538462 -0.0037672725
-0.0028012618 0.0020000001 -0.0007127272
-0.00976656 0.0020000001 -0.00071272714
-0.010750789 0.0020000001 -0.0012472727
0.0032555205 0.0020000001 -0.00071272714
0.0032555207 0.0020000001 -0.0012472727
0.0037097791 0.0020000001 -0.0012472727
0.004845426 0.001153846 -0.0037672725
0.0048454255 0.001153846 -0.0026981814
0.0068391166 0.0011794871 -0.0032327273
0.0068391166 0.0011794871 -0.0037672725
-0.0052239741 0.0020000001 -0.001781818
-0.0042397478 0.0020000001 -0.001781818
-0.0032555202 0.0020000001 -0.001781818
-0.00075709779 0.0020000001 -0.001781818
-0.0012870663 0.0020000001 -0.0012472726
0.0042397468 0.0016923076 -0.0017818182
0.0037097791 0.0016923076 -0.0017818182
-0.020895898 0.001153846 -0.0026981819
-0.018246058 -0.00030769227 -0.00040727266
-0.018700313 -0.0017692306 -0.00025454536
-0.015217666 0.0020000001 -0.001781818
-0.016277604 0.0020000001 -0.001781818
-0.00976656 -0.00030769227 -0.0017818182
-0.0068895896 -0.0011868132 -0.0026981817
-0.0071167191 0.001153846 -0.0032327273
-0.0068895905 0.0010769231 -0.0037672725
-0.011735017 -0.00030769221 -0.0017818182
-0.0017413251 -0.00030769221 -0.0017818182
0.0029022086 0.00087179494 -0.0026981814
0.0042397473 -0.00030769227 -0.0017818182
0.0049211355 -0.00046153844 -0.0020872727
-0.00090851734 -0.00084615382 -0.0042254543
0.00022712942 0.0016923076 -0.0017818182
-0.00022712944 0.0016923076 -0.0017818185
0.013249211 0.0020000001 -0.0012472727
0.012264985 0.0020000001 -0.001781818
0.014233438 0.0020000001 -0.0012472727
0.016731862 0.0020000001 -0.001781818
0.0042397478 0.0020000001 -0.0012472727
0.0042397473 0.0020000001 -0.00071272714
0.0042397478 0.0020000001 -0.001781818
0.0047697159 0.0015384615 -0.0020872727
-0.0012113565 0.00084615382 0.0012727274
-0.00098422717 0.0011538462 -0.0026981819
0.0068895901 -0.0008076923 -0.0026599998
-0.0042397473 -0.00030769227 -0.0017818185
-0.0037097794 -0.00030769221 -0.001781818
-0.0042397478 -0.00030769227 -0.0004072726
-0.0037097791 0.00023076922 -0.0004072726
-0.004921135 0.00084615382 -0.0042254543
-0.0031041009 -0.00084615388 -0.0026981819
-0.0068138801 -0.00046153844 -0.0020872727
-0.0090851746 0.001153846 0.0017309092
-0.01022082 -0.00030769233 -0.00040727266
-0.0097665619 -0.00030769233 -0.00040727266
-0.01022082 0.0020000001 -0.0012472726
0.0068307044 0.0011965813 0.00072969717
0.0037097791 0.00023076925 -0.0004072726
0.0042397478 -0.00030769227 -0.0004072726
0.0037097791 -0.00030769227 -0.00040727266
0.00022712935 0.00081318681 -0.00027636351
0.00098422717 -0.00084615382 0.00073818199
0.002271293 -0.0017692311 -0.00025454536
0.0031798109 -0.00084615382 0.00073818176
0.0042397478 -0.00081318675 -0.00027636351
0.001741325 -0.0017692306 -0.00071272737
0.0022712932 0.00081318675 -0.00027636351
0.0022712934 -0.00030769227 -0.0004072726
-0.0068895896 -0.0011868132 -0.0037672725
0.012895901 0.00088888884 0.0022060606
0.013135647 0.00086538459 0.0017309092
0.017110409 -0.001153846 0.0012727272
0.019078866 0.00084615377 0.00073818199
0.015747633 0.00023076922 -0.00040727254
0.019760251 -0.00030769221 -0.0017818182
-0.0088580437 0.00084615388 -0.0037672725
-0.0088075716 -0.00082051288 -0.0037672725
-0.0090851737 -0.00084615382 -0.0037672729
-0.0048512495 -0.0011715975 -0.0042254543
-0.0028921135 -0.0011999999 0.0012727272
-0.01870032 -0.0017692308 -0.0017818182
-0.018851735 -0.0011538462 -0.0026981814
-0.020744475 -0.0017692312 -0.00071272737
-0.01823394 0.0016923076 -0.0017696
-0.017105361 0.00085128198 -0.0047447276
-0.017261829 0.0020000001 -0.001781818
-0.014763406 0.0020000001 -0.001781818
-0.017110409 0.001153846 -0.0037672725
-0.018851735 0.0011538462 -0.0042254548
0.017110409 -0.00084615377 0.0012727274
0.018851735 -0.0011538462 0.00073818199
0.0028921135 0.0011999999 0.00073818176
0.0088580437 0.00084615382 0.00073818176
0.0082523664 0.00023076923 -0.0004072726
0.0087823337 0.00084615382 0.00020363636
0.012895901 0.00087179482 -0.0032327268
0.012895901 0.00087179494 -0.0026981817
0.013097792 -0.00084615388 -0.0032327273
0.00976656 0.00023076922 -0.0017818182
0.00976656 -0.00030769221 -0.0017818182
0.011129336 -0.00084615388 -0.0032327278
0.010977918 0.0004615385 -0.0020872727
0.011735017 -0.00030769227 -0.0017818182
0.012264985 0.00023076922 -0.0017818185
-0.02114466 0.00083516486 0.0021672728
0.014914826 0.0011538462 -0.005141818
0.01511672 0.00087179482 -0.005141818
0.013097792 0.00092307694 -0.005141818
0.015747633 0.0016923075 -0.0017818182
0.016277604 0.0016923075 -0.0017818182
0.013703469 0.0016923075 -0.0017818182
0.014233436 0.0016923075 -0.0017818182
-0.020214511 0.00023076919 -0.0017818182
0.0088364128 -0.00083516486 0.00018181826
0.0082523655 -0.0012307693 -0.00025454536
0.0082523664 -0.00030769227 -0.00040727266
-0.0031041009 -0.0011538462 -0.0037672725
-0.011280756 -0.0017692308 -0.0012472727
0.005148265 -0.00084615382 -0.0037672725
0.0017413249 -0.00030769221 -0.0017818182
0.0011356467 -0.00046153844 -0.0020872727
0.0068895896 0.00084615382 -0.0042254548
0.0070914831 -0.00087179494 -0.0042254548
0.0071167201 0.00084615382 -0.0047599995
0.0068895901 0.00092307694 -0.005141818
0.0088580437 0.00084615382 -0.0047600004
-0.012264983 0.00023076918 -0.0017818185
-0.014233439 0.00023076922 -0.00040727254
-0.0009085174 -0.0011538462 -0.0032327273
0.00098422717 -0.0011538462 -0.0032327273
0.00022712945 -0.0017692308 -0.001781818
-0.00022712942 -0.0017692306 -0.0017818182
-0.002271293 -0.0017692312 -0.0012472724
0.002271293 -0.00030769227 -0.0017818182
0.0077981083 0.0016923076 -0.0017818182
0.010917352 0.0011999999 0.0017309095
0.0068895901 -0.00080000004 0.00069236371
0.0070842719 0.0011648351 0.00072727271
0.0062839128 0.00081318681 -0.00027636351
0.0057539432 0.00081318681 -0.00027636351
0.010977917 -0.0011538462 0.00073818176
-0.018851735 -0.00087179494 -0.0032072724
-0.020895896 0.0011538462 -0.0032327273
-0.019760253 -0.00081318681 -0.00027636357
-0.005148265 0.00084615382 -0.0026981814
-0.0077981078 0.00023076919 -0.0017818182
-0.0070914826 -0.00087179482 -0.0032327268
-0.0068895896 0.00084615382 -0.0032327273
-0.005148265 0.00084615377 -0.0037672725
0.004921135 -0.00084615388 0.00073818176
0.0062839123 0.0016923075 -0.0017818185
0.016883282 0.0011538462 -0.0047599999
0.018700318 0.0020000001 -0.00025454536
-0.01370347 0.0016923075 -0.0017818182
-0.0092365928 0.0020000001 -0.0007127272
0.019760251 0.00023076919 -0.0017818185
0.018246057 0.00081318669 -0.00027636357
0.021274447 0.0020000001 -0.0017054545
0.021728704 0.0020000001 -0.0012472727
0.018246057 0.0020000001 -0.00071272714
0.017791798 0.0020000001 -0.00071272714
0.014864352 0.0011282051 -0.0026981814
0.010977917 -0.0011538462 -0.0042254548
0.010977917 -0.00084615382 -0.0037672725
0.01117981 0.00087179494 -0.0026981817
0.0090851737 0.0011538462 -0.0047599999
-0.016883282 -0.0011538462 0.0012727274
-0.014864353 -0.0011282051 0.0012727274
-0.010750788 -0.0017692311 -0.0017818185
-0.016277604 0.0002307692 -0.001781818
-0.017085174 -0.00085470086 0.001289697
-0.017095268 -0.0011999999 0.0017309092
-0.017095268 -0.0012000001 0.00073818176
-0.01688328 -0.00089230767 0.00069236371
-0.016277604 -0.00030769227 -0.00040727266
-0.013249215 -0.0017692308 -0.00071272725
