# .PCD v0.7 - Point Cloud Data file format
VERSION 0.7
FIELDS x y z
SIZE 4 4 4
TYPE F F F
COUNT 1 1 1
WIDTH 525
HEIGHT 1
VIEWPOINT 0 0 0 1 0 0 0
POINTS 525
DATA ascii
-0.00065901579 6.6577784e-05 -0.0036101132
-0.00063582318 -0.00010850971 -0.0036179246
0.00064025924 8.1809696e-05 -0.0036322162
-0.0069250078 6.4200009e-05 0.0012432643
-0.0069257608 5.9444443e-05 0.0017332031
-0.0057185716 8.3820945e-05 0.0017090809
-0.0057193688 8.6880355e-05 0.001258382
-0.0071752532 0.0010105557 -0.00055283023
-0.0067197238 0.0010105557 -0.00030698974
-0.0066927704 0.0010105557 -0.00068790739
-0.0072150854 0.00072461204 -0.00069067365
-0.0070543727 -9.1453003e-05 -0.0032525039
-0.0070467703 -7.9259269e-05 -0.0035542455
-0.0070507242 4.7555557e-05 -0.003554245
-0.0032614782 0.0010105557 -0.00073113205
-0.0037358757 0.0010105557 -0.00073113211
-0.0031369491 0.00057066674 -0.0010283019
-0.0031844738 7.9116719e-05 -0.0022481943
-0.0052480148 0.0010402768 -0.00031509437
-0.0057520634 0.0010402772 -0.00031509437
-0.0057119066 -0.00011286921 0.0016853482
-0.0044771205 8.9166671e-05 0.0020028302
-0.0045364201 -9.1148162e-05 0.001713585
-0.0069677043 -5.944445e-05 0.0020028302
-0.0070270039 -5.944445e-05 0.0020028302
-0.0070511629 3.0823056e-05 0.0017210693
-0.00065229571 1.4861117e-05 0.0020622644
-0.0018382879 -5.9444446e-05 0.0020325473
-0.00064241246 -5.944445e-05 0.0020721699
-0.007051541 -9.4291208e-05 0.0017282042
-0.005714416 8.4825224e-05 0.00075171108
-0.0018852329 -0.00012012733 -0.0035975818
-0.0044106003 9.2526578e-05 -0.0032531978
-0.0031808815 8.0375605e-05 -0.0032545622
-0.0031850138 7.1959075e-05 -0.003596474
-0.0052480139 0.0010375751 -0.00068790745
-0.0057520629 0.0010375754 -0.00068790733
-0.0062137507 0.001031785 -0.00031509434
-0.0062185768 0.0010293667 -0.00069201092
0.0075421263 0.00024728893 -0.00030954738
0.0075261146 0.00074367458 -0.0003058078
0.0075462083 0.00026199591 -0.00070647814
0.0075268177 0.0007175795 -0.00070141506
-0.0071752537 0.0010105557 -0.00027547166
-0.0075195506 0.0006660205 -0.00035754716
0.0075218119 -0.00023485432 -0.00066390366
0.0072119581 -0.00074364344 -0.00033361424
0.0075252592 -0.00022342915 -0.00032192582
0.0071333339 -0.0010105557 -0.00029664929
0.0070631392 8.1736122e-05 0.0017121615
0.0070566535 -5.9444454e-05 0.0016462264
0.0070270039 0.0001188889 0.0020028302
0.0047439686 0.0010402772 -0.00073113211
0.0032614782 0.0010105552 -0.00025566039
0.0047439691 0.001040276 -0.00025566044
-0.0045412611 0.00011160999 -0.0027688676
-0.0044059614 9.1148162e-05 -0.0027518878
-0.0069677043 5.944445e-05 -0.003554245
-0.0057185842 8.6290325e-05 -0.0032576495
-0.0057224133 6.604939e-05 -0.0035916669
-0.0069312113 5.7158133e-05 -0.0022146949
-0.0069329934 6.5243912e-05 -0.0027620345
-0.0057161679 8.4473701e-05 -0.0022466995
-0.0070524178 3.3968252e-05 -0.0022466981
-0.0075300997 0.00023202512 -0.00067744998
-0.0075467536 -0.00028848043 -0.00072588801
-0.0070513319 4.2678068e-05 -0.0027473145
-0.00020754864 0.0010105557 -0.0010283019
0.00024128813 0.0010105557 -0.00073932973
0.00035579765 0.0010105557 -0.0010283019
-0.0031843879 8.1364597e-05 -0.0027522566
0.00064914086 8.7269502e-05 0.0017379067
0.00063362723 7.9259269e-05 0.0020545591
0.0018975874 0.00010898151 0.0020325473
-0.0069487272 -8.7977787e-05 0.0017199245
-0.0057136617 -0.0001276594 0.0012667264
-0.0069479379 -7.9259276e-05 -0.003554245
-0.0069479365 -7.2654337e-05 -0.0032636789
0.0062561077 -0.0010275397 -0.00069716998
0.0062561077 -0.001023765 -0.00033490569
0.006753569 -0.0010259672 -0.00069371075
-0.0044164727 8.3762636e-05 -0.0035920665
-0.0056962715 -0.00011185784 -0.0032618688
0.0019568871 -5.9444457e-05 -0.0035839621
0.0018908242 0.00010637428 -0.003601688
0.0057520624 0.0010402764 -0.00025566044
0.0062561086 0.0010379904 -0.00071741652
0.0057520648 0.0010379908 -0.0007174167
0.006256111 0.0010402757 -0.00025566044
0.0056937812 8.1309081e-05 0.0012599052
-0.006928172 5.6613775e-05 0.00072924548
-0.0075211646 0.00065388897 -0.00067169801
0.0071971677 0.0010105557 -0.00071950367
0.0068965452 -5.9444446e-05 -0.0035483022
0.0068961964 -7.6928118e-05 -0.0032448387
0.0057046218 -8.6194457e-05 -0.0035483013
0.0068980283 -7.8763907e-05 -0.001762311
0.0070536882 -6.5388907e-05 -0.0017623112
0.0070533585 -6.604939e-05 -0.0022533019
0.0004239924 9.8083336e-05 0.00168783
-0.0067601544 -0.0010402763 -0.00025566033
-0.0071719582 -0.0010237655 -0.00070141506
-0.0067557511 -0.0010388058 -0.0007117131
-0.0071724844 -0.0010216514 -0.0002723019
-0.0052475459 -0.0010400427 -0.00073300424
-0.006256111 -0.0010402759 -0.00025566039
0.0067601558 -0.0010237652 -0.00033490558
0.0057346211 -0.0010373631 -0.00031859041
0.0057376404 -0.0010378677 -0.00067651708
0.0070665372 7.9259269e-05 0.0012599061
0.0071990695 0.0010105557 -0.00026248064
0.006897944 7.6928111e-05 0.0012564099
0.0068982057 7.8620091e-05 0.0016967139
0.00569276 7.488457e-05 0.0017222563
0.0056983787 9.1669601e-05 -0.0032655215
0.0056936336 8.9166679e-05 -0.002748684
0.0068866806 8.1225626e-05 -0.0027509779
0.0068902434 7.9259269e-05 -0.003253059
0.0045614582 7.0012356e-05 -0.0032471698
0.0045430087 8.5864202e-05 -0.0035509435
0.0045623644 6.8113433e-05 -0.0027556014
-0.0045364201 0.0001188889 -0.0022466979
-0.0042573623 0.0010149264 -0.00072676199
-0.0047439695 0.0010353235 -0.00070636795
-0.0070502991 3.3968252e-05 -0.0032358486
-0.0070507233 3.7365084e-05 -0.0017466034
-0.0070528528 -0.00010364674 -0.0017415091
-0.0057161669 8.4473701e-05 -0.0017415095
-0.0070542493 -0.00010282284 -0.0027406425
-0.006951231 -7.5956807e-05 -0.0022235848
-0.0069496562 -7.7536242e-05 -0.0027467185
0.0007214786 0.0010105557 -0.0010283019
0.00042356894 9.2351205e-05 -0.0027550706
-0.00064472033 -0.00011585159 -0.0022451812
-0.00064357463 -0.00011539218 -0.0027518878
-0.0018679372 -0.0001188889 -0.0027518864
-0.00065366353 7.9564117e-05 -0.0027521909
0.00042058824 9.9074088e-05 -0.0032636789
-0.0020576972 7.1333343e-05 -0.0022466979
-0.0020576974 7.133335e-05 -0.0017415094
-0.0029946303 -5.4569682e-12 -0.0019198112
-0.0018938811 7.8020843e-05 -0.0017415088
-0.0018938809 7.8020843e-05 -0.0022466988
-0.0016341275 0.00069804769 -0.0010283018
-0.0027574319 0.0010105555 -0.00031509437
-0.0031886299 7.5584998e-05 0.00075511041
-0.0032614784 0.0010105557 -0.00031509437
-0.0031852359 7.9825411e-05 0.0012565093
-0.0045364201 0.00011145836 0.0016908016
-0.0044085686 8.8348643e-05 0.0017171112
-0.0020576972 7.1333336e-05 0.0012599059
-0.0022533864 0.0010105557 -0.00031509434
-0.0075447075 -0.00026985892 -0.0003259432
-0.0075294697 0.0002218552 -0.0003336675
-0.0069457409 -8.5864209e-05 0.0012786166
-0.0075276918 -0.0007537799 -0.00032244698
-0.0043926621 -0.00010447813 0.0016948549
-0.0027574329 -0.0010402758 -0.00025566033
-0.0022533853 -0.0010402764 -0.00025566044
-0.0017474708 -0.0010400428 -0.00073300413
-0.00074124429 -0.0010402759 -0.00025566044
-0.0012452921 -0.0010402764 -0.00025566044
-0.00074212957 -0.0010385022 -0.00074532535
-0.0069329427 5.9444457e-05 -0.0032867924
-0.00151214 -0.0010105557 -0.0010283019
-0.0022830351 -0.0010105557 -0.001028302
-0.0012452919 -0.0010105557 -0.001028302
-0.00075607002 -0.0010105557 -0.001028302
-0.0025498832 -0.0010105557 -0.0010283019
-0.0037358762 -0.001040277 -0.00073113228
-0.0034393773 -0.0010105557 -0.0010283019
-0.004550105 9.8311968e-05 -0.0032525035
-0.0045364201 8.9166679e-05 -0.0035839621
-0.0057161669 8.4473701e-05 -0.0027518864
-0.0043893578 -9.0355563e-05 -0.0036029806
-0.0012452921 -0.0010382954 -0.0007469813
-0.0018679374 -0.00011888891 -0.0022466991
-0.0017493392 -0.0010402757 -0.00025566039
-0.0032614775 -0.0010402765 -0.00025566039
-0.0047439691 -0.0010402764 -0.00025566039
-0.0037358766 -0.0010402764 -0.00025566044
-0.0029946296 -0.00011888891 0.00075471692
-0.0029900682 -0.00012346158 0.0012736215
0.0031713669 8.3921579e-05 -0.0035781353
0.0020632774 6.9934649e-05 -0.0035804668
0.0029946303 7.1333336e-05 -0.0034116036
0.0031831735 -9.9074088e-05 -0.0032525035
0.0044334834 -0.00010655138 -0.0027260948
0.0031784584 -0.00010105556 -0.0027518868
-0.0070514209 4.1960782e-05 0.0012494175
0.0067601558 0.0010402772 -0.00070141512
0.0052431142 0.0010390489 -0.00072376453
0.0068999343 -8.0674625e-05 -0.0027547171
0.0056842901 -0.00010190478 -0.0027518873
0.0070665381 7.9259276e-05 -0.0022466991
0.0070665376 7.9259262e-05 -0.0027518868
0.0071268771 -0.0010105557 -0.00064354524
0.00065229571 -5.9444454e-05 0.0020325473
0.005688847 -0.00010599058 0.001709025
0.0044560786 -0.00011121865 0.0017267502
0.0045364201 -0.00010031251 0.0017168043
-0.004239921 -0.0010402768 -0.00073113228
-0.0047460496 -0.0010397556 -0.00073530304
0.0056891143 7.7881778e-05 0.00075789506
0.0070665376 7.9259276e-05 0.00075471681
0.0070566535 -5.9444454e-05 0.0012599056
0.0068935798 -7.4305572e-05 0.0012599056
0.0057097971 8.8534289e-05 -0.0035586706
0.0045364201 -8.9166679e-05 -0.0035839621
0.0044178213 8.5600004e-05 -0.003557811
0.0070529478 9.2881957e-05 -0.00355796
0.0056842915 -0.00010190478 -0.0032570749
-0.0062561086 -0.0010379907 -0.00071741693
0.0031732705 8.7680572e-05 -0.0032555875
-0.00064357457 -0.00011539216 -0.0032570749
-0.00042102725 -0.000107 -0.0035245284
-0.0018679373 -0.00011888891 -0.0032570763
-0.00042102736 -0.00010700001 -0.0032570758
-0.0045364201 0.00011888891 -0.0017415097
-0.0044059614 9.1148155e-05 -0.0017415105
-0.00440596 9.1148169e-05 -0.0022466993
-0.0052395454 0.00074220501 -0.00071192975
-0.0062561026 0.00074305426 -0.00070141489
-0.0069479374 -8.3662562e-05 -0.0017415091
-0.0075293113 -0.00072382338 -0.00072588801
0.00074124493 0.0010105548 -0.00025566039
0.001241651 0.0010105557 -0.00073530304
0.0012452926 0.0010105552 -0.00025566039
0.00023719849 0.0010105552 -0.00025566033
0.00065229536 8.9166671e-05 -0.0027518878
-0.00065383746 7.9373807e-05 -0.0022468704
-0.0006550746 7.802085e-05 -0.0017442963
-0.00044474707 2.9722218e-05 -0.0035245284
0.00041933294 0.00010190478 -0.0035245284
-0.0029946303 2.7284841e-12 -0.0022863206
-0.0029946303 3.6379788e-12 -0.0035245284
-0.0029946303 2.7284841e-12 -0.0032570753
-0.0020576972 7.1333343e-05 -0.0032570753
-0.002253386 0.0010105557 -0.00073113205
-0.0017493377 0.0010105555 -0.00073113223
-0.0017338682 0.0010105553 -0.00029183755
-0.0012452921 0.0010105557 -0.00073113199
-0.0024115175 0.0006786575 -0.001028302
-0.0035382099 -0.00063407415 -0.001028302
-0.0031760177 -0.0001140809 -0.0017384505
-0.0043936158 -0.00011282315 -0.001736052
-0.0031864811 7.6928118e-05 -0.0017446172
-0.0031913533 7.9259262e-05 0.0017117924
-0.0031725292 -4.5474735e-12 0.0020028302
-0.0020590145 6.274692e-05 0.0017155664
-0.0029946303 -4.5474735e-12 0.0016759433
-0.004405959 9.1148162e-05 0.0012599059
-0.0044059609 9.1148155e-05 0.00075471657
-0.0031735348 -0.00011183618 0.0012568833
-0.0031720761 -0.00011162851 0.00075562415
-0.00023339727 -0.0010390069 -0.00074129197
-0.00014824903 -0.0010105557 -0.0010283019
-0.00042032971 -0.00010839871 0.0016969201
0.00067127123 -0.00010462224 0.0017139806
-0.0006458495 -0.00011630436 0.0017362376
0.0031864815 -8.741831e-05 -0.0035594897
0.0052480157 -0.001040277 -0.00031509425
0.0052480143 -0.0010402774 -0.00067169813
0.0004447471 -5.944445e-05 -0.0035245284
-0.0070521608 -0.00010087544 0.0012626074
-0.0069479374 -7.9259262e-05 0.00075471704
-0.0057007615 -0.00012313495 0.00076037692
-0.0045472016 -9.1868693e-05 0.0012761148
-0.0043903389 -0.00010873986 0.0012642549
-0.0029946303 -0.00011888891 0.0016759433
-0.0020576974 7.133335e-05 0.00075471692
-0.0020632776 -0.00010490197 0.001270394
-0.0029946303 0 0.0012400943
-0.00023719863 -0.0010402761 -0.00025566039
0.00023719855 -0.0010402764 -0.00025566044
-0.00041933308 -0.00011039684 0.0012683963
-0.00064357469 -0.00011539216 0.00075471646
0.0069039576 -7.87639e-05 0.00076957548
0.0062561049 -0.00076088746 -0.00033292436
-0.0027541895 -0.0010398122 -0.00073484681
-0.003264599 -0.0010397558 -0.00073530304
-0.0027709857 -0.00074900012 -0.0010283018
-0.0056917407 -9.0191585e-05 -0.0035880604
-0.0056963642 -0.00011444446 -0.0027524424
-0.0045423498 -8.6194457e-05 -0.0027726884
-0.0045525925 -8.1060614e-05 -0.0032516718
-0.0031755711 -0.00010364674 -0.0035793898
-0.00059629057 0.00071333343 -0.0010283019
-0.0018603673 -0.00012141846 -0.0017377151
-0.0020620092 -0.00010447812 -0.0022403947
-0.0018679374 -0.0001188889 0.00075471681
0.0044622952 -0.00010402779 -0.0032570753
0.0020616495 -9.9074088e-05 -0.0032451889
0.0031705173 8.7655375e-05 -0.0027522221
0.0020656043 6.935186e-05 -0.0027518864
0.0044011073 7.78182e-05 -0.0027410802
0.0020671857 7.1333343e-05 -0.0022466977
0.0031761667 8.8984343e-05 -0.0022421412
0.0043914635 7.5956792e-05 -0.0022466981
0.0023423345 0.0010105557 -0.0010283019
0.0018679379 8.9166686e-05 0.00075471657
0.001749338 0.0010105548 -0.00025566039
0.0022533855 0.0010105552 -0.00025566027
-0.0070521608 3.6026941e-05 0.0007439109
0.0067550717 0.0010394274 -0.00026160374
0.0068846885 8.3222243e-05 -0.0017415094
0.0062561026 0.00074305426 -0.00073113211
0.0070524174 -6.7936518e-05 -0.0027547167
0.007213675 -0.00072421622 -0.00066814065
0.00474397 -0.001040277 -0.00031509442
0.0045364201 -9.9074081e-05 0.001279717
0.0019085992 -0.00011039684 0.0016895289
0.0031428793 2.9722225e-05 0.0020325473
0.0045364201 5.944445e-05 0.0017056606
0.0044161947 8.6316613e-05 0.0017089172
0.002070141 7.5036442e-05 0.00074789661
0.006891109 -7.1828712e-05 0.001680896
-0.005752062 -0.0010402763 -0.00025566044
0.0056868326 -0.00010389857 0.0012653325
0.0070512625 -7.0252536e-05 0.00074931385
0.0069242171 5.5481491e-05 -0.0035483018
0.0047227903 0.00055198424 -0.001028302
0.0031821814 -0.00010437339 -0.0022356403
0.0020606613 -0.00010402779 -0.0022466979
0.0032614782 -0.0010402774 -0.00067169825
0.0027453292 -0.00066844677 -0.0010283021
0.0031461737 -0.00062746921 -0.0010283019
0.0018640698 8.7874403e-05 -0.0017395718
0.0018218149 0.00069748156 -0.001028302
0.0020707054 7.5743737e-05 -0.0017376754
0.0042636404 0.0010164997 -0.00073113205
0.00042498077 8.9166686e-05 -0.00174151
0.00042498071 8.9166686e-05 -0.0022466977
-0.00041684162 -0.00011539217 -0.0017403445
-0.00065044197 -0.00011814586 -0.0017396531
-0.00044474707 2.9722232e-05 -0.0032570749
-0.0057107452 -0.0001179144 -0.0017439459
-0.0062554004 -0.00074217474 -0.00073253881
-0.0070533585 -9.2469149e-05 -0.002225786
0.00074034667 0.0010105554 -0.00074193819
0.0010377432 0.0010105557 -0.0010283019
0.0018679372 8.9166679e-05 -0.0022466979
0.0011591662 0.00073314825 -0.0010283018
-0.00074124499 0.0010105555 -0.00073113205
-0.00074124499 0.0010105548 -0.00025566039
-0.0012452925 0.0010105552 -0.00025566033
-0.00023719849 0.0010105552 -0.00025566033
-0.0012808715 0.00074543344 -0.0010283021
-0.00044474707 2.9722225e-05 -0.0022466979
-0.0020576974 7.1333343e-05 -0.0027518868
-0.0020606613 5.20139e-05 -0.0035468163
-0.0020656029 -8.9166657e-05 -0.0035443399
-0.0018975866 7.3162402e-05 0.0016942305
-0.0018938808 7.8020843e-05 0.0012599059
-0.0027353659 0.0006552714 -0.001028302
-0.0029946303 6.3664629e-12 -0.0027518864
-0.0029946296 -0.00011888891 -0.0017415097
-0.0045364201 -9.4411778e-05 -0.0022344615
-0.0043881694 -0.00010700001 -0.0027518868
-0.0042636408 0.0010164998 -0.00031509442
-0.0045957197 -0.00053500006 -0.0010283019
-0.0045364201 -0.00011413334 -0.0017296225
-0.0043892679 -0.00010788067 -0.0022441305
-0.003169952 -0.00011216909 -0.0022443719
-0.0031837753 -0.00011376438 0.0017292289
-0.0037358759 0.0010105557 -0.0003150944
-0.0045504924 9.7730706e-05 0.00075673161
-0.0047439705 0.0010402771 -0.00031509431
0.0044609481 -9.7272736e-05 -0.0035785595
0.0027574324 -0.0010402774 -0.00067169807
0.00066450436 -9.6160147e-05 -0.0035892054
0.00021743192 -0.0010105557 -0.001028302
-0.0070517114 -9.9074088e-05 0.0007596697
-0.0020632776 -0.00010490197 0.0017388734
-0.0020606618 -0.00010402779 0.00075471704
0.0068955622 8.4708343e-05 0.0007562032
-0.0022551292 -0.0010385287 -0.0007451165
-0.0057479064 -0.0010388882 -0.00072280032
-0.0045364201 -5.9444454e-05 -0.0035839621
-0.004394101 -0.00010620741 -0.0032511316
0.0017493377 0.0010105555 -0.00073113205
0.0027574317 0.0010105555 -0.00073113205
0.0032614784 0.0010105557 -0.00073113211
0.0027574319 0.0010105548 -0.00025566044
0.004413866 8.3222236e-05 -0.0032610381
0.0045548235 -9.0191577e-05 -0.0027662325
0.004539541 -9.6988326e-05 -0.0022388778
0.0020606618 -0.00010402779 -0.0027518864
0.0020671855 7.1333343e-05 -0.0032570763
0.0018679372 8.9166679e-05 -0.0032570744
0.00065073458 8.822808e-05 -0.0032551973
0.0004447471 -5.9444446e-05 0.00075471704
0.0004447471 -5.9444454e-05 0.0012599059
-0.00042102739 -0.00010700002 0.00075471704
0.00065229548 8.9166686e-05 0.00075471739
0.0032614775 -0.0010402773 -0.00031509419
0.0031784584 -0.00010105556 0.00075471704
0.0027574322 -0.0010402768 -0.00031509431
0.0068846894 8.3222236e-05 -0.0022466988
0.0070665376 7.9259269e-05 -0.0017415095
0.0070546768 -6.3407409e-05 -0.0032154713
0.0045364201 5.9444465e-05 0.0012599059
0.0044573531 -0.00011228396 0.0012929247
0.004239921 -0.001040277 -0.00031509425
0.0044604419 -9.4739597e-05 0.0007584315
0.0020557197 -0.0001040278 0.0016858493
0.0020671855 7.1333343e-05 0.0017425093
0.001869458 9.2977221e-05 0.0017308058
-0.0052480143 -0.0010402759 -0.00025566044
0.0020606613 -0.00010402779 0.0012599056
0.0020606618 -0.0001040278 0.00075471704
0.0052480162 0.001040276 -0.00025566044
0.0056842896 -0.00010190478 0.00075471704
-0.004239921 -0.0010402759 -0.00025566044
-0.0037367996 0.00074226153 -0.00073218823
0.0020606618 -0.00010402779 -0.0017415094
0.0044178208 0.00059444451 -0.0010283019
0.0006522949 8.9166679e-05 -0.0022466995
-0.0069281729 7.529631e-05 -0.0017692454
-0.0056954008 -0.00010898149 -0.0022400944
-0.00023667832 0.0010105557 -0.0007353028
-0.00042015954 -0.00010873985 -0.0022416243
0.0004447471 -5.944445e-05 -0.0022466981
-0.0004447471 2.9722221e-05 -0.0027518864
-0.00065653073 7.6428572e-05 -0.0032570753
-0.0018978324 7.5165291e-05 -0.0032479893
-0.0018938817 7.8020843e-05 -0.0027518882
-0.0019182527 7.0252536e-05 -0.0035713543
-0.00044474707 2.9722236e-05 0.0017353775
-0.0027574315 0.0010105555 -0.00073113211
-0.0045463033 0.0001040278 0.0012599059
0.0047439695 -0.0010402775 -0.00067169813
0.0020606613 -5.9444446e-05 -0.0035691038
0.0019069493 -0.00010793861 -0.0032289219
0.001902577 -0.00011241475 -0.0027512978
-0.0018669487 -0.00012087038 0.0017333961
-0.0018938811 7.802085e-05 0.00075471704
-0.0031661757 -0.00011251985 -0.0032570739
-0.0029946298 -0.00011888891 -0.0032570758
-0.0020606613 -0.00010402779 -0.0032570758
-0.0029946298 -0.00011888891 -0.0022466981
-0.0029946303 -0.00010402779 -0.0035393867
0.0045430087 6.1646097e-05 -0.0022698112
0.0056952457 8.6384804e-05 -0.0017368252
0.0026334417 0.00082141423 -0.001028302
0.0031751341 8.851345e-05 -0.0017424894
0.003227876 0.00066775933 -0.0010283017
0.0037655253 0.0007430556 -0.0010283019
0.0037358757 0.0010105557 -0.00073113205
0.0045525925 -8.1060622e-05 -0.0032408661
0.00066399184 -0.00010470949 -0.0022447899
0.00066293287 -0.000106637 -0.0017406028
0.00062264589 -0.0010105557 -0.0010283019
0.0004447471 -5.9444446e-05 0.0016759435
0.00066923798 -0.00010615082 0.0012599056
0.00074124429 -0.0010402758 -0.00025566044
0.0019056727 -0.00011348486 0.0012599052
0.00042290008 9.3859671e-05 0.00075993035
0.0037358764 -0.0010402772 -0.00031509431
0.0068985219 -7.9259269e-05 -0.0022533017
0.0070654238 8.0375597e-05 -0.0032541463
0.0044136811 8.2945757e-05 0.0012612877
0.0044146967 8.4473693e-05 0.00075596792
0.0031705182 8.7655382e-05 0.00075438106
0.0042636408 0.0010164991 -0.00025566033
0.0018679375 8.9166679e-05 0.0012599059
0.0020656041 6.9351867e-05 0.0012599061
0.001905673 -0.00011348486 0.00075471681
0.0045364201 5.9444457e-05 0.00075471704
0.0045364201 -8.9166686e-05 0.00075471704
-0.0031428793 -5.9444454e-05 0.0020028302
-0.0045530237 -8.084446e-05 0.00075709436
0.0031837162 -0.00010879456 -0.0017342209
0.0037358762 -0.0010402775 -0.00067169825
0.0022533853 -0.0010402774 -0.00067169813
-0.00042102742 -0.00010700001 -0.0027518868
-0.00065374136 7.4668031e-05 0.0017310273
0.00066923798 -0.0001061508 -0.0032570739
0.0018640697 8.7874403e-05 -0.0027512414
0.0024372141 -0.0006836112 -0.001028302
0.001717335 -0.00073597895 -0.0010283021
0.00023619347 -0.0010387658 -0.00074322044
-0.0018650207 -0.00011986341 0.0012628286
-0.0029946296 -0.00011888891 -0.0027518864
-0.0031720768 -0.00011162851 -0.002752794
0.0056892447 -0.00010579098 -0.0022376317
0.0045364201 -0.00010855074 -0.0017208367
0.0022549466 0.0010105557 -0.0007353028
0.00066923781 -0.00010615081 0.00075471669
-0.0004447471 2.9722225e-05 0.00075471704
0.00042339944 9.2733346e-05 0.0012622828
0.0022533848 -0.0010402772 -0.00031509442
0.0019079298 -0.00011335919 -0.0022466979
0.0013765981 -0.00075013237 -0.0010283018
0.0019035167 -0.00011235001 -0.0017379428
0.0031814245 -0.00010105556 0.0012717928
0.00065073458 8.822808e-05 0.0012580293
0.0044214674 -0.00011431626 -0.0022380117
0.0042399219 -0.0010402774 -0.00067169819
-0.00064584956 -0.00011630436 0.0012624894
0.0004447471 -5.9444454e-05 -0.0027518868
0.00066923775 -0.00010615081 -0.0027518868
0.0012452918 -0.0010105557 -0.0010283019
-0.0020606618 -0.00010402779 -0.0027518868
0.005696997 8.5900494e-05 -0.0022437612
0.0045364201 5.944445e-05 -0.0017415094
-0.00065653073 7.642858e-05 0.00075471646
-0.00044474707 2.9722225e-05 0.0012599056
0.0017404882 -0.0010385022 -0.00029912696
0.0012389392 -0.001038154 -0.00073431613
0.0017323118 -0.0010370401 -0.00069700181
0.0012402092 -0.0010394271 -0.00026160374
0.0031694081 8.4473686e-05 0.0012583412
0.0031812496 -0.00010140525 0.0016969204
0.0037358755 0.0010105552 -0.00025566039
-0.0043881694 -0.00010700001 0.00075471692
0.0039434242 -0.00056472229 -0.0010283019
0.0004447471 -5.9444454e-05 -0.0032570753
0.0015714397 -0.0010105557 -0.0010283019
0.00073671777 -0.0010391423 -0.00074020616
0.0056982082 -0.00011282315 -0.0017330195
0.0043881722 7.642858e-05 -0.0017415092
-0.00065653073 7.6428572e-05 0.0012599056
0.0031733641 8.7910805e-05 0.0017211464
0.0044198628 -0.00012503834 -0.0017278459
