# .PCD v0.7 - Point Cloud Data file format
VERSION 0.7
FIELDS x y z
SIZE 4 4 4
TYPE F F F
COUNT 1 1 1
WIDTH 1188
HEIGHT 1
VIEWPOINT 0 0 0 1 0 0 0
POINTS 1188
DATA ascii
0.0088764485 0.00047599999 -0.0035891305
0.0090797255 0.00074800005 -0.0032467393
-0.0063693593 0.00074800005 -0.0032467393
-0.0051540663 0.00074361288 -0.0032489481
-0.0063693593 0.00074799993 -0.0035891302
-0.01020259 0.0007285715 -0.0027673913
-0.0090797255 0.00074799999 -0.0027673913
-0.010202589 0.00072857144 -0.0022880435
-0.010202589 0.00072857138 -0.0032467393
-0.0027781245 -0.0016319997 -0.00023369567
-0.0023812496 -0.0007285715 0.00073478266
-0.003252439 -0.0016320002 -0.00023369567
-0.0037267539 -0.0016319999 -0.00023369567
-0.0037945127 -0.00074799993 0.0012728265
-0.0037945132 -0.00074799993 0.00072499982
-0.0048786583 -0.00068 0.001272826
0.0026290542 -0.00072080008 0.00072500005
0.0024393292 -0.00068 0.00072500005
0.0072502284 -0.0016319999 -0.00023369573
0.0077923024 -0.0016319999 -0.00023369567
0.0076643131 -0.00070266676 0.00071739138
0.0013551828 -0.00073288888 -0.0036195654
0.0024393292 -0.00047599999 -0.0035891305
0.0042688269 -0.0016319999 -0.00078152161
0.0038961507 -0.0011219999 -0.0011239131
0.005095487 -0.00072080008 -0.0022880435
0.005095487 -0.00072080002 -0.0017402174
0.0038216168 -0.00072986662 -0.0017402173
0.0026651931 -0.0011786666 -0.0011239131
0.003252439 -0.001632 -0.00078152173
0.0051158154 -0.00071400002 -0.0035891305
0.0063016005 -0.00047599999 -0.0035891305
0.0038216158 0.00047599999 -0.0036439132
0.0038114518 -0.00073099998 -0.0035891307
0.0024393292 -0.00068 -0.0035891305
0.0026426066 -0.00047599999 -0.0035891305
0.0038216168 -0.00072986662 -0.0022880435
0.0026290545 -0.00072080002 -0.0017402174
0.0050904057 -0.00073100009 -0.0027759511
0.0076341969 -0.00047599999 -0.0036347825
0.0074535059 0.00068000006 -0.0036576088
0.0074535059 0.00047599999 -0.0035891305
0.010773705 -0.001632 -0.00023369573
0.010193331 -0.00069478265 0.00072797737
0.011254176 -0.0016258183 -0.00076284597
0.011722334 -0.001632 -0.00023369573
0.0037267539 -0.0016319999 -0.00078152161
0.00635242 -0.00069700001 -0.0028016304
-0.0012366042 -0.00073099992 -0.0022880435
-0.0012366041 -0.00073099992 -0.0017402173
9.6798773e-05 -0.00073828566 -0.0017402173
-0.00013551828 -0.00074799993 -0.0033836958
-0.0012366042 -0.00073099998 -0.0027673913
-0.0012366042 -0.00073100004 -0.0032467393
0.00013164636 -0.00074411416 -0.0032526089
0.0013511968 -0.00073999987 -0.0032588236
0.0012874235 -0.0016319999 -0.00078152155
0.0013551828 -0.001564 -0.0011239131
0.0027781245 -0.0016319999 -0.00078152161
0.0013551828 -0.000612 0.0020945652
-0.0088267596 -0.00072080002 0.0012819564
-0.0090797255 -0.00074800005 0.001272826
-0.0090797255 -0.00074800005 -0.0017402173
-0.0090797255 -0.00074800005 -0.0022880435
-0.010163872 -0.00074799993 -0.0022880435
-0.0023885099 -0.000765 -0.0036233698
-0.0012874238 -0.00047599999 -0.0035891305
-0.00013551828 0.00047599999 -0.0036576088
-0.0012874237 0.00047599999 -0.0036347827
-0.010163873 -0.00074799993 -0.0017402174
-0.020306895 -0.00067476928 -0.0032572744
-0.013900303 -0.00072857138 -0.0036086959
-0.015207089 -0.00072857144 -0.0036282612
-0.016397713 0.00070266664 -0.0036804348
-0.017810974 0.00067028578 -0.0036478264
-0.017769834 -0.00068 -0.0036404894
-0.018972561 0.00068 -0.0036576088
-0.014093905 0.00074800005 0.001272826
-0.020327745 0.00070914271 -0.0017402173
-0.020327745 0.00070914283 -0.0022880435
-0.019153254 0.00065733335 -0.0022880435
-0.021411892 0.00068 -0.0032467393
-0.02141189 0.00068 -0.0027673913
-0.020327743 0.00070914289 -0.0027673913
0.012761302 -0.00070266676 0.00072499993
0.013755106 -0.0016319999 -0.00023369567
0.01422942 -0.001632 -0.00023369573
0.014093905 -0.00074800005 0.001272826
0.014703734 -0.0016319999 -0.00023369573
-0.020734297 -0.001632 -0.00023369573
0.011383536 -0.00088399998 -0.0029043478
0.011722333 -0.0016319999 -0.00078152167
0.017278582 -0.001632 -0.00071304361
0.01577433 -0.0016319999 -0.00076782599
0.014093902 -0.00047599999 -0.0035891305
0.015225879 -0.00070000003 -0.0027593351
0.012761302 -0.00070266664 -0.0022880435
0.011519054 -0.00068000006 -0.0017402173
0.012761305 -0.00070266676 -0.0017402173
0.011519054 -0.00068 -0.0022880435
0.011519054 -0.00070914289 -0.0027869565
0.01020083 -0.00068618188 -0.0022880435
0.013929343 -0.00070914289 -0.0017695652
0.013924503 -0.00071400002 -0.0027673913
0.0076567833 0.00047599999 -0.0035891305
0.011519055 -0.0010879999 -0.0011239131
0.02214654 0.00074800005 -0.00028054923
0.022157237 0.00027199995 -0.00071304356
0.022089481 0.001564 -0.00037065221
0.021411892 0.00068000006 -0.0017402173
0.021411892 0.00068 -0.0022880435
0.020319276 0.00071399991 -0.0022794837
0.020315425 0.00071090902 -0.0017422924
0.022143686 -0.00027199998 -0.00068565237
0.019108079 -0.00047599999 -0.0035891305
0.019108079 0.00047599999 -0.0035891305
-0.020327747 0.00070914289 -0.0032467393
-0.016733998 0.0016244443 -0.00074347825
-0.017268157 0.0016267692 -0.0007341138
-0.016600987 0.00074800005 -0.0017402173
-0.016600987 0.00074800005 -0.0022880435
-0.0098928353 -0.00088399998 -0.0011923914
-0.016262194 -0.0016320002 -0.00023369573
-0.015792722 -0.0016271428 -0.00075217389
-0.016736509 -0.0016319997 -0.00023369573
-0.016397713 -0.00074800005 0.00072500005
-0.021411892 0.00068 -0.0017402173
-0.021411892 0.00068000006 -0.0022880435
-0.021615164 0.00068000006 -0.0017402173
0.0089025088 -0.00072707696 -0.0027673913
0.0076664644 -0.00070914289 -0.0027771739
0.0090797255 -0.00071777776 -0.0032847829
0.0090797255 -0.00064600003 -0.0027673913
0.010206667 -0.00071221055 -0.0027745995
0.0090797255 -0.00065733335 -0.0022652175
0.013890623 0.00074800005 -0.0032467393
0.022089481 0.0015640002 -0.00071304356
0.02141189 0.00068 -0.0027673913
0.020331981 0.00072249991 -0.0032424594
0.021411892 0.00068 -0.0032467393
0.016600987 0.00074800005 -0.0032467393
0.020300638 0.00066640007 -0.0035891305
0.01916229 0.00072080008 -0.003246739
-0.01625542 0.0016252 -0.00074043486
-0.01524581 0.00071400002 -0.0027673913
-0.01524581 0.00071400002 -0.0022880435
-0.013939022 0.00072857144 0.001272826
-0.013755105 0.0016319999 -0.00023369567
-0.015313567 0.00074799993 0.0020260869
-0.014093903 0.00042160001 0.0017247826
-0.014093902 -0.00047599999 0.0020260869
-0.012761302 0.00070266664 -0.0017402173
-0.011577134 0.00074800005 -0.0017304348
-0.013933742 0.00072327274 -0.0027673913
-0.02141189 0.00068000006 0.0017521738
-0.019108079 -0.00047599999 0.0020260869
-0.019108079 0.00068 0.0020260869
0.019167371 0.00073100004 0.0017436137
0.019108079 0.00068 0.0020260869
-0.011586814 0.00074800005 0.0012728258
-0.002385122 -0.00077520002 0.0020260869
-0.0023715699 -0.00074800005 0.0017521738
-0.0037893006 -0.00074276922 0.0017469064
-0.0026290542 -0.00072080008 0.0012728258
-0.01394483 0.0007344 0.001738478
0.015313567 0.00047599999 0.0020260869
0.014093902 0.00047599999 0.0017521738
0.013958381 -0.00072857144 0.0017130433
0.014093904 -0.00074799999 0.0017521738
0.019153254 -0.00065733335 0.00072500005
0.018927388 -0.00071173336 0.0012591302
0.019108079 0.00047599999 0.0020260869
0.02141189 -0.00069360004 0.0017247826
0.017798068 0.00065733335 0.0020260869
-0.0051169833 -0.00074331026 0.00071791594
-0.0051278365 -0.00074361288 0.001283871
-0.0048786583 -0.00068 0.00072500005
-0.00027103658 -0.001632 -0.00023369567
5.4207325e-05 -0.0011288 -0.0011239131
-0.0047431397 -0.0016320002 -0.00023369567
-0.0051188949 -0.00074800011 0.0017334979
-0.0062954398 -0.00073563645 0.0012852764
-0.011329328 -0.00074800005 0.0017247822
-0.017752897 0.00070914283 -0.0017402173
-0.017752897 0.001632 -0.00071304361
0.020327747 -0.00068000006 -0.0022880435
0.02141189 -0.00070266676 -0.0023108695
0.02141189 -0.00068 -0.0027673913
-0.018918352 -0.00072080002 0.0017521735
-0.01776601 -0.00072606443 0.001279453
-0.01891835 -0.00072080002 0.0012728258
-0.017771376 -0.00072327274 0.0017397234
-0.018227208 -0.001632 -0.00023369573
-0.018918354 -0.00072080002 0.00072500005
-0.017752895 -0.00070914289 0.00072499982
-0.018972561 0.00068 0.0020260869
-0.017798068 0.00065733335 0.0020260869
-0.018972561 0.00070914283 0.0017326085
-0.017752895 0.00070040004 0.001745326
-0.0076277438 -0.00070914283 0.0020652174
-0.0065048779 -0.00047599999 0.0020260869
-0.0074535059 -0.00068 0.0020260869
-0.007589024 0.00047599999 0.0020260869
-0.0088256281 -0.00047599999 0.0017350542
-0.0076567847 -0.00074800005 0.0017521738
-0.016397713 -0.000612 0.0020260869
-0.016578404 0.00065733335 0.0020260869
-0.016533231 -0.00068 0.0020260869
-0.0012874233 -0.001632 -0.00023369573
-0.0017617379 -0.001632 -0.00078152173
0.0037267539 -0.001632 -0.00023369573
0.0047431402 -0.001632 -0.00078152167
0.0052264878 -0.001632 -0.00076782599
0.0072502294 -0.0016319999 -0.00078152167
0.0067081549 -0.0016319999 -0.00078152167
-0.012707919 -0.00073563645 0.0017397234
-0.012467682 -0.00074799993 0.0017521738
-0.012726395 -0.00073563633 0.0012749012
-0.012467682 -0.00072080002 0.0013139129
0.021615168 0.00047599999 0.0017521738
0.020327745 -0.00068000006 -0.0017402173
0.021411892 -0.00068971427 -0.0017499999
0.021655818 0.00066640007 -0.0022880435
0.021615164 -0.00068000006 -0.0017402173
0.021615164 -0.00068000006 -0.0022880435
0.0022360515 -0.0016319999 -0.00078152161
0.0027781243 -0.0016319999 -0.00023369573
0.0024393292 -0.00068000006 -0.0022880435
0.0022360517 -0.0016319999 -0.00023369573
0.0013467126 -0.00073099992 0.0012899458
-0.021411892 0.00068 0.00072500005
0.021615166 0.00047599996 0.001272826
0.021615166 0.00047599996 0.00072500005
0.021637755 -0.00043066664 0.00024565216
0.022089481 -0.00074799999 -0.00071304344
0.021637751 -0.00043066664 0.00072500005
0.021705514 -0.0016093333 -0.00037065218
-0.0026426066 -0.00047599999 -0.0035891305
-0.0026426066 0.00047599999 -0.0035891305
-0.0024393292 0.00047599999 -0.0035891305
0.0012467683 -0.00047599999 0.0020808694
-0.0037945118 -0.00047599999 0.0020260869
-0.0037557925 -0.00072857138 0.0020260869
-0.0025748475 -0.00047599999 0.0020260869
-0.0050683841 -0.00072080002 0.0020260869
-0.0050819358 -0.00047599999 0.0020260869
-0.0063016005 -0.00047599999 0.0020260869
-0.010146933 -0.00047599999 0.0017350542
-0.011519055 -0.00088399998 0.0020260869
-0.011519055 0.00074799993 0.0020260869
0.010163871 0.00074799993 -0.0032467393
0.016262196 0.0016222859 -0.00075217406
0.016262194 0.001632 -0.00023369567
0.015787881 0.001632 -0.00071304356
0.016728377 0.00162928 -0.0007240001
0.017752897 0.0016320002 -0.00071304361
0.017278582 0.001632 -0.00071304356
-0.0027781245 -0.0016319999 -0.00078152161
-0.003252439 -0.001632 -0.00078152173
-0.0036589939 -0.001564 -0.0011239131
0.0038253127 -0.00072945468 0.001752174
0.0040655485 -0.00047599999 0.0017521738
0.0038396847 -0.00065733335 0.0020260869
0.0051045222 -0.00070266664 0.0020260869
-0.00013551828 -0.00068 0.0012043478
0.0038163711 -0.00073045155 0.00073162676
0.0051117484 -0.00074256002 0.0012919996
0.005095487 -0.00072080002 0.00072500005
0.0011519054 0.00047599999 -0.0035891305
-0.011722332 0.0016319997 -0.00023369573
0.0065048779 -0.00047599999 -0.0035891305
0.0065048779 -0.00068 -0.0035891305
0.0090797255 0.00074799999 -0.0027673913
0.0088086911 0.00074799993 -0.0032467393
0.0088086892 0.00074799999 -0.0027673913
0.0051496951 -0.001156 -0.0011239131
0.0040655485 -0.00047599999 -0.0035891305
0.0048786583 0.00047599999 -0.0035891305
0.0026290542 -0.00072080002 -0.0022880435
0.0026341365 -0.00073100004 -0.0027759511
0.0024393292 -0.00070914294 -0.0027869565
0.0026396601 -0.00074208697 -0.0032556711
0.0038216168 -0.00072986668 -0.0032513044
0.0088900002 -0.00072080008 -0.0017402174
0.0076607703 -0.00069200009 -0.0017361892
0.0082666157 -0.001632 -0.00078152167
0.0063485103 -0.00071661541 -0.0032730771
0.0063693593 -0.00074799993 0.0020260869
0.007589024 -0.00068 0.0020260869
0.0076703364 -0.00072080002 0.0017521735
0.0076674828 -0.00071221055 0.00127643
0.0063403202 -0.00070914294 0.0012826086
0.0063380864 -0.00069569238 0.00074080273
0.00011857851 -0.00073099998 -0.0022880435
0.0013358229 -0.00070914283 -0.0017402173
0.00011857851 -0.00073099998 -0.0027673913
0.015268394 0.00070266664 0.0020260869
0.015245809 0.00071400002 0.001752174
0.016397713 0.000612 0.0020260869
-0.0090797255 -0.00074800005 0.00072500005
-0.011329329 -0.00072080002 -0.0017402174
-0.010773704 -0.0016319999 -0.00078152161
-0.0037945132 -0.00074799999 -0.0027673913
-0.0026290549 -0.00072080002 -0.0027673913
-0.0037945132 -0.00074799987 -0.0022880435
-0.0048786583 -0.0007026667 -0.0032543479
-0.0051022628 -0.00074800005 -0.0027673913
-0.0048786583 -0.00068 -0.0022880435
-0.0050819363 0.00070266664 -0.0036119567
-0.0038622711 0.00074799993 -0.0035891307
-0.011383534 0.00074800005 -0.0032467393
-0.011383535 0.00074799999 -0.0027673913
-0.010190976 0.00066640007 -0.0036439132
-0.011519055 -0.00077519997 -0.0036439132
-0.012467682 -0.00074799993 -0.0035891302
-0.011383536 -0.00047599999 -0.0035891305
-0.019717911 -0.001632 -0.00071304361
-0.02030064 -0.00067320006 -0.0027605435
-0.019108081 -0.00074800005 -0.0032467393
-0.019108081 -0.00074800005 -0.0022880435
-0.017820654 0.00047599999 -0.0035891305
-0.018023932 0.000612 -0.0034521739
-0.017752895 0.00070914283 -0.0032467393
-0.016533231 0.00047599999 -0.0035891305
-0.016571952 0.00070914289 -0.0036282612
-0.014093905 0.00074800005 -0.0017402173
-0.015245809 0.00071400002 -0.0017402173
-0.015787879 0.0016274664 -0.00076782604
-0.016397713 0.00068 -0.0017402173
0.013935796 -0.00070266676 0.00072500005
0.014229418 -0.0016320002 -0.00078152173
0.014696726 -0.0016249655 -0.00076026976
0.01524581 -0.0016319999 -0.00023369573
0.015234515 -0.00071400002 0.0012671193
0.015234515 -0.00069699995 0.00072499993
0.015223222 -0.00072533335 0.0017521738
-0.02029036 -0.00067765516 0.0012799101
-0.020301931 -0.00068323815 0.001752174
-0.020290358 -0.00067765516 0.00072736118
0.01776332 -0.00069569232 0.001272826
0.017752897 -0.00068000006 0.00072499993
0.016729498 -0.0016249655 -0.00076026982
0.016533231 -0.001156 -0.0011239131
0.014093902 -0.00074799993 -0.0035891302
0.013890624 0.00047599999 -0.0035891305
0.016375126 -0.00072533335 -0.0032353261
0.012761304 -0.0007026667 -0.0027673913
0.011383536 -0.000612 -0.0022880435
0.012467682 0.00073563639 -0.0032654151
0.011519055 0.00074800005 -0.0032467393
0.012467682 0.00073099998 -0.0027845108
0.010204025 -0.00072281488 0.0012753622
0.0089442069 -0.00102 -0.0011239131
0.0087409299 -0.0016319999 -0.00078152161
0.0097514242 -0.0016290435 -0.00077258988
0.019153252 -0.00065733335 -0.0022880435
0.01916616 0.0007285715 -0.0017304348
0.019717908 0.001632 -0.00071304361
0.021655822 0.00066640007 0.00072500005
0.021208614 0.0016320002 -0.00071304356
0.016594829 -0.00073563639 0.00073122536
0.019153252 -0.00065733335 -0.0035891302
-0.019153252 0.00065733335 -0.0017402173
-0.017707722 -0.00047599999 -0.0036347825
-0.0077923015 -0.0016319999 -0.00078152161
-0.0072502284 -0.0016319999 -0.00023369567
-0.0072502275 -0.0016319999 -0.00078152161
-0.0076432312 -0.0011288 -0.0011239131
-0.0067081549 -0.0016319999 -0.00078152167
-0.0092830053 -0.001632 -0.00023369567
-0.008740929 -0.0016319999 -0.00078152161
-0.0092830025 -0.0016319999 -0.00078152161
-0.0088280495 -0.00070914289 -0.0022880435
-0.013755105 -0.0016319999 -0.00078152161
-0.013213033 -0.0016319999 -0.00078152167
-0.013213034 -0.001632 -0.00023369573
-0.01422942 -0.001632 -0.00023369573
-0.014229421 -0.001632 -0.00078152167
-0.014703735 -0.0016319999 -0.00078152161
-0.012264405 -0.0016319999 -0.00078152161
-0.012264407 -0.0016319999 -0.00023369573
-0.011722334 -0.001632 -0.00023369573
-0.012721778 -0.00073100004 -0.0027673913
-0.012467682 -0.00068 -0.0023565218
-0.012721778 -0.00073099992 -0.0022880435
-0.01267096 -0.00081599999 0.0020260869
-0.013890623 -0.00074800011 0.0012728258
0.02171859 0.0016141053 -0.00069862715
0.020327745 0.00071966671 -0.0027559781
0.01658744 0.00066640007 -0.0036165218
0.016387289 0.0007375385 -0.0032520068
0.016397713 0.00074799999 -0.0027673913
0.015223224 0.00072533329 -0.0032619566
0.015245809 0.00071400002 -0.0027673913
-0.016397713 0.00073563639 -0.0022942687
-0.016600989 0.00074800005 -0.0027673913
-0.016397713 0.00073099998 -0.0027502717
-0.018227212 0.0016320002 -0.00071304356
-0.018227212 0.001224 -0.00078152143
-0.018769283 0.0016417142 -0.00026304353
-0.019243598 0.001632 -0.00023369567
-0.018972561 0.00073563639 0.0012666006
-0.018023932 0.000612 0.0017521738
-0.018972561 0.00073563639 0.00073122536
-0.01524581 0.00071399997 -0.0032467393
-0.015178048 -0.00047599999 -0.0035891302
-0.012761305 0.00070266664 0.0012728258
-0.014093905 0.00074800005 0.00072500005
-0.019717908 0.001632 -0.00071304361
-0.020259986 0.001632 -0.00071304356
-0.020257272 0.00163472 -0.00029121744
-0.01422942 0.001632 -0.00023369573
-0.013213033 0.0016319999 -0.00023369573
-0.013890624 -0.00047599999 -0.0035891305
-0.011383534 0.00074800005 -0.0022880435
-0.014093905 -0.00073563639 0.00073122536
-0.015228387 -0.0007207999 0.0012786959
-0.014093905 -0.00073563639 0.0012790514
-0.020335715 0.00070000003 0.0017199486
-0.020327747 0.00070914283 0.0012728258
-0.02028257 -0.00065733335 0.0020260869
-0.019108079 -0.00068 0.0020260869
-0.0025748475 -0.00074799993 0.0020260869
-0.0026290545 -0.00072080008 0.0017521735
0.01524581 0.00071400002 0.001272826
0.014093902 -0.00047599999 0.001752174
0.014093904 0.00074799999 0.0017521738
0.018930862 0.00072707696 0.0017311033
0.018972561 0.00068 0.0020260869
0.01891448 -0.00068971427 0.00072500005
0.018046519 -0.00065733335 0.00022282609
0.018972561 0.00047599999 0.0020260869
-0.0042688269 -0.001632 -0.00023369567
-0.0057595274 -0.0016319999 -0.00023369573
-0.0077923015 -0.0016319999 -0.00023369578
-0.0076567838 -0.00074800005 0.00072499993
-0.0067081535 -0.0016319999 -0.00023369567
-0.0074535054 -0.0007026667 0.0012956522
-0.0065048779 -0.00068000006 0.00072500005
-0.0065048779 -0.00068 0.001272826
-0.0074535054 -0.00068 -0.0017402173
-0.0076567838 -0.00074800005 -0.0017402173
-0.017752897 0.00070914294 -0.0027673913
-0.019108079 -0.00074799999 0.0017521738
-0.018769285 -0.0016319999 -0.00023369573
-0.018761151 -0.00162928 -0.00072400004
-0.019717908 -0.0016319999 -0.00023369573
-0.019243596 -0.001632 -0.00023369567
-0.017752895 -0.001632 -0.00023369573
-0.01727858 -0.0016319997 -0.00023369573
-0.0063151522 -0.00072080002 0.0020260869
-0.007589024 -0.00047599999 0.0020260869
-0.0090797255 -0.00047599999 0.0016836957
-0.0076567847 -0.00074800005 0.0012728258
-0.0088195316 -0.00073712005 0.0017576525
-0.014093902 -0.000612 0.0020260869
-0.01391321 -0.00074799993 0.0020260869
-0.015223221 -0.00065733335 0.0020260869
-0.014093904 -0.00073099998 0.0017350542
-0.017798068 -0.00065733335 0.0020260869
-0.016397713 -0.00074799999 0.0017521738
-0.011338363 -0.00047599999 0.0016608695
-0.0023851215 -0.00072080002 -0.0022880435
-0.0023800395 -0.00073100009 -0.0027673913
0.0057595274 -0.001632 -0.00078152161
0.0051004146 -0.00073563639 -0.0032405138
0.0077923019 -0.0016319997 -0.00078152161
0.0063693593 -0.0010879999 -0.0011239131
-0.010163872 -0.00074799999 0.0007249997
0.018918356 0.00072080002 0.00072500005
0.017791616 0.00072857138 0.00072499982
0.021615164 -0.00068000006 -0.0027673913
0.019153254 -0.00065733335 -0.0017402173
0.019717909 -0.001632 -0.00071304356
0.020259984 -0.001632 -0.00071304361
0.0013424777 -0.00073099998 0.00072927971
0.017752895 -0.00068000006 -0.0017402173
-0.020327745 0.00070914283 0.00072499982
-0.019153254 0.00065733335 0.001272826
0.02165582 0.00066640007 0.0012728258
0.022150462 0.00030599994 -0.00032271745
0.021700997 -0.0016002667 -0.00068565219
0.021750689 -0.0012239999 -0.00071304332
0.021199774 -0.0016290435 -0.00070708903
0.02141189 -0.00070266664 -0.0032467393
0.020734301 -0.0016320001 -0.00071304361
-0.002613567 -0.00070914289 -0.0036282612
-0.0023715701 -0.00047599999 -0.0035891305
-0.0037674084 -0.0007344 -0.0036302176
-0.0038283914 -0.00047599999 -0.0036233696
-0.0048786583 -0.00068 -0.0035891305
-0.0050819358 -0.00047599999 -0.0036576088
-0.0074535054 -0.00068000006 -0.0022880435
-0.0065048779 -0.00068000006 -0.0022880435
-0.0074535054 -0.00070914289 -0.0027673913
-0.0065048779 -0.00068000006 -0.0027673913
-0.0065048779 -0.00068 -0.0017402173
-0.0063693593 -0.001564 -0.0011239131
-0.0062880488 -0.00072080008 -0.0022880435
-0.0062919203 -0.0007285715 -0.0017434782
-0.0051109754 -0.00074799999 -0.0017402173
-0.0063016005 -0.00047599999 -0.0036576088
-0.0076341964 0.00068000006 -0.0036347827
-0.0065048779 0.00074799993 -0.0035891302
-0.0050819358 0.00047599999 -0.0035891305
0.017752897 0.001632 -0.00023369573
0.017791616 0.00072857144 0.001272826
0.020259986 0.0016319999 -0.00071304356
0.019717911 0.0016417142 -0.00026304356
0.017820654 0.001156 -0.0011239131
0.017791616 0.00072857144 -0.0017402173
0.018927388 0.00072533335 -0.0017478261
-0.0090797255 0.00074800005 -0.0032467393
-0.0090797255 0.00074799993 -0.0035891302
-0.0065048779 0.00074800005 -0.0022880435
-0.0065048779 0.00074800005 -0.0017402173
-0.0076703355 0.00072080002 -0.0017402174
-0.0076703364 0.00072080002 -0.0022880435
-0.0063693593 0.00074800005 -0.0022880435
-0.0063693593 0.00074800005 -0.0017402173
-0.010202592 0.00072857144 -0.0017402173
-0.011383534 0.00074800005 -0.0017402173
-0.0088793943 0.00074208708 -0.0017431946
-0.011519055 0.00047599999 -0.0036576088
-0.0076703364 0.00072080008 -0.0027673913
-0.0065048779 0.00074799999 -0.0027673913
-0.0076703364 0.00072080002 -0.003246739
-0.0065048779 0.00074800005 -0.0032467393
-0.0063693593 0.00074799999 -0.0027673913
-0.0012366041 -0.00073099998 0.00072499982
-0.0023777296 -0.00073563645 0.0012852764
-0.0037267539 -0.0016319997 -0.00078152161
-0.0024393292 -0.001224 -0.0011239131
0.012467682 0.00047599999 0.001752174
0.0050904057 -0.00073950004 0.001735054
-0.00013551828 -0.000612 0.001752174
0.0065048779 0.00068 -0.0035891305
0.0074535054 0.00068000006 -0.0032467393
-0.011383536 0.00074800005 0.0016836955
-0.011383534 0.00074800005 0.0012728262
0.012467682 0.00074799999 0.0017521738
0.01272178 0.0007423333 0.0017464675
0.0012092402 0.00074800005 -0.0036312712
0.0048786583 0.000612 0.0020260869
0.0065048779 0.00047599999 -0.0035891305
0.0065048779 -0.00068000006 -0.0022880435
0.0038332324 -0.0007285715 -0.0027673913
0.0026290552 -0.00072080002 -0.0035891305
0.0090797255 -0.00063920004 -0.0017265218
0.0065048775 -0.00072080002 -0.0032741304
0.0065048779 -0.00070914289 -0.0027869565
0.0065048775 -0.00072080002 0.0013002174
0.0062338416 -0.0016320002 -0.00023369573
0.0042688274 -0.0016319999 -0.00023369573
0.0057595274 -0.0016319997 -0.00023369573
0.0052174539 -0.0016319999 -0.00023369573
0.0089442069 -0.00081599999 0.0020260869
0.003252439 -0.001632 -0.00023369573
0.0063693593 -0.00068 -0.0017402173
-0.0026290542 -0.00072080002 -0.0017402174
0.001335823 -0.00070914289 -0.0027673913
0.017278582 0.0016319999 -0.00023369573
0.016600987 0.00074800005 0.0012728258
0.016598042 0.00074800005 0.00072797737
-0.0048786583 -0.00069360004 0.0017247826
-0.0088273818 -0.00071517238 0.0007320838
-0.0088280495 -0.00070914283 -0.0017402173
-0.0076567829 -0.00074800005 -0.0022880435
-0.0076567847 -0.00074800005 -0.0027673913
-0.0048786583 -0.00068000006 -0.0027673913
-0.0090797255 -0.00074799999 -0.0027673913
-0.0098928353 -0.00088399998 -0.003246739
-0.019108081 -0.00074800005 -0.0017402173
-0.018918354 -0.00072080008 -0.0022880435
-0.018918354 -0.00072080002 -0.0017402174
-0.019108079 -0.00074799999 -0.0027673913
-0.018229719 -0.0016244444 -0.00074347819
-0.017278584 -0.0016222857 -0.00075217389
-0.017752897 -0.0016222859 -0.000752174
-0.016397713 0.00074800005 -0.0032467393
-0.01524581 0.00071399997 0.00072499982
-0.016397713 0.00068000006 0.0016836955
0.013929343 -0.00070914289 0.0012826088
0.014093905 -0.00074800005 0.00072500005
0.013762116 -0.0016249653 -0.00076026982
0.014093905 -0.00074800005 -0.0017402173
0.015254845 -0.0016274665 -0.00076782604
0.013755107 0.0016319999 -0.00023369573
0.014229421 0.001632 -0.00023369567
0.013890623 0.00074800005 0.00072499993
0.013890624 0.00074800005 0.0017521738
0.016397713 0.00074800005 -0.0022880435
0.016598042 0.00074800005 -0.0022910207
0.015245809 0.00071399997 -0.0017402173
0.016397713 0.00074800005 -0.0017402173
0.013958383 -0.00047599999 -0.0035891305
0.014093905 0.00074800005 -0.0032467393
0.014093902 0.00068 -0.0035891305
0.016591307 -0.0007285715 -0.0022913043
0.01635254 -0.00065733335 -0.0017402173
0.016587436 -0.00072080002 -0.0017402174
0.014093902 -0.001156 -0.0011239131
0.011383536 -0.000612 -0.0017630435
0.0092830025 -0.0016319999 -0.00078152161
0.0092830034 -0.0016319997 -0.00023369573
0.0082666157 -0.0016320002 -0.00023369567
0.010202591 -0.0007285715 0.001752174
0.0090797255 -0.00074799999 0.0017521738
0.0090797255 -0.00073563639 0.0012790514
0.0090797255 -0.00068000006 0.00072500005
0.0097573167 -0.0016320002 -0.00023369573
0.0088990349 -0.00072533335 -0.0022652175
0.018935598 -0.00066145457 -0.0022818183
0.01916229 0.00072080008 -0.0022880435
0.019243598 0.0016320002 -0.00071304361
0.016594827 -0.00073563639 0.001272826
0.016370609 -0.00066640007 0.00072500005
0.021637751 -0.00043066661 -0.0017402173
0.021615166 0.00047599996 -0.0017402173
0.02165582 0.00066640007 -0.0017402174
-0.019153254 0.00065733335 -0.0027673913
-0.010231628 -0.0016319999 -0.00078152161
-0.010773704 -0.001632 -0.00023369578
-0.014703736 -0.0016319999 -0.00023369573
-0.013755106 -0.0016319999 -0.00023369573
-0.012738717 -0.001632 -0.00023369573
-0.011248016 -0.001632 -0.00078152173
-0.011248018 -0.001632 -0.00023369573
-0.011558913 -0.00073200004 -0.0017442454
-0.011552934 -0.00074800005 -0.0027673913
-0.013890624 -0.00074800005 0.0017521738
-0.016533231 -0.00047599999 -0.0035891305
-0.016587436 -0.00072080002 0.00072500005
0.021615166 0.00068000006 -0.003657609
0.017791618 0.00072857132 -0.0032467393
0.017791616 0.0007285715 -0.0027673913
0.016600989 0.00074800005 -0.0027673913
0.016598042 0.00074799999 -0.00173724
-0.017752893 0.00070914271 0.001272826
-0.018227208 0.0016222857 -0.00026304356
-0.018769281 0.001632 -0.00071304361
-0.015245808 0.0016319999 -0.00078152161
-0.021208614 0.001632 -0.00071304356
-0.017752897 0.00070914283 -0.0022880435
-0.018023932 0.000612 0.0014782608
-0.017752897 0.00070914283 0.00072499982
-0.012738719 0.000612 0.0020260869
-0.011573261 0.00074800005 0.0017247822
-0.019707484 0.0016267692 -0.00028110374
-0.019243598 0.0016320001 -0.00071304361
-0.014703737 0.001632 -0.00023369567
-0.012738719 0.001632 -0.00023369567
-0.013931278 0.00072080002 0.00072043482
-0.014093902 -0.00068 -0.0035891305
-0.015205152 -0.00073439995 -0.003246739
-0.015223225 -0.00071777776 -0.0027673913
-0.016384162 -0.0007344 -0.0027673913
-0.012711613 -0.0007344 -0.0032330437
-0.013890624 -0.00074800005 -0.0027673913
-0.0048786583 -0.00068000006 -0.0017402173
-0.0051045213 -0.00074800005 -0.0022855073
-0.0052174544 -0.0016319999 -0.00023369573
-0.0062919203 -0.0007285715 0.00073478266
-0.019108081 -0.00074800005 0.0012728262
-0.019108079 -0.00074799999 -0.0035891305
-0.019108079 0.00068000006 -0.0036576088
-0.020293863 -0.00068 -0.0036404894
-0.0090797255 -0.00074799999 0.0017521738
-0.018972561 -0.00068 0.0020260869
-0.016587436 -0.00072080002 0.001272826
-0.011556013 -0.0007727273 0.0017148219
0.0062338412 -0.001632 -0.00078152167
0.021615164 -0.00068000006 -0.0032467393
0.019243596 -0.0016320001 -0.00071304361
0.00012319845 -0.00073563628 0.00073122513
-0.019141957 0.00066300004 0.0017350542
-0.019153254 0.00065733335 0.00072500005
-0.0051169838 -0.00074799999 -0.0032585459
-0.0048786583 -0.00047599999 -0.0035891305
-0.011383534 0.00074800005 0.00072500005
-0.011573263 -0.00074800005 0.0012865216
-0.0063016005 0.00047599999 -0.0035891305
-0.0076567829 0.00047599999 -0.0035891305
0.017791618 0.00072857138 -0.0022880435
-0.0090797255 0.00074800005 -0.0022880435
-0.0088826083 0.00073563645 -0.0022880435
-0.0101187 -0.00074800005 -0.0036461959
-0.0088425679 -0.00075933337 -0.0036347827
-0.0063151522 -0.00070720009 -0.0036576088
-0.0076454906 -0.00073666667 -0.0036690219
-0.0012366041 -0.00073099992 0.0012728262
-0.0026290542 -0.00072080002 0.00072500005
-0.0042688274 -0.0016319999 -0.00078152161
0.0013358229 -0.00070914283 -0.0022880435
-0.0090797255 0.00074800005 0.001272826
-0.010197752 0.00072250003 0.0017093746
-0.0088861277 0.0007285715 0.001269565
-0.010163872 0.00047599999 0.001752174
0.0062859626 0.00074799999 -0.003262542
0.020734299 0.0016320002 -0.00071304361
0.018769285 0.001632 -0.00071304361
0.020259986 0.0016417141 -0.00026304353
0.019243596 0.0016417144 -0.0002630435
0.015787881 0.0016319999 -0.00023369567
-0.0026200206 0.00070266664 -0.0036119567
0 0.00069360004 -0.0036713041
-0.007589024 0.00068 0.0020260869
-0.0038622711 0.00047599999 0.0020260869
0.0012003049 0.00072857144 0.0020847826
0.0024393292 -0.00068000006 -0.0017402173
0.0063241869 0.00047599999 -0.0036347825
0.010163872 0.00074799999 -0.0027673913
0.01016387 0.00074799993 -0.0022880435
0.011318723 0.00075391307 -0.0022850663
0.011319762 0.00075600005 -0.0027754474
0.0065048779 -0.00068 -0.0017402173
0.0076643135 -0.0007026667 -0.0022804348
0.003794512 -0.00047599999 -0.0035891302
0.0024393292 -0.00073563645 -0.0032654151
0.01019467 -0.00068618188 -0.0017526679
0.0076674833 -0.0007122106 -0.0032503435
0.0065048779 -0.00074799999 0.0017521738
0.006708154 -0.0016319999 -0.00023369573
0.0063693593 -0.00074799999 0.0017521738
0.0047431402 -0.0016320002 -0.00023369573
-0.0026290542 -0.00072080002 -0.0022880435
0.017781425 0.00071936846 0.0017377574
-0.0088271694 -0.00071709097 -0.0027673913
-0.0088210106 -0.00073563628 -0.0032529645
-0.0088849179 0.00073100004 -0.0027588315
-0.019236464 -0.0016284212 -0.00072746014
-0.019706609 -0.001224 -0.00076782581
-0.018918356 -0.00072080002 -0.0027673913
-0.017759053 -0.00071709097 -0.0027736167
-0.018918354 -0.00072080002 -0.0035891305
-0.016600987 0.00074799993 -0.0032467393
-0.016397713 0.00068 0.0012043478
-0.016397713 0.00068000006 0.00072500005
0.012467682 0.00074800005 0.0012728262
0.016533231 0.00136 -0.0011239131
0.014093902 0.00047599999 -0.0035891305
0.016360752 -0.00066145457 -0.0022818183
0.016592519 -0.00073100004 -0.0027673913
0.012727873 0.00073711999 -0.002761913
0.012467682 0.00074800005 -0.0022880435
0.013206474 -0.0016298064 -0.00077489472
0.0087409299 -0.0016319997 -0.00023369573
0.0089442069 -0.00047599999 0.001752174
0.0089195669 -0.00073563639 0.0017521735
0.018918354 0.00072080002 -0.0022880435
0.016397713 0.00074800005 0.00072500005
0.016361574 -0.0007026667 0.0012773913
0.021637751 -0.00043066661 -0.0022880435
-0.019135186 0.00066640007 -0.003246739
-0.018972561 0.00074799999 -0.0027673913
-0.019108079 0.00047599999 -0.0035891305
-0.018972561 0.00074800005 -0.0017402173
-0.0097573157 -0.001632 -0.00078152184
-0.010231632 -0.0016319999 -0.00023369573
-0.015216772 -0.00072857138 0.0017619568
-0.013890621 -0.00074800011 0.00072499993
-0.011573262 -0.00073440012 0.00072500005
-0.011325456 -0.0007285715 0.00073478266
-0.01273872 -0.001632 -0.00078152173
-0.011722332 -0.0016319999 -0.00078152167
-0.011321937 -0.00073563645 0.0012852764
-0.010202591 0.00072857138 0.001272826
-0.017752895 -0.00070914294 -0.0017402173
-0.016573088 -0.00071600004 -0.0017442454
-0.019721609 0.0012054545 -0.00074790488
-0.02028257 -0.00067244447 -0.001747826
0.015245807 0.0016320001 -0.0011239131
0.014093905 0.00074800005 -0.0017402173
0.015245809 0.0016319997 -0.00078152167
0.021615164 0.00068000006 -0.0032467393
0.018927388 0.0007253334 -0.0032239133
-0.016600987 0.00074800005 0.0012728258
-0.020734303 0.0016320002 -0.00071304361
-0.016600987 0.00074800005 0.00072499993
-0.013958383 0.00074799999 0.0020260869
-0.011383536 0.00040799999 0.0016836955
-0.012467682 -0.00047599999 0.001752174
-0.018972561 0.00074800005 -0.0022880435
-0.01524581 0.001632 -0.00023369567
-0.0051379097 0.00075982616 -0.0027673913
-0.010773703 0.0016319999 -0.00023369573
-0.012754662 0.00070800004 0.0017441174
-0.012726398 -0.00073563633 0.00073122513
-0.011329328 -0.00072080002 -0.0022880435
-0.014093903 -0.00068000006 -0.0027673913
-0.014093904 -0.00068 -0.0022880435
-0.012467682 -0.00074799999 -0.0032695653
-0.013890624 -0.00074800005 -0.0032467393
-0.013947957 0.0007375385 -0.00175602
-0.01523965 -0.00071503024 -0.0022901185
-0.01523965 -0.00071503018 0.00072707492
0.014093905 0.00074800005 0.0012728262
0.014703735 0.001632 -0.00023369573
-0.019108081 -0.00074800005 0.00072500005
-0.01657493 -0.00071661541 -0.0027779264
-0.016578402 -0.00071777788 -0.0032619566
-0.016728979 -0.0016244444 -0.00074347819
-0.016397713 -0.00074800005 -0.0017402173
-0.016370611 -0.00072080002 -0.0032421739
-0.016571952 -0.00070914289 -0.0036282612
-0.01776601 -0.00072606449 -0.0032401124
-0.016574927 -0.00072707696 0.0017311033
0.0063693593 -0.00068000006 -0.0022880435
0.018935598 -0.00067381823 -0.0017215415
0.00012754665 -0.00073999993 0.0012808824
-0.0050819363 -0.00071399997 -0.0036233698
-0.0038622711 0.00047599999 -0.0035891305
-0.0037945127 -0.00074799993 -0.0032467393
-0.0023745156 -0.00074208697 -0.0032556711
-0.0062931306 -0.00073100004 -0.0027673913
-0.0062986542 -0.00074208697 -0.0032556711
-0.0065048779 -0.00068 -0.0032467393
-0.0065048779 -0.00047599999 -0.0035891305
0.0090797255 0.00074800005 -0.0022880435
-0.0074535054 -0.00068000006 0.00072500005
-0.0090797255 0.00074800005 -0.0017402173
-0.011383536 -0.00072080002 -0.0036439132
-0.010163872 0.00047599999 -0.0035891305
-0.0089442069 0.00047599999 -0.0035891305
-0.0089171035 0.00072080002 -0.0036439132
-0.0074535059 -0.00068000006 -0.0036576088
-0.0076567829 -0.00047599999 -0.0035891305
-0.0074535059 -0.00072080002 -0.003246739
-0.0076567847 -0.00074800005 -0.0032467393
-0.0090797255 -0.00074799993 -0.0035891302
0.019108079 0.00102 -0.0011239131
0.01524581 0.0016319999 -0.00023369573
0.011325456 0.0007674286 -0.0032369564
0.011383536 0.00068 0.0020260869
0.0026426066 0.00047599999 -0.0035891305
-0.0024393292 0.00074799993 -0.0035891302
-0.0050141765 0.00047599999 0.0020260869
-0.0076567838 0.00071400002 0.0017179344
-0.0065048779 0.00074799999 0.0017521738
-0.0027103657 0.00047599999 0.0020260869
-0.0013551828 0.000612 0.0020945652
-0.0038622711 0.000612 0.0020260869
-0.0026426066 0.000612 0.0020260869
0.016736507 0.0016319999 -0.00023369573
0.0065048779 -0.00068 0.00072500005
-0.0023851215 -0.00072080002 -0.0017402174
-0.0037945122 -0.00074799993 -0.0017402174
-0.0088900011 0.00072080002 -0.003246739
-0.020259984 -0.00047599999 -0.0035891305
0.012730742 0.00073999993 0.0012728262
0.013009756 0.000612 0.00079347822
0.012726397 0.00073563628 0.00072707492
0.012467682 0.00074800005 0.00072500005
0.013009756 0.000612 0.0017521738
0.014093904 0.00074799999 -0.0027673913
0.016352542 -0.00065733335 -0.0027673913
0.015225188 -0.00070069567 -0.0022969753
0.015223223 -0.00070266664 -0.0017402173
0.012730744 0.00073999993 -0.0022880435
0.0065048779 0.00068 -0.0032467393
0.0074535054 0.00068 -0.0027673913
0.0065048779 0.00068 -0.0027673913
0.0062976144 0.00074000005 -0.0027593351
0.011519054 0.00074799999 -0.0027673913
0.011519055 0.00074800005 -0.0022880435
0.0088990349 -0.00072533335 0.00070217403
0.008899034 -0.00072533335 0.0012804347
0.021615166 0.00047599996 -0.0022880435
-0.018972561 0.00074800005 -0.0032467393
-0.018972561 0.00047599999 -0.0035891305
-0.0097573167 -0.001632 -0.00023369567
-0.011564229 -0.00076311117 -0.0032619566
-0.011546159 -0.00074800005 -0.0022743479
-0.010202589 0.00072857138 0.00072499982
-0.016573086 -0.00071600004 -0.0023001279
0.011519055 0.00074800005 -0.0017402173
0.012467682 0.00072080002 -0.0017402174
0.013958383 0.001564 -0.0011239131
0.020734301 0.0016417145 -0.00026304356
-0.0062338412 0.001632 -0.00078152184
0.018918356 0.00072080002 -0.0027673913
-0.016600989 0.00074800005 0.0017521738
-0.020734301 0.0016320002 -0.0003021739
-0.016397713 -0.00074800005 0.001272826
-0.011564228 -0.00047599999 0.0016608695
-0.011519055 0.00042160001 0.0017247826
-0.016262196 0.0016320002 -0.00023369567
-0.0051496946 0.00074799993 -0.0017447826
-0.0038332324 0.00072857138 -0.0022880435
-0.0038332324 0.0007285715 -0.0027673913
-0.0026426062 0.00074800011 -0.0022880435
-0.0038216165 0.00072986662 -0.0017402173
-0.0050819358 0.00074799999 0.0020260869
-0.0038332324 0.0007285715 0.0017521738
-0.0051211645 0.00073368428 0.0017377574
-0.0038332324 0.00072857144 -0.0032467393
-0.012467682 -0.00068 0.00079347822
-0.011315777 -0.00074799993 -0.0032467393
-0.010163871 -0.00074799993 -0.0032467393
-0.014093905 -0.00074800005 -0.0032467393
-0.013890624 -0.00074800005 -0.0017402173
-0.013890625 -0.00074800005 -0.0022880435
-0.012721776 -0.00073099992 -0.0017402173
-0.014093904 -0.0007026667 -0.0017326087
0.015233852 0.00071999995 0.0007290279
0.016397713 0.00074800005 0.001272826
0.013009756 0.000612 0.0014782608
-0.016262194 -0.0016222857 -0.00075217389
-0.016397713 -0.00071399997 -0.0036233696
-0.00013551828 -0.00068 0.00065652165
-0.0026290542 -0.00072080002 -0.003246739
0.0037809603 0.00070719997 -0.0036302176
0.0076567847 0.00074800005 -0.0027673913
0.0076567847 0.00074800005 -0.0022880435
0.0074535054 0.00068000006 -0.0022880435
0.0065048779 0.00068000006 -0.0022880435
0.0088086911 0.00074799999 -0.0022880435
0.0088764476 0.0010879999 -0.0011239131
0.008808692 0.00074799987 -0.0017402174
-0.0065048779 -0.00065733335 -0.0036347825
-0.010096112 -0.00047599999 -0.0035891305
0.010254218 0.00047599996 0.0017217388
0.0065048779 0.00047599999 0.0020260869
0.0037945132 0.00074799999 -0.0027673913
0.0048786583 0.00068000006 -0.0032467393
0.0037945132 0.00074799993 -0.0032467393
0.0023715701 0.00047599999 -0.0035891305
0.0050926344 0.00074800005 -0.0027673913
0.0050722561 0.0007285715 -0.0036086959
-0.0013702405 0.00071777776 -0.0036043478
-0.0065048779 0.00074800005 0.0012728262
0.0037041667 0.00047599999 0.0020260869
0.0026087272 0.00074799999 0.0020260869
0.003794512 0.00071399997 0.0020260869
-0.0012874238 0.00047599999 0.0020260869
-0.0088764485 -0.00047599999 -0.0035891305
-0.0090797255 -0.00074800005 -0.0032467393
-0.018918354 -0.00072080002 -0.003246739
0.014093905 0.00074800005 -0.0022880435
0.013890625 0.00074800005 -0.0022880435
-0.018972561 -0.00047599999 -0.0035891305
-0.017757569 -0.00071517233 -0.0022951274
-0.0032524392 0.001632 -0.00078152173
0.01916229 0.00072080002 -0.0027673913
-0.016736509 0.0016319999 -0.00023369573
-0.015787879 0.0016319999 -0.00023369573
-0.0051406603 0.00075706659 -0.0022880435
-0.0097573167 0.001632 -0.00023369573
-0.00013551828 0.00072080002 0.0020808694
-0.0063693593 0.00074799999 0.0017521738
-0.010163872 -0.00074799999 -0.0027673913
-0.011324246 -0.00073100009 -0.0027673913
-0.015223224 -0.0007177777 -0.0017402174
0.013890623 0.00074800005 0.0012728258
0.013213032 0.0016319997 -0.00023369573
-0.00013551828 0.0016320001 -0.0011239131
0.00020327745 0.0016319999 -0.00078152155
-0.00027103658 0.001632 -0.00078152173
0.0076567843 0.00074799993 -0.0032467393
-0.0090797255 0.00074800005 0.00072500005
-0.0088793943 0.00074208697 0.00072202273
0.0063693593 0.00047599999 0.0020260869
0.0050141765 0.001564 -0.0011239131
0.0050900662 0.00074799999 -0.0022907825
0.0050819349 0.00074800011 -0.0017402173
0.0048786583 0.00068 -0.0022880435
0.0048786583 0.00068 -0.0017402173
0.0037945132 0.00074799993 -0.0017402174
0.0048786583 0.00068 -0.0027673913
0.0048786583 0.00074799999 -0.0035891305
-0.0026426062 0.00073563639 -0.0032280632
-0.0076703364 0.00072080002 0.001272826
-0.0082666157 0.001632 -0.00023369573
-0.0026426062 0.00074800005 -0.0017402173
0.0026426066 -0.00047599999 0.0020260869
0.0024393292 -0.00047599999 0.0020260869
0.0027781243 0.0016319999 -0.00023369573
0.0027781243 0.0016319999 -0.00078152161
0.0022360513 0.001632 -0.00023369573
0.0026290542 0.00072080002 0.0012728258
0.003252439 0.001632 -0.00023369567
0.0026426066 0.00047599999 0.0020260869
0.015245808 0.00071399997 -0.0022880435
0.013890626 0.00074800005 -0.0027673913
0.013890623 0.00074800005 -0.0017402173
0.012726395 0.00073563628 -0.0017381422
0.015313567 -0.001156 -0.0011239131
-0.0038961507 0.0011219999 -0.0011239131
-0.017278582 0.0016319999 -0.00023369573
-0.0022360515 0.0016319997 -0.00023369573
-0.0017617379 0.001632 -0.00023369567
-0.0024393292 0.00074800005 0.00072500005
-0.0024393292 0.00074800005 0.001272826
-0.0013409174 0.00074084208 0.00072860392
-0.0013478573 0.00074432424 0.001274677
0.0012874235 0.0016319999 -0.00078152155
0.0012874234 0.0016319999 -0.00023369573
0.00074535049 0.001632 -0.00023369573
-0.007250228 0.0016319999 -0.00023369573
-0.0067081545 0.0016319999 -0.00023369573
-0.011248018 0.001632 -0.00023369573
-0.010231631 0.0016319999 -0.00023369573
-0.0087409308 0.0016319999 -0.00023369573
-0.0063693593 0.00074799993 0.0020260869
-0.00013551828 0.00047599999 0.0020260869
-0.016370609 -0.00072080002 -0.0022926086
0.014093905 0.00074800005 0.00072500005
0.014703735 0.0016319999 -0.00078152155
0.01422942 0.001632 -0.00078152173
0.0090797255 0.00074800005 -0.0017402173
0.010163873 0.00074799999 -0.0017402174
0.011318723 0.00075391307 -0.0017312855
0.0023715701 0.00074799993 -0.0035891307
-0.00013551828 0.00074799993 -0.003657609
-0.0013478573 0.00074432429 -0.0032448885
0.0011809451 0.0011365714 -0.0011239132
0.000948628 0.000612 -0.0018086956
0.0012196642 0.00074799993 -0.0017402174
-0.010773703 0.0016319999 -0.00078152161
-0.00018069103 0.00074800005 -0.0017402174
-0.00013551828 0.00074800005 -0.0022880435
-0.0013409175 0.00074084202 -0.0022880435
-0.0012874237 0.0016319999 -0.00078152161
-0.0013551828 0.001156 -0.0011239131
0.0026290542 0.00072080002 0.00072500005
0.0037893008 0.00074276916 0.0017469067
0.0026290545 0.00072080002 0.0017521735
0.0062986542 0.00074208697 -0.0022910207
0.0076567847 0.00074800005 -0.0017402173
0.0072502289 0.0016319999 -0.00078152161
0.0077923019 0.0016319997 -0.00076782604
0.0012196641 0.00074799993 -0.0032467393
0.0023715694 0.00074799993 -0.0032467393
0.013755105 0.0016319999 -0.00078152161
0.0063354797 0.00064600003 0.002060326
0.010109665 0.00077519997 0.0020260869
0.0076277438 0.00070914289 0.0020652174
0.0037945127 0.00074799993 -0.0022880435
0.0050975713 0.00074276922 -0.0032309366
-0.0024393292 0.00074799999 -0.0027673913
-0.0024393292 0.00074800005 -0.0022880435
-0.0026426064 0.00074800005 -0.0027673913
0 0.00074800005 -0.0022880435
0 0.00074800005 -0.0017402173
-0.0038272245 0.00072924135 0.0012704646
-0.0051587289 0.00073893339 0.00072043459
-0.0038216165 0.00072986656 0.00072043459
-0.005162809 0.00073483872 0.0012706171
-0.0063693593 0.00074800005 0.001272826
-0.0057595279 0.0016319999 -0.00023369573
-0.0026651931 0.0011786666 -0.0011239131
-0.0026426062 0.00074800011 0.00072499993
-0.0032524392 0.001632 -0.00023369567
0 0.00074799999 0.0017521738
0 0.00071400002 0.002060326
-0.00013551828 0.00074799999 0.0017521738
0.0023715699 0.00074800005 0.0017521738
-0.017746737 0.0016258183 -0.0002523716
-0.0042688269 0.0016319999 -0.00023369573
-0.0047431397 0.001632 -0.00023369573
-0.0062338412 0.001632 -0.00023369567
0.00020327742 0.0016319999 -0.00023369573
-0.00027103652 0.001632 -0.00023369573
-0.00074535055 0.0016319999 -0.00023369573
-0.00018069106 0.00074800005 0.001272826
-0.0027781243 0.0016319999 -0.00023369573
-0.0013551826 0.00073230767 0.0017469067
0.00074535061 0.0016319999 -0.00078152161
0.0017617379 0.0016320002 -0.00078152184
0.0017617381 0.001632 -0.00023369573
-0.0065048779 0.00074800005 0.00072500005
-0.0092830025 0.0016319999 -0.00023369573
-0.0092830025 0.0016319999 -0.00078152149
4.5172768e-05 0.00047599999 0.0020717392
-0.00074535061 0.0016319999 -0.00078152167
-0.0022360515 0.0016319999 -0.00078152161
-0.0052174535 0.0016319999 -0.00078152161
-0.0047431402 0.001632 -0.00078152161
-0.0037267539 0.0016319999 -0.00078152167
-0.0072502284 0.0016319999 -0.00078152161
-0.0077923015 0.0016319999 -0.00078152155
-0.0087409299 0.001632 -0.00078152161
-0.0077923024 0.0016319999 -0.00023369573
-0.00016939784 0.00074800005 -0.0028016304
-0.011722333 0.0016319997 -0.00078152161
-0.01023163 0.0016319999 -0.00078152161
0 0.001156 -0.0011239131
0.007250228 0.001632 -0.00023369573
0.0077923024 0.0016319999 -0.00023369573
0.011519055 0.00081599999 0.0020260869
0.011519054 0.00074799999 0.0017521738
0.011329328 0.00077520014 0.0017521735
0.010773703 0.0016319999 -0.00023369573
0.010773704 0.0016319999 -0.00078152167
0.011248019 0.001632 -0.00023369573
0.011318723 0.00075391307 0.00071606808
0.01023163 0.0016319999 -0.00023369573
0.0090797255 0.00047599999 0.001752174
0.0050819358 0.00047599999 0.0020260869
0.0074535054 0.00068000006 0.001272826
0.0065048779 0.00068000006 0.001272826
0.0065048779 0.00068000006 0.00072500005
0.007589024 0.00047599999 0.0020260869
0.0088256281 0.00047599996 0.0017521738
0.0074535059 0.00068 0.0020260869
0.0012196642 0.00074799993 -0.0022880435
0.0023715692 0.00074800005 -0.0022880435
0.0026290542 0.00072080008 -0.003246739
0.0042688269 0.001632 -0.00078152161
0.0037267539 0.001632 -0.00023369573
0.0037267539 0.0016319999 -0.00078152155
0.0037945132 0.00074799987 0.0012728262
-0.0024393292 0.00074800005 -0.0017402173
0.0012196644 0.00074799993 0.0012728262
0.0012196644 0.00074799999 0.0017521742
0.000948628 0.000612 0.0013413043
0 0.00074800005 0.0012728262
0.000948628 0.000612 0.00079347822
0.0047431402 0.001632 -0.00078152173
0.0047431397 0.0016319999 -0.00023369567
0.0052174539 0.001632 -0.00078152155
0.0023715694 0.00074800005 0.0012728258
0.0023715692 0.00074800005 0.00072499993
0.0024054495 0.00074799999 0.0020260869
-0.0026426064 0.00074799993 0.0012728258
0.010136769 0.0011968 -0.001123913
0.0087409299 0.001632 -0.00078152155
0.0088595077 0.00074799999 0.0020432065
0.0087409317 0.001632 -0.00023369573
0.0092830034 0.001632 -0.00023369573
-0.0051496951 0.0010879999 -0.0011239131
-0.0037267539 0.0016319999 -0.00023369573
-0.0052174539 0.001632 -0.00023369567
-0.0012874234 0.0016319999 -0.00023369573
-0.00016262195 0.00074800005 0.00073869573
-0.0024393292 0.00074799999 0.0017521738
0.0012196645 0.00074799993 -0.0027673913
0.0022360515 0.0016319999 -0.00078152167
-0.0076703364 0.00072080002 0.00072500005
-0.0063693593 0.00074800005 0.00072500005
0.011519055 0.00074800005 0.0012728262
0.013213034 0.0016319999 -0.00078152161
0.011383536 0.0016320001 -0.0011239131
-0.0027781245 0.001632 -0.00078152149
-0.0017617381 0.001632 -0.00078152173
-0.0057595279 0.0016319999 -0.00078152161
-0.0042688269 0.0016319999 -0.00078152167
-0.0067081554 0.0016319999 -0.00078152161
-0.0082666157 0.0016319999 -0.00078152173
-0.00019359753 0.00074800005 -0.0032760869
-0.0013455028 0.00074314291 -0.0027673913
-0.011248019 0.0016320002 -0.00078152173
-0.0097573167 0.001632 -0.00078152167
0.0026290545 0.00072080002 -0.0017402174
0.0048786583 0.00068 0.0017521738
0.0076567833 0.00102 -0.0011239131
0.0074535054 0.00068 -0.0017402173
0.0065048779 0.00068 -0.0017402173
0.0063016 0.00074800005 -0.0017402173
0.012738719 0.0016319999 -0.00023369573
0.011329328 0.00077520008 0.001272826
0.010163873 0.00074799993 0.0007249997
0.01016387 0.00074799993 0.0012728262
0.0090797255 0.00074800005 0.00072500005
0.0098777777 0.00077822222 0.00023043476
0.010163872 0.00074799999 0.0017521742
0.0074535054 0.00068000006 0.00072500005
0.0074535054 0.00070914283 0.0017326085
0.0063016005 0.00074800005 0.00072499993
0.0063015991 0.00074799993 0.0012728258
0.0026290545 0.00072080008 -0.0027673913
0.0026019514 0.00069359998 -0.0036165218
0.0042688274 0.001632 -0.00023369573
-0.0013478573 0.00074432424 -0.0017420682
0.0037945127 0.00074799993 0.00072499982
0.0088086901 0.00074799999 0.00072499982
0.0088086911 0.00074799993 0.0012728262
0.0097573167 0.001632 -0.00078152173
0.0092830025 0.0016319999 -0.00078152161
0.0076567847 0.00074800005 0.0017521738
0.0082666157 0.0016320002 -0.00078152173
0 0.00074800005 0.00072500005
-0.0026386203 0.00074000005 0.0017441174
0.0023715699 0.00074800005 -0.0027673913
0.011722335 0.0016319999 -0.00023369578
0.01267096 0.0016320001 -0.0011239131
0.012264407 0.0016319999 -0.00078152167
-0.0024393292 0.00074800005 -0.0032280632
