# .PCD v0.7 - Point Cloud Data file format
VERSION 0.7
FIELDS x y z
SIZE 4 4 4
TYPE F F F
COUNT 1 1 1
WIDTH 1162
HEIGHT 1
VIEWPOINT 0 0 0 1 0 0 0
POINTS 1162
DATA ascii
-0.0042569861 -0.0022621951 -0.0082010925
-0.0067260354 -0.0017500004 -0.0082010934
-0.0062066824 -0.0026975595 -0.007774089
-0.0062066815 -0.0026975595 -0.0072616814
-0.0037461447 0.0012378049 -0.0082438001
-0.0042569828 0.0012378049 -0.0082437983
0.0012770947 0.00072560966 -0.008243802
-0.00025541929 -0.00025609741 -0.0082437992
0.0012770941 0.00021341452 -0.0082437992
-0.0072368765 0.00072560966 -0.0082010906
-0.0047597033 0.00021218092 -0.008236886
-0.005746929 0.00072560977 -0.0082010953
-0.0057469276 0.00021341455 -0.0082010916
-0.0052786563 0.00021341456 -0.0082010934
-0.0057469271 -0.00025609753 -0.0082010906
-0.0052786591 -0.00025609747 -0.0082010916
-0.0072368747 0.0012378049 -0.0082010888
-0.0075735627 0.0031895791 -0.0062407446
-0.0075735631 0.0031895787 -0.0057205721
-0.0070240223 0.0034999996 -0.006236861
-0.0075713508 0.0031829271 -0.0072616795
-0.0070240223 0.0034999996 -0.00674927
-0.0070240223 0.0035000001 -0.0052547446
-0.0070240223 0.0035000001 -0.0017532848
-0.0070240223 0.0034999996 -0.0027354015
-0.0075755813 0.0031956523 -0.0027354015
-0.0070240223 0.0034999996 -0.0022229929
-0.0075735627 0.0031895791 -0.0022229925
-0.0075774309 0.0027743899 -0.00077116792
-0.0075774319 0.0027743904 -0.0072616809
-0.0075774309 0.0017499998 -0.0062368638
-0.0075774309 0.0017500001 -0.0057244543
-0.0075774309 0.0022621951 -0.0057244534
-0.0075774309 0.001237805 -0.0042726281
-0.0075774323 0.001237805 -0.0037602196
-0.0075774319 0.00072560983 -0.0037602186
0.0062151956 0.001749999 -0.00025875913
0.0075774323 -0.0021341471 -0.00077116792
0.0057469257 0.0012378048 -0.00025875936
0.0072030732 0.0032426468 -0.00030899537
0.0071980031 0.0034999996 -0.00033487799
0.0067260331 0.0035000001 -0.00025875913
0.0072096097 0.0027719913 -0.00029426324
0.0075455038 0.0032118899 -0.00037618633
0.007574928 0.0027643475 -0.00038183783
0.0067260377 0.0022621949 -0.00025875913
0.0057469266 0.002774389 -0.00025875913
0.0052786609 0.0027743885 -0.00025875936
0.0017453637 0.0032439027 -0.00025875913
0.0022136311 0.0035000001 -0.00025875913
0.0017453631 0.0034999996 -0.00025875913
0.0022136306 0.0027743885 -0.00025875936
0.0017453623 0.002774389 -0.00025875913
0.0012600663 0.0017585355 0.0007617888
0.0022136313 0.0022621951 -0.00025875936
0.0038340697 -0.00075472973 0.0027067466
0.0040522418 -0.00072764221 0.0026672576
0.0039022351 -0.00068292685 0.0030291965
0.0062151961 -0.00025609747 -0.00025875936
0.0062151975 0.0002134145 -0.00025875913
0.0067260386 0.0002134145 -0.00025875913
0.0067260363 0.00072560983 -0.00025875913
0.0062151956 0.00072560972 -0.00025875913
0.0072348854 0.00072401419 -0.00026075472
0.006215198 -0.0012378047 -0.00025875913
0.0067221359 -0.0017427827 -0.00026804209
0.0067105545 -0.0025997781 -0.0012913404
0.0075774309 -0.00072560972 -0.00077116792
0.0075774319 0.00072560972 -0.0062368596
0.0072165118 -0.0021811598 -0.0081509696
0.0017453636 0.00072560983 -0.00025875936
0.0017453639 0.0012378048 -0.00025875913
0.0012770949 0.0014512195 4.0146057e-05
0.0012770944 0.00072560972 -0.00025875936
0.003824488 -0.00076685823 0.0012694965
0.0040583233 -0.00071849604 0.0017517339
0.0040588123 -0.00071825064 0.0012769951
0.0038291342 -0.00076053233 0.0017481749
0.0012770952 0.0034999996 -0.0017532848
0.0012770952 0.0035000001 -0.0012835767
0.0017453632 0.0034999996 -0.0017532848
0.0017453631 0.0034999996 -0.0012835767
-0.0047678244 0.0017499998 -0.00025875936
-0.0047678235 0.0022621953 -0.00025875913
-0.0052786586 0.0017499994 -0.00025875936
-0.00527866 0.001237805 -0.00025875913
-0.0047678244 0.001237805 -0.00025875936
-0.0075656576 -0.0017236638 -0.00032144738
-0.0057403818 -0.0027415566 -0.0067492709
-0.0051083798 -0.0030731708 -0.0067492705
-0.0075774333 -0.0012378051 -0.0017532848
-0.0075774319 -0.00072560972 -0.0012835772
-0.0047252513 -0.0031016269 -0.0042726276
-0.0075689186 -0.0022280486 -0.0042726276
-0.0075689191 -0.0022280491 -0.0037602189
-0.0075774323 -0.00072560972 -0.0057244566
-0.0075774333 -0.00072560983 -0.0052547459
-0.0075774328 -0.0012378049 -0.005254745
-0.0075774309 -0.0012378051 -0.0057244557
-0.0075774333 -0.0017499999 -0.0052547469
-0.0075774323 -0.0012378051 -0.0047850362
-0.0012896152 0.0017499995 0.00076605799
-0.00076625671 0.0027743885 -0.00025875913
-0.00097910617 0.0016219512 4.0146057e-05
-0.00025541926 0.0012378049 -0.00025875913
-0.00025541926 0.0017499996 -0.00025875913
-0.0012770939 0.0032439018 -0.00025875913
-0.00076625706 0.0032439004 -0.00025875913
-0.0012770948 0.0027743881 -0.00025875913
0.0012474584 0.0017543222 0.0017481744
0.00097910641 0.0017926828 0.0017481749
0.00097910641 0.0017926828 0.001278467
0.0012600671 0.0017585356 0.0012776121
0.00025541917 0.0017499997 -0.0002587589
-0.0075774319 0.00021341469 -0.0032478105
-0.0075774328 -0.0002560977 -0.0032478101
-0.0067260372 -0.0012378045 -0.00025875936
-0.0062151998 -0.0012378049 -0.00025875913
-0.0062152008 -0.00072560995 -0.00025875913
-0.003746147 0.00072560989 -0.00025875913
-0.0042569842 0.00072560983 -0.00025875913
-0.0040441342 0.0014512195 4.0146057e-05
-0.0042569805 0.00021341452 -0.00025875913
-0.0037461461 0.0002134145 -0.00025875936
-0.0062151938 0.0017499994 -0.00025875936
-0.00527866 0.00072560972 -0.00025875936
-0.0067260354 0.0032439013 -0.00030146004
-0.006726034 0.0034999996 -0.00030146004
-0.0062151994 0.0032439022 -0.00030146004
-0.0062151966 0.0034999996 -0.00030146004
-0.0047678212 0.0034999996 -0.00030146004
-0.0052786567 0.0022621953 -0.00025875936
-0.0052770656 0.0027723941 -0.00026075472
-0.0057469262 0.0022621953 -0.00025875936
-0.0027244689 0.0035000001 -0.00077116792
-0.0027223928 0.0032345322 -0.00027958886
-0.0075755818 0.0031956527 -0.0037602189
-0.0075774333 0.0027743904 -0.0042726295
-0.0075774323 0.0027743904 -0.0047850371
-0.0075713508 0.0031829271 -0.0042726272
-0.0075774319 0.0027743904 -0.0037602186
-0.0070240223 0.0034999996 -0.0057244524
-0.0067260345 0.0035000001 -0.0057244538
-0.0032353073 0.0035000001 -0.0012835767
-0.0047678221 0.00021341449 -0.0002587596
-0.00076625729 0.0035000001 -0.0022229925
-0.00076625717 0.0034999996 -0.0017532848
0.00025541897 0.0035000001 -0.00077116792
-0.00025541897 0.0035000001 -0.00077116792
0.00025541897 0.0035000001 -0.00025875913
0.00076625723 0.0035000001 -0.00025875913
0.00076625723 0.0035000001 -0.00077116792
-0.00025541897 0.0035000001 -0.0012835767
-0.00025541897 0.0035000001 -0.0027354015
0.00025541897 0.0035000001 -0.002735402
0.0075774319 0.0022621951 -0.0072616818
0.0075735631 0.0012300446 -0.0081894491
0.0075774319 0.0017499998 -0.0077740867
0.0047678212 0.0035000001 -0.006236861
0.0042569838 0.0035000001 -0.0062368619
0.0042569838 0.0035000001 -0.0057244529
0.0047678212 0.0035000001 -0.00674927
0.0042569833 0.0035000001 -0.0067492696
-0.00076625729 0.0035000001 -0.0077740871
-0.00025541897 0.0035000001 -0.0072616795
0.00076625706 0.002774389 -0.0082010925
0.0071091619 0.0035000001 -0.006236861
0.0075518889 0.0031756097 -0.006236861
0.006215197 0.0035000001 -0.0012835765
0.0067260345 0.0035000001 -0.0012835767
0.0062151956 0.0035000001 -0.002735402
0.006215197 0.0035000001 -0.0022229925
0.0062151966 0.0035000001 -0.0032478101
0.00076625636 0.0002134145 -0.0082437983
0.00025541935 -0.00025609747 -0.0082437927
0.00076625653 0.00072560989 -0.0082438001
0.00076847174 0.001233117 -0.008236886
0.00025541926 0.00072560983 -0.0082437964
0.00025889991 0.0012310938 -0.008221237
-0.00025396803 0.00072124449 -0.0082399137
0.0022107442 0.0032410086 -0.0081989225
0.0022024289 0.0035000001 -0.0081673842
0.0017408823 0.0035000001 -0.0081943534
0.0017453628 0.0032439027 -0.0082010925
0.0057469266 0.0032439013 -0.0082010925
0.0042516943 0.002254871 -0.0082326774
0.0062151942 0.0017500004 -0.0082010962
0.0057469248 0.0012378051 -0.0082010934
0.0027337233 0.0034999996 -0.008195526
0.002724468 0.0032439027 -0.0082010925
0.0027244689 0.0035000001 -0.0077740871
0.005746928 0.0035000001 -0.0082010943
0.0052786595 0.0034999996 -0.0082010953
0.0027244692 0.0035000001 -0.0072616786
0.0022136308 0.0035000001 -0.0072616786
0.0032353068 0.0035000001 -0.0077740871
0.0032353075 0.0035000001 -0.0072616776
0.0037573483 0.0035000001 -0.0081673842
0.0037461454 0.0035000001 -0.0077740881
-0.0022190139 0.0012324081 -0.0082379058
-0.0022220323 0.0017438225 -0.0082123326
-0.0067279483 0.0027716984 -0.0081630079
-0.005746928 0.0034999996 -0.0081583951
-0.006215197 0.0035000001 -0.0077740857
-0.0022136313 0.0035000001 -0.0077740871
-0.002724468 0.002774389 -0.0082010962
-0.0027244689 0.0035000001 -0.0067492705
-0.0052786595 0.0035000001 -0.0072616786
-0.0047678207 0.0035000001 -0.0077740871
-0.0070361858 0.0034999996 -0.0072921789
-0.0067260335 0.0034999996 -0.0052547441
-0.0062151952 0.0034999996 -0.005254745
-0.0062151961 0.0035000001 -0.0047850367
-0.00527866 0.0035000001 -0.0047850367
-0.0052786591 0.0035000001 -0.0032478101
-0.0047678212 0.0035000001 -0.0032478101
-0.0052786591 0.0035000001 -0.0037602182
-0.0062151966 0.0035000001 -0.0032478105
-0.0062151966 0.0035000001 -0.0042726276
-0.00527866 0.0035000001 -0.0042726276
-0.0067260345 0.0035000001 -0.0077740871
-0.005746928 0.0034999996 -0.005254745
-0.0052786595 0.0035000001 -0.0057244529
-0.00527866 0.0034999996 -0.005254745
-0.0062151966 0.0035000001 -0.0062368619
-0.0052786595 0.0035000001 -0.006236861
-0.0047678212 0.0035000001 -0.0057244529
-0.0047678244 0.0027725855 -0.0081992904
0.0072368751 -0.00025609753 -0.0082010953
0.0017424473 0.00021867683 -0.0082391193
0.0027244694 -0.00072560995 -0.0082010962
0.0042577079 0.00072826241 -0.0082409065
0.0037461442 0.0012378047 -0.0082438001
0.0042695682 0.00021851502 -0.0082212351
0.0021904791 -0.0031420635 -0.0081808688
0.0022136301 -0.002774389 -0.0082010943
0.0017406978 -0.0031901104 -0.0081899799
0.0027111657 -0.0031105187 -0.0081557268
0.0017453631 -0.0032012207 -0.0077740899
0.003188777 -0.0031605223 -0.007226923
0.0072368765 -0.00072560995 -0.0082010962
0.0067260358 -0.0012378047 -0.0082010925
0.0047600353 0.00072925363 -0.0082271313
0.0052786591 0.0012378049 -0.0082010934
0.0057469294 0.00021341458 -0.0082010916
0.0052786581 0.00021341456 -0.0082010943
0.0052786581 0.00072560989 -0.0082010897
0.0047678216 0.0035000001 -0.0047850367
0.0047678207 0.0034999996 -0.005254745
0.0052786595 0.0034999996 -0.005254745
0.0042569828 0.0035000001 -0.0047850367
0.0042569838 0.0034999996 -0.0052547455
0.0052786595 0.0035000001 -0.0072616786
0.0047678216 0.0035000001 -0.0072616776
0.00527866 0.0035000001 -0.0067492705
0.0057469285 0.0034999996 -0.0067492705
0.005746928 0.0034999996 -0.0072616786
-0.0012770952 0.0035000001 -0.0047850362
-0.00076625723 0.0035000001 -0.0047850367
-0.00076625712 0.0034999996 -0.005254745
0.0037461449 0.0035000001 -0.0057244524
0.0027244692 0.0035000001 -0.0057244534
0.0032353066 0.0035000001 -0.0047850367
-0.0012770952 0.0035000001 -0.0027354015
-0.00025541897 0.0035000001 -0.0032478101
-0.0072368723 -0.0012378047 -0.00025875913
-0.0072368793 -0.00072560983 -0.00025875936
-0.0067260405 -0.00072560983 -0.00025875936
-0.0072368747 -0.001749999 -0.00025875936
-0.0032279657 -0.0032380144 -0.0037602184
-0.0027244689 -0.0032439022 -0.0037602186
-0.0027244694 -0.0032439022 -0.0042726295
-0.0032279659 -0.0032380149 -0.0032478101
-0.0032279671 -0.0032380149 -0.0027354015
-0.0017362423 -0.0032713418 -0.0032478091
-0.0027244699 -0.0032439018 -0.0032478073
-0.0037306652 -0.0031895796 -0.002735402
0.0012654843 -0.0032671834 -0.0032478096
0.00076625694 -0.0032865852 -0.0037602177
0.0012654848 -0.0032671839 -0.0037602186
0.0022136311 -0.0032439027 -0.0032478077
0.0017453626 -0.0032439018 -0.0032478096
0.0012654846 -0.0032671834 -0.002735401
0.002213632 0.0032439013 -0.00025875936
0.0027244689 0.0035000001 -0.00025875913
0.0037461449 0.0035000001 -0.00077116792
0.0032353068 0.0035000001 -0.0037602191
0.0042569833 0.0035000001 -0.00025875913
0.006215197 0.0035000001 -0.00025875913
0.0057469285 0.0034999996 -0.00077116792
0.0032353073 0.0035000001 -0.003247811
0.0027244687 0.0035000001 -0.002735402
0.0022136311 0.0035000001 -0.0022229929
0.001745363 0.0034999996 -0.002735402
0.0022136313 0.0035000001 -0.0027354015
0.001745363 0.0034999996 -0.0022229929
0.0012770952 0.0035000001 -0.0027354015
0.00076625723 0.0035000001 -0.00674927
0.0012770952 0.0035000001 -0.00674927
0.0012770951 0.0035000001 -0.0072616786
0.00025541897 0.0035000001 -0.0072616786
0.00025541897 0.0035000001 -0.00674927
0.00076625723 0.0035000001 -0.0062368619
0.00527866 0.0035000001 -0.0057244529
0.0067260335 0.0035000001 -0.0067492705
0.0057469276 0.0034999996 -0.0047850371
0.0027244692 0.0035000001 -0.0032478105
0.0022136313 0.0035000001 -0.0032478101
0.001745363 0.0034999996 -0.0032478101
0.0075774323 0.0027743904 -0.0057244538
0.0075774319 0.00021341468 -0.0077740871
0.0075735622 0.00022505548 -0.0072694458
0.0075774319 0.00072560972 -0.00077116792
0.0075591872 0.0012073172 -0.0012347759
0.0075348611 0.0012804879 -0.0017532848
0.0075348611 0.00072560983 -0.0017532848
0.0075667892 -0.0021768296 -0.0017212594
0.0066919769 -0.0025951215 -0.0017532848
-0.0012770952 0.0035000001 -0.00674927
-0.00025541897 0.0035000001 -0.0067492705
-0.0017453631 0.0034999996 -0.0072616786
-0.00025599456 0.0012331904 -0.0082068648
0.0052786586 -0.0022621951 -0.00025875936
0.0047678235 -0.0022621951 -0.00025875913
0.0047570118 -0.002680216 -0.00027570385
0.0052786586 -0.0012378051 -0.00025875913
0.0037319551 -0.0031680223 -0.0071905106
0.0045549721 -0.0030731708 -0.00674927
0.0045549721 -0.0030731708 -0.0071335766
0.0042265756 -0.003085366 -0.0067492714
0.0031501672 -0.0030731708 -0.0081583941
0.0066919774 -0.0025951215 -0.0022229929
-0.0062151942 0.0017500004 -0.0082010925
-0.0075774319 0.0022621951 -0.0067492709
-0.0057469276 -0.00025609741 -0.00025875913
-0.006215198 -0.00025609741 -0.00025875913
-0.0057469243 -0.00072560995 -0.00025875936
-0.0052786591 0.00021341452 -0.00025875936
-0.0052786577 -0.00025609747 -0.00025875936
0.0027244696 -0.00025609747 -0.0082010916
-0.00025541947 -0.0032865871 -0.0082010906
0.00025541929 -0.0032865857 -0.0082010953
-0.0042545502 -0.0027682921 -0.0081974324
-0.0042314408 -0.0031414637 -0.0081583951
-0.0012695824 -0.0032740305 -0.0077690673
-0.00076625659 -0.0032865861 -0.0082010953
-0.0027244701 -0.0032439022 -0.0077740909
-0.001745364 -0.0022621951 -0.0082010897
-0.0022136299 -0.0022621951 -0.0082010953
-0.0017453626 -0.0017500004 -0.0082010934
0.00076625618 -0.002774389 -0.0082010971
0.00076625665 -0.0022621951 -0.0082010962
0.0075348606 -0.00072560983 -0.0067492705
0.0075348606 -0.001237805 -0.0062368629
0.0075348606 -0.00072560983 -0.006236861
0.0075348606 -0.001237805 -0.0067492705
0.0075735636 -0.00072560972 -0.0072577982
0.0075348611 -0.00025609758 -0.006236861
0.0075774323 -0.0007256096 -0.0077740904
0.0075774309 -0.0012378049 -0.0077740871
-0.0057414356 -0.0027262 -0.0081859408
-0.0051083793 -0.0030731708 -0.0032478105
-0.003746144 -0.00025609747 -0.0082438029
-0.0032353059 -0.00025609747 -0.0082437955
-0.0022136308 -0.0032439022 -0.0042726276
-0.00025541935 -0.0032865843 -0.0067492775
0.0002554192 -0.0032865843 -0.0067492723
0.003217062 -0.0031829271 -0.005724452
0.0037218197 -0.0031341473 -0.0057244538
0.003721819 -0.0031341477 -0.0062368619
-0.0022136318 -0.0017500004 -0.0082010962
-0.0022218067 -0.0012329995 -0.0082109934
-0.0017453633 -0.0012378047 -0.0082010906
-0.0017453622 -0.0027743895 -0.0082010943
-0.0032353071 0.0035000001 -0.0057244534
-0.0032353059 0.0032353648 -0.00028544734
-0.0027244692 0.0035000001 -0.0022229929
-0.0062045557 0.0027622958 -0.0081754746
-0.0042569824 0.0035000001 -0.0047850367
-0.0032353066 0.0035000001 -0.0047850362
-0.0037461449 0.0035000001 -0.0047850367
-0.0032353068 0.0035000001 -0.0042726276
-0.0032353066 0.0035000001 -0.0037602182
-0.0027244689 0.0035000001 -0.0037602186
-0.0032353071 0.0035000001 -0.0032478101
-0.0022136308 0.0035000001 -0.0037602196
-0.0075774319 0.00072560966 -0.0047850367
-0.0075774323 -0.0017500002 -0.0067492714
-0.0075774333 -0.0017499999 -0.0062368615
-0.0075689186 -0.0022280491 -0.0067492705
-0.0067260349 -0.00025609741 -0.00025875913
-0.0075774319 0.0012378049 -0.00025875913
-0.0075774323 0.00072560972 -0.00025875913
-0.0062151947 -0.00072560983 -0.0082010934
-0.0067260331 -0.001237805 -0.0082010916
-0.0067260321 -0.00072560983 -0.0082010916
-0.006215197 -0.0012378049 -0.0082010906
-0.0037461466 -0.00072560972 -0.008243802
-0.0042569838 -0.00025609753 -0.008243802
-0.0047649476 -0.00025552069 -0.0082414905
-0.0072368737 -0.00072560995 -0.0082010971
-0.0067260331 -0.00025609753 -0.0082010897
-0.0037461454 -0.0022621951 -0.0082010888
-0.0032353073 -0.0017500002 -0.0082010916
-0.0032353066 -0.0022621951 -0.0082010962
-0.0037461461 -0.0017500004 -0.0082010888
-0.0057469276 -0.0022621951 -0.0082010906
-0.0047252509 -0.0031016264 -0.007261679
-0.0057403776 -0.0027415557 -0.0072616828
-0.0072368756 -0.0012378048 -0.0082010916
-0.0072368737 -0.00025609747 -0.0082010916
-0.0062151942 0.00072560995 -0.0082010934
-0.0047556618 0.00072560989 -0.0082315961
-0.0075774333 0.0017499998 -0.0037602196
-0.0075774319 0.0022621949 -0.00427263
-0.0075774319 0.0017500003 -0.0042726281
-0.0070627229 0.0034999996 -0.00075175846
-0.0067260335 0.0035000001 -0.0022229925
-0.0047678212 0.0035000001 -0.0012835767
-0.0042569833 0.0035000001 -0.0022229925
-0.0052786595 0.0035000001 -0.0012835769
-0.00527866 0.0035000001 -0.0022229925
-0.005746928 0.0034999996 -0.00077116792
-0.00527866 0.0035000001 -0.00077116792
-0.005746928 0.0034999996 -0.0012835767
-0.0075774319 0.0022621951 -0.0012835776
-0.0075774337 0.0022621953 -0.0017532846
-0.0075774319 0.0017499998 -0.00077116769
-0.0075774323 0.0017499998 -0.0012835769
-0.0075774309 0.0022621951 -0.00077116792
-0.0075774309 0.0027743899 -0.0057244534
-0.0075774333 0.0022621953 -0.0052547464
-0.0075774333 0.0027743904 -0.0052547469
-0.0075774323 0.0017499998 -0.0052547459
-0.0075774309 0.00072560972 -0.0032478105
-0.0075774333 0.00021341472 -0.0037602196
0.0062151947 0.0012378045 -0.00025875936
0.0075774319 -0.0017499999 -0.0012835772
0.0075774309 -0.0017499999 -0.00077116815
0.0062151966 0.0022621949 -0.00025875913
0.0067260349 0.002774389 -0.00025875936
0.0037565881 0.0017894621 0.0007684757
0.0042569833 0.0027743885 -0.00025875913
0.0052786581 0.0012378047 -0.00025875936
0.0038343244 -0.00075914629 0.0007652957
0.0052786595 0.0017499994 -0.00025875936
0.0052786595 0.0022621946 -0.00025875936
0.0027244689 0.0012378049 -0.00025875936
0.0027244689 0.00072560977 -0.00025875936
0.00076625694 0.0032439008 -0.00025875913
0.00076625682 0.0027743885 -0.00025875936
0.0040441328 -0.00072560972 0.00076605845
0.0047678212 -0.0017499992 -0.00025875913
0.0042569852 -0.0017499992 -0.00025875936
0.0027244694 -0.00025609741 -0.00025875936
0.003235305 -0.00025609747 -0.00025875936
0.0027244689 -0.00072560972 -0.00025875936
0.0027244675 0.00021341452 -0.00025875936
0.0040611611 -0.00071707321 0.0022178828
0.0067191701 -0.0022277734 -0.00030146004
0.0075774328 -0.0012261644 -0.00027816882
0.0075774319 -0.001237805 -0.00077116792
0.0072368765 -0.0017499997 -0.0003014598
0.0062059425 -0.0026816018 -0.00079344655
0.0045549721 -0.0030731708 -0.0012750367
0.0045549721 -0.0030731708 -0.00079678837
0.0045549721 -0.0030731708 -0.00047226297
0.0075774323 -0.0012378048 -0.0012835769
0.0075774323 0.0022621949 -0.0057244524
0.0075348606 -0.0012378051 -0.0057244543
0.0075518894 0.0031756097 -0.0032478105
0.0070921336 0.0034999996 -0.0032734307
0.0075774319 0.0027743904 -0.0012835772
0.0075774328 0.0027743904 -0.0017532853
0.0075518899 0.0031756093 -0.0017532848
0.0075518889 0.0031756097 -0.0012835767
0.0075774323 0.0022621953 -0.0017532851
0.0067190174 -0.0022232654 -0.0081565147
0.0022136315 0.0035000001 -0.0012835767
0.0022136311 0.0035000001 -0.00077116792
0.0012770951 0.0035000001 -0.00077116792
-0.004255183 0.0027713827 -0.00026176637
-0.0067047495 -0.0026510837 -0.0067484817
-0.0032279671 -0.0032380144 -0.006236861
-0.0032279657 -0.0032380144 -0.0057244515
-0.0037306659 -0.0031895796 -0.0057244524
-0.0075774333 -0.0017499999 -0.0017532848
-0.0075774319 -0.001237805 -0.0012835772
-0.0062152008 -0.0017499992 -0.00025875913
-0.0051083798 -0.0030731708 -0.0042726281
-0.0057403771 -0.0027415566 -0.004272629
-0.0051083798 -0.0030731708 -0.0047850362
-0.0047252513 -0.0031016269 -0.0047850367
-0.0042314422 -0.0031414651 -0.0042726281
-0.0075774319 -0.0017499997 -0.0042726272
-0.00025541926 0.0022621956 -0.00025875913
0.00025541912 0.0022621949 -0.00025875913
0.00097910641 0.0017926828 0.00076605799
0.0012770942 0.0027743885 -0.00025875936
0.00076625706 0.00072560972 -0.00025875936
0.0017453631 0.0034999996 -0.00077116792
0.0012770954 0.0032439013 -0.00025875913
0.0022136308 0.00072560983 -0.00025875936
0.0022136306 0.0012378049 -0.00025875936
0.0027244701 -0.0012378045 -0.00025875913
0.0032353054 -0.001237805 -0.00025875913
-0.0067260345 -0.0017499995 -0.0002587596
-0.0071602454 -0.0025756094 -0.00077482802
-0.0027244703 0.001237805 -0.00025875936
-0.0015750839 0.0017073168 0.00076605845
-0.0022136311 0.0012378045 -0.00025875936
-0.0027244682 0.0017499996 -0.00025875913
-0.003235305 0.0012378047 -0.00025875913
-0.0057469266 0.0017500002 -0.00025875913
-0.0062151966 0.0012378045 -0.00025875936
-0.0067260396 0.0012378049 -0.00025875913
-0.0047678244 0.00072560977 -0.00025875913
-0.0067241834 0.0027697496 -0.0002958905
-0.0072358069 0.0022559746 -0.00027699862
-0.0057469285 0.0034999996 -0.0017532848
-0.006215198 0.0035000001 -0.0012835767
-0.0062151966 0.0035000001 -0.0027354015
-0.005746928 0.0034999996 -0.0027354015
-0.0057469271 0.0032439022 -0.00030146004
-0.005746928 0.0034999996 -0.00030146004
-0.0062122983 0.0027647796 -0.00028670486
-0.0057444097 0.0027645389 -0.00027265586
-0.00076625706 0.0022621949 -0.00025875936
-0.0027244696 0.00072560977 -0.00025875913
-0.0027244694 -0.00025609747 -0.00025875913
-0.0027244696 -0.00072560983 -0.00025875936
-0.0037657337 -0.00078295672 0.00076736836
-0.0034481564 -0.0007682927 4.0146057e-05
-0.0017453631 0.0034999996 -0.00077116815
-0.0017453629 0.002774389 -0.00025875936
-0.0027244689 0.0027743885 -0.00025875913
-0.0070240223 0.0034999996 -0.0047850367
-0.0047678216 0.0035000001 -0.0027354015
-0.0027244692 0.0034999996 -0.0017532848
-0.0037461449 0.0035000001 -0.0027354015
-0.0012770952 0.0034999996 -0.0017532848
0.00076625723 0.0035000001 -0.0012835767
0.0012770949 0.0035000001 -0.00025875913
-0.00076625729 0.0035000001 -0.0012835767
0.0075735631 0.0017551733 -0.0062303906
0.0037461449 0.0017499995 -0.0082438001
0.0037449577 0.0022610025 -0.0082428465
0.0032353066 0.0022621949 -0.0082437955
0.0042569838 0.0032439013 -0.0082010916
0.0037461445 0.0032439022 -0.0082010962
0.0037481182 0.0027729757 -0.0082109831
0.0037461445 0.0035000001 -0.00674927
0.005746929 -0.00072560983 -0.0082010906
0.0052786586 -0.00072560983 -0.0082010943
0.0057469294 -0.0012378052 -0.0082010943
0.003235308 -0.00072560972 -0.0082010934
0.0052786572 -0.00025609753 -0.0082010916
0.005746928 -0.00025609753 -0.0082010934
0.0017453631 0.0034999996 -0.00674927
0.0017453631 0.0034999996 -0.0072616786
0.00076625653 0.0032439022 -0.0082010925
0.0071091629 0.0035000001 -0.0047850367
0.0075518889 0.0031756097 -0.005254745
0.0071030813 0.0034999996 -0.0052425447
0.0071091619 0.0035000001 -0.0072616795
0.0071091619 0.0035000001 -0.0077740881
0.0070665916 0.0035000001 -0.0017532848
0.0072252615 0.0034999996 -0.00075175846
0.0052786595 0.0035000001 -0.0022229925
0.0057469285 0.0034999996 -0.0017532846
0.00527866 0.0034999996 -0.0017532848
0.0047678212 0.0035000001 -0.0022229925
0.0047678212 0.0034999996 -0.0017532848
0.00527866 0.0035000001 -0.0032478105
0.0047678212 0.0035000001 -0.0042726272
0.0052786591 0.0035000001 -0.0037602186
0.00527866 0.0017500001 -0.0082010934
0.0052786549 0.0022621946 -0.0082010934
0.00025541926 0.00021341452 -0.0082437983
0.0012770946 0.0012378049 -0.0082437992
-0.00076625688 0.0032439022 -0.0082010943
-0.00025541897 0.0034999996 -0.0082010962
0.00025541897 0.0034999996 -0.0082010953
0.000766257 0.0034999996 -0.0082010953
0.0027256594 0.0022610025 -0.0082428418
0.0022139088 0.0022535466 -0.0082136495
0.0042569838 0.0034999996 -0.0082010953
0.0047678249 0.0032439022 -0.0082010925
-0.00025541897 0.0035000001 -0.0077740867
0.0052786553 0.002774389 -0.0082010943
0.0047678235 0.0027743895 -0.0082010906
0.0047678226 0.0022621953 -0.0082010962
0.0057469294 0.0017500003 -0.0082010943
0.0057469276 0.0034999996 -0.0077740876
0.0047678216 0.0035000001 -0.0077740871
0.0042569824 0.0035000001 -0.0077740871
0.0032353073 0.0035000001 -0.0067492696
0.0042569833 0.0035000001 -0.0042726272
0.0032353068 0.0035000001 -0.0062368615
0.0032353064 0.0035000001 -0.0057244534
0.0027244692 0.0035000001 -0.0062368615
-0.00025541929 0.0022621953 -0.0082010916
-0.006215197 0.0032439018 -0.0081583923
-0.0052764197 0.0032349159 -0.0081673814
-0.0047715246 0.0032401914 -0.0081621055
-0.0042569833 0.0035000001 -0.0081583932
-0.0037461454 0.0035000001 -0.0081583941
-0.0017359033 0.0035000001 -0.0081868609
-0.0022136313 0.0035000001 -0.0081583941
-0.0032353068 0.0035000001 -0.0072616786
-0.0042569838 0.0035000001 -0.0067492705
-0.0047678207 0.0035000001 -0.0072616786
-0.0057469276 0.0034999996 -0.0067492696
-0.0057469285 0.0034999996 -0.0042726276
-0.0062151966 0.0035000001 -0.0037602191
-0.0047678212 0.0034999996 -0.0052547455
-0.0047678212 0.0035000001 -0.0037602191
-0.004767824 0.0022621951 -0.0082010906
-0.0047555142 0.0012352335 -0.0082293916
-0.0052786586 0.0012378047 -0.0082010953
-0.0052786591 0.00072560995 -0.0082010953
-0.0067260321 0.0012378049 -0.0082010953
-0.0067260321 0.00072560983 -0.0082010953
-0.0062151942 0.0012378048 -0.0082010869
0.0075774328 -0.00025609764 -0.0082010953
0.0075632422 0.00025609764 -0.0062368629
0.0012767644 -0.00024617126 -0.0082159871
0.0017453635 -0.00025609753 -0.0082010934
0.00076249172 -0.00025319384 -0.0082403142
0.00076249201 -0.00072183518 -0.0082054492
0.0012770948 -0.00072560972 -0.0082010897
0.00076132087 -0.0032785446 -0.0081955213
0.0012724512 -0.0032322612 -0.0081894482
0.0057185488 -0.0025752028 -0.0077740871
0.0052622869 -0.0026135086 -0.0081583951
0.0057185479 -0.0025752033 -0.0081583951
0.0047507933 -0.0026634149 -0.008158396
0.0042542657 -0.0017454593 -0.0081983637
0.0042427923 -0.0027127373 -0.0081583941
0.0042569842 -0.00025609747 -0.0082010943
0.0042569833 -0.00072560983 -0.0082010925
0.0072283619 -0.0021853652 -0.0077740909
0.00527866 0.0035000001 -0.0062368605
0.00076625723 0.0035000001 -0.0057244534
0.00025541897 0.0035000001 -0.0057244534
0.00076625712 0.0034999996 -0.0052547455
0.0012770951 0.0035000001 -0.0057244534
0.0012770951 0.0035000001 -0.0062368605
0.0017453631 0.0034999996 -0.006236861
-0.001745363 0.0034999996 -0.0032478101
-0.00076625723 0.0035000001 -0.0042726272
0.00076625723 0.0035000001 -0.002735402
-0.0042314422 -0.0031414651 -0.0032478101
-0.0042314404 -0.0031414642 -0.0027354015
0.00076625682 -0.0032865847 -0.0072616762
0.001267271 -0.0032636006 -0.0067459894
0.0012770952 -0.0032439022 -0.0072616795
0.0007662563 -0.0032865852 -0.0067492691
0.0017453626 -0.0032439018 -0.0037602186
0.0012654848 -0.0032671844 -0.0042726295
0.0017453632 -0.0032439008 -0.0042726295
0.0032353061 0.0034999996 -0.0017532848
0.0032353064 0.0035000001 -0.0012835767
0.0037461452 0.0034999996 -0.0017532848
0.0037461454 0.0035000001 -0.0022229925
0.0032353073 0.0035000001 -0.0022229925
0.0042569833 0.0034999996 -0.0017532848
0.0042569838 0.0035000001 -0.0012835765
0.0037461454 0.0035000001 -0.0027354015
0.0032353068 0.0035000001 -0.0027354015
0.0042569838 0.0035000001 -0.00077116792
0.0062151966 0.0035000001 -0.00077116792
0.0027244687 0.0035000001 -0.0022229925
0.0012770952 0.0035000001 -0.0022229929
0.0022136313 0.0035000001 -0.0067492705
0.006726034 0.0034999996 -0.0017532848
0.0062151956 0.0034999996 -0.0017532848
0.0070985202 0.0034999996 -0.0037708939
0.0047678212 0.0035000001 -0.0057244524
0.00527866 0.0035000001 -0.0077740871
0.0062151966 0.0035000001 -0.0067492705
0.0067260335 0.0035000001 -0.0062368615
0.006726034 0.0035000001 -0.0072616786
0.0062151966 0.0035000001 -0.0047850367
0.0037461454 0.0035000001 -0.0012835767
0.0037461454 0.0035000001 -0.0047850362
0.001745363 0.0034999996 -0.0037602186
0.0012770952 0.0035000001 -0.0037602191
0.0012770951 0.0035000001 -0.0042726276
0.0075348606 -0.0017500002 -0.0057244529
0.0075348611 -0.0021962305 -0.0052430988
0.0066919788 -0.0025951215 -0.0042726276
0.0075348611 -0.002193246 -0.0037536488
0.0066919778 -0.0025951215 -0.0037602184
0.0075348611 -0.0021853661 -0.004264087
0.0075348611 -0.0021853661 -0.0047935769
-0.0022136313 0.0035000001 -0.0047850367
-0.0022136311 0.0035000001 -0.0057244534
-0.00076625712 0.0022621949 -0.0082010906
-0.00025541929 0.0017500004 -0.0082010953
0.003746144 -0.0017499992 -0.00025875936
0.0037887152 -0.0010243902 4.0146057e-05
0.0052786595 -0.0017499995 -0.00025875936
0.0052750488 -0.0027005989 -0.00077985274
0.0042144139 -0.0030859755 -0.0071848175
0.0062026759 -0.0026413202 -0.005254745
0.0045549721 -0.0030731708 -0.0052547446
0.0045549721 -0.0030731708 -0.0047850367
0.0022136318 -0.0032439013 -0.00427263
0.0017453626 -0.0032439022 -0.0047850385
0.00025541917 -0.0032865857 -0.004272629
0.00076625682 -0.0032865852 -0.0047850381
0.00025541917 -0.0032865852 -0.0047850381
0.00076625647 -0.0032865833 -0.0042726286
0.00025541906 -0.0032865847 -0.0037602168
0.001265484 -0.0032671839 -0.005724451
0.00076625677 -0.0032865847 -0.0057244492
0.00076625653 -0.0032865847 -0.0062368638
0.001265485 -0.0032671848 -0.0052547487
0.0022136318 -0.0032439018 -0.0057244538
0.001745364 -0.0032439036 -0.0052547427
0.00076625659 -0.0032865861 -0.0052547436
0.0002554192 -0.0032865847 -0.0052547446
0.00025541926 -0.0032865847 -0.0057244492
-0.0002554192 -0.0032865852 -0.0042726286
-0.0075774323 0.00021341469 -0.0012835769
-0.0075774309 0.001237805 -0.002222992
-0.0075774319 0.0012378049 -0.00077116769
-0.0075774323 0.00072560972 -0.0012835776
-0.0027244687 -0.0032439022 -0.0027354015
-0.006206682 -0.0026975595 -0.00077116769
-0.0067082318 -0.0026525497 -0.0012804717
-0.006206681 -0.0026975595 -0.0012835767
-0.0051083793 -0.0030731708 -0.00077116792
-0.001736241 -0.0032713423 -0.0067492696
-0.0017362414 -0.0032713418 -0.00726168
-0.0027244689 -0.0032439022 -0.007261679
-0.0022136315 -0.0032439018 -0.0072616776
-0.000766257 -0.0022621946 -0.0082010934
-0.00025315225 -0.00071474945 -0.008232682
-0.00076625677 -0.002774389 -0.0082010943
0.00025541929 -0.0017500004 -0.0082010934
0.00076625694 -0.0017500006 -0.0082010925
0.0075348611 -0.0022073174 -0.0062307618
0.0075348606 -0.0017499999 -0.0062368605
0.0075348606 -0.0017499999 -0.0067492709
0.0075735622 -0.0012378048 -0.0072577982
-0.0051083798 -0.0030731708 -0.0027354015
-0.0051083802 -0.0030731708 -0.0022229929
-0.0057403771 -0.0027415561 -0.0037602175
0.0066919765 -0.0025951215 -0.0062368596
0.0061361375 -0.0026402441 -0.0072372789
0.0057291086 -0.0026106066 -0.0072547267
-0.0012770948 0.0017500004 -0.0082010878
-0.00076447212 0.00071615318 -0.0082305009
-0.0017531577 0.00072140153 -0.0082341749
-0.000766257 -0.00025609747 -0.0082437973
-0.0017453626 0.00021341459 -0.0082438001
-0.0022136308 -0.00025609747 -0.0082438001
-0.0012770944 -0.00025609741 -0.0082437964
-0.00076756231 -0.0007117315 -0.0082259858
-0.0017490921 -0.00071408239 -0.0082275886
-0.0012770947 -0.0022621951 -0.0082010906
-0.00076625729 -0.0017500004 -0.0082010943
-0.0012770952 -0.0017500004 -0.0082010943
-0.0022136299 0.00021341458 -0.0082437927
-0.0027244685 0.00021341458 -0.0082437983
-0.0012770948 0.0022621951 -0.0082010925
-0.00076625659 -0.0032865852 -0.0067492705
-0.00025541917 -0.0032865852 -0.0062368624
-0.00076625706 -0.0032865843 -0.0072616753
-0.00025541906 -0.0032865843 -0.0072616753
-0.00025541909 -0.0032865847 -0.0047850367
-0.0075774309 -0.0017499999 -0.0057244562
-0.0075689182 -0.0022280491 -0.0057244552
-0.0075689191 -0.0022280491 -0.0062368619
-0.0071927272 -0.002592592 -0.0062289541
-0.0071926964 -0.0025915783 -0.0037497447
-0.0071988627 -0.0025929874 -0.0027323514
-0.003730668 -0.0031895791 -0.0077740923
-0.0037306652 -0.0031895791 -0.0072616814
-0.0032279673 -0.0032380153 -0.0077740913
-0.0032279657 -0.0032380149 -0.0072616786
-0.0032279645 -0.0032380144 -0.0067492756
-0.0027244703 -0.0022621956 -0.0082010943
-0.0022136308 -0.0032439022 -0.0077740909
-0.0032353068 0.0034999996 -0.0017532848
-0.0037450814 0.0032358984 -0.00028544734
-0.0022136313 0.0035000001 -0.0022229925
-0.0027244689 0.0035000001 -0.0042726276
-0.0027244687 0.0035000001 -0.0032478101
-0.0037461456 0.0035000001 -0.0042726272
-0.0042569828 0.0035000001 -0.0032478096
-0.0037461454 0.0035000001 -0.0032478096
-0.0012770951 0.0035000001 -0.0032478096
-0.0075774309 -0.0012378051 -0.0062368633
-0.0072368775 -0.00025609747 -0.00025875913
-0.0072368751 0.0012378047 -0.00025875913
-0.006726041 0.00021341452 -0.00025875913
-0.0075694956 -0.0022238526 -0.0012843008
-0.0075689186 -0.0022280486 -0.0027354006
-0.0075689182 -0.0022280486 -0.0032478096
-0.0057469285 -0.0012378049 -0.0082010934
-0.0037461459 -0.0012378049 -0.0082438011
-0.0042569865 -0.001235294 -0.0082337502
-0.0062151942 -0.00025609747 -0.0082010953
-0.0057403822 -0.0027415566 -0.0077740899
-0.006215198 -0.0017500004 -0.0082010934
-0.0042569852 0.00072560983 -0.0082437992
-0.0037461433 0.00072560983 -0.0082437964
-0.0072368747 0.00021341455 -0.0082010971
-0.0075774323 0.001237805 -0.002735402
-0.0075774309 0.0017499998 -0.0022229934
-0.0070240223 0.0034999996 -0.0012835767
-0.0062151966 0.0035000001 -0.0022229925
-0.0057469266 0.0034999996 -0.0022229925
-0.006726034 0.0035000001 -0.0032478101
-0.00527866 0.0034999996 -0.0017532848
-0.0075774323 0.0027743899 -0.0017532853
-0.0075774337 0.0017500001 -0.0017532851
-0.0075774319 0.0022621951 -0.0022229934
-0.005746928 0.0034999996 -0.0072616786
-0.0075774319 0.0017500001 -0.0047850353
0.0042569814 0.0022621949 -0.00025875913
0.004767824 0.0022621953 -0.00025875936
0.0040441342 0.0018353658 4.0146057e-05
0.0027244689 0.0032439018 -0.00025875936
0.0057469266 0.0017499998 -0.00025875936
0.0057469276 0.0022621953 -0.00025875913
0.0022136313 0.0017499994 -0.00025875936
0.0042569828 0.00021341449 -0.00025875936
0.0047678202 -0.00072560995 -0.00025875936
0.0052637844 -0.0026360559 -0.00028705481
0.0067260372 -0.00072560995 -0.00025875936
0.0067260317 -0.00025609741 -0.00025875913
0.0072286241 -0.0021943655 -0.00030675624
0.0067260349 -0.0012378049 -0.00025875913
0.0072368779 -0.00072560983 -0.00025875936
0.0075774337 -0.0017499997 -0.00030146004
0.0075735631 0.002758869 -0.00077246223
0.0075470246 0.00072560977 -0.0022534933
0.0075455043 0.0012484755 -0.0022763689
0.0075561465 0.0017926827 -0.0017532844
0.0062151947 -0.0022621956 -0.0081583895
0.0067211487 -0.001733207 -0.0081779901
0.0027244689 0.0034999996 -0.0017532848
0.0022136311 0.0034999996 -0.0017532848
-0.0071889814 -0.0025876523 -0.0067457128
-0.0027244694 -0.0032439022 -0.0047850376
-0.0032279657 -0.0032380149 -0.004785039
-0.0022136304 -0.0032439013 -0.0047850381
-0.0017362409 -0.0032713418 -0.0047850395
-0.0022136301 -0.0032439022 -0.0052547441
-0.0042314408 -0.0031414647 -0.0052547446
-0.0047252509 -0.0031016264 -0.0052547446
-0.0047252509 -0.0031016269 -0.0057244543
-0.0037306647 -0.0031895796 -0.0047850381
-0.0051083798 -0.0030731708 -0.006236861
-0.0057403794 -0.0027415566 -0.0062368596
-0.0062066838 -0.00269756 -0.0062368601
-0.0047252509 -0.0031016264 -0.0062368624
-0.0075774323 -0.0017500002 -0.0047850376
-0.0075689186 -0.0022280491 -0.0047850381
-0.0062066829 -0.00269756 -0.0047850376
-0.0067068962 -0.0026518232 -0.0047862115
-0.0071889814 -0.0025876518 -0.0042690691
-0.0067047472 -0.0026510837 -0.0042718374
-0.0037306668 -0.0031895796 -0.0062368605
0.001745364 0.00021341455 -0.00025875913
0.00025541915 0.0012378045 -0.0002587589
0.00097910606 -0.00068292685 0.00078029186
0.00025541897 0.0035000001 -0.0012835767
-0.0071892939 -0.0025911042 -0.0012710176
-0.0075689186 -0.0022280491 -0.0017532846
-0.0071922746 -0.0025894302 -0.0017614185
-0.0040441332 -0.00079268299 0.00076809153
-0.0047678207 -0.00025609747 -0.00025875913
-0.0057469266 0.0012378048 -0.00025875913
-0.006726034 0.0035000001 -0.0012835767
-0.0067260335 0.0034999996 -0.0017532848
-0.0037461454 0.0034999996 -0.0017532848
-0.0042569833 0.0034999996 -0.0017532851
-0.0042569838 0.0035000001 -0.0012835769
-0.0052772462 0.0032427711 -0.0002997634
-0.0057469276 -0.0017499995 -0.00025875936
-0.0037035756 -0.0010243902 0.00074470788
-0.0038286236 0.0017446643 0.0012775781
-0.0032353066 -0.00025609747 -0.00025875936
-0.0027244689 0.0022621949 -0.00025875913
-0.0022136313 0.0022621951 -0.00025875936
-0.0032353047 0.0022621949 -0.00025875936
-0.0022136313 0.0027743885 -0.00025875936
-0.0075774309 0.0027743899 -0.002735401
-0.0075774323 0.0027743899 -0.0032478101
-0.0075739799 0.0031908373 -0.0052570538
-0.0037461454 0.0035000001 -0.0022229929
-0.0032353064 0.0035000001 -0.0027354015
0.00076625712 0.0034999996 -0.0017532848
0.0075652688 0.0017743901 -0.0057244529
0.0037461445 0.0035000001 -0.0062368605
0.0037461454 0.0035000001 -0.0072616786
0.0062151998 -0.0012378049 -0.0082010925
0.0052786563 -0.0012378047 -0.0082010897
0.0042569828 -0.001237805 -0.0082010943
0.0032353078 -0.00025609747 -0.0082010943
0.0012770949 0.0035000001 -0.0077740871
0.00076625723 0.0035000001 -0.0077740881
0.0017453631 0.0034999996 -0.0077740881
0.0012770952 0.0032439022 -0.0082010943
0.0067260354 0.0035000001 -0.0057244529
0.0071091619 0.0035000001 -0.00674927
0.0067260331 0.0035000001 -0.0032478105
0.006726034 0.0035000001 -0.00077116792
0.0070665926 0.0034999996 -0.0022229929
0.0075518889 0.0031756097 -0.0022229929
0.0070985197 0.0034999996 -0.0012622261
0.0052786595 0.0035000001 -0.0027354015
0.005746928 0.0034999996 -0.0032478101
-0.00025541926 0.00021341452 -0.0082437964
-0.00076625688 0.00021341452 -0.0082437973
0.00025541932 0.0032439022 -0.0082010916
0.0027284962 0.0027691983 -0.0082068611
0.0062151966 0.0034999996 -0.0082010962
0.0012770953 0.0034999996 -0.0082010953
0.0032198266 0.0034999996 -0.0081894509
0.0032342339 0.0032424675 -0.0082000168
0.00025541897 0.0035000001 -0.0077740881
0.0052786577 0.0032439022 -0.0082010934
0.0042555141 0.0027740942 -0.008202563
-0.0012770945 -0.0032865852 -0.0037602172
-0.00025541917 -0.0032865847 -0.0037602182
-0.00076625677 -0.0032865843 -0.0032478087
-0.00076625653 -0.0032865843 -0.0037602177
-0.00025541917 -0.0032865843 -0.0032478082
0.0002554192 -0.0032865852 -0.0032478096
-0.0017453633 0.0017500001 -0.0082010953
-0.00076625671 0.0017500004 -0.0082010934
0.0022136301 -0.00025609747 -0.0082010934
-0.00025541929 0.002774389 -0.0082010925
-0.006726034 0.0032439022 -0.0081583932
-0.005746928 0.0032439022 -0.0081583951
-0.0027244689 0.0035000001 -0.008158396
-0.0027244694 0.0035000001 -0.0072616786
-0.0032353071 0.0035000001 -0.0077740881
-0.0037461445 0.0035000001 -0.0072616804
-0.00527866 0.0035000001 -0.0067492705
-0.005746928 0.0034999996 -0.0062368619
-0.0037461454 0.0035000001 -0.0057244524
-0.0037461449 0.0035000001 -0.006236861
-0.0057469276 0.0034999996 -0.0037602186
-0.0057469276 0.0034999996 -0.0047850371
-0.0047678221 0.0035000001 -0.0047850367
-0.0062151966 0.0035000001 -0.0057244529
-0.0057469299 0.0012378049 -0.0082010943
0.0075774319 0.00072560977 -0.0072616804
0.0075632422 0.00025609758 -0.0067492719
0.0075348606 -0.00072560995 -0.0057244529
0.0022136292 -0.0012378048 -0.0082010925
0.0017453632 -0.0012378051 -0.0082010953
0.0012770942 -0.0017500006 -0.0082010943
0.0017453631 -0.0017500006 -0.0082010953
0.0022136306 -0.0017500004 -0.0082010916
0.0022136301 -0.0022621946 -0.0082010934
0.0027244682 -0.0022621951 -0.0082010925
0.0012770949 -0.0012378048 -0.0082010925
0.000766257 -0.0012378045 -0.0082010962
0.0017453625 -0.0027743899 -0.0082010925
0.0017453643 -0.00072560995 -0.0082010934
0.0027154188 -0.0027599377 -0.0081839459
0.0047678258 -0.00025609753 -0.0082010953
0.0037242852 -0.0031423876 -0.0067261895
0.0042265756 -0.003085366 -0.0062368619
0.0045549721 -0.0030731708 -0.0062368619
0.0012770945 -0.0032439013 -0.0077740895
0.0022011097 -0.003153516 -0.0077740909
0.0075727026 -0.00025925931 -0.0072616809
0.0057469294 0.00072560989 -0.0082010943
0.006215197 0.0035000001 -0.0062368605
0.00076625723 0.0035000001 -0.0047850371
0.0017453629 0.0034999996 -0.0042726276
0.001745363 0.0034999996 -0.0047850367
0.0022136313 0.0035000001 -0.0057244543
0.0022136315 0.0034999996 -0.0052547446
0.0032353068 0.0034999996 -0.0052547455
0.0012770951 0.0035000001 -0.0032478101
-0.0042314413 -0.0031414647 -0.0037602184
0.0022136304 -0.0032439027 -0.0047850409
0.0017453631 -0.0032439032 -0.006236861
0.0017453629 -0.0032439022 -0.0057244524
0.0042569824 0.0035000001 -0.0022229929
0.0047678212 0.0035000001 -0.0012835767
0.0047678216 0.0035000001 -0.0032478105
0.0042569833 0.0035000001 -0.0032478105
0.0047678216 0.0035000001 -0.0037602191
0.0012770948 0.0027743895 -0.0082010934
0.0017467712 0.0022604314 -0.0082028564
0.0027244692 0.0035000001 -0.00674927
0.00076625723 0.0035000001 -0.0072616795
0.0057469285 0.0034999996 -0.0022229929
0.0062151966 0.0035000001 -0.0072616786
0.006215197 0.0035000001 -0.0042726276
0.0037461454 0.0034999996 -0.005254745
0.0075774323 0.00072560977 -0.0042726272
0.0075662299 0.0012041081 -0.0042748759
0.0075662304 0.0012041081 -0.0047782939
0.0075348606 -0.0017500002 -0.0042726276
0.0075348606 -0.00072560983 -0.003247811
0.0075727026 -0.00072560983 -0.0017343073
0.0075632422 0.00025609758 -0.0027354015
0.0075632418 0.00025609758 -0.0032478105
0.0075348611 -0.00025609758 -0.0032478105
0.0075348611 -0.00025609758 -0.0027354015
0.0066919788 -0.0025951215 -0.0032478101
0.0075348611 -0.0021768296 -0.0027354015
0.0066919778 -0.0025951215 -0.002735401
0.0045549721 -0.0030731708 -0.0042726276
0.0032170617 -0.0031829271 -0.0042726286
0.0045549721 -0.0030731708 -0.0037602186
0.0032170606 -0.0031829276 -0.0047850367
0.0075348606 -0.001237805 -0.0037602191
0.0075348606 -0.00072560995 -0.0037602191
-0.0027244687 0.0035000001 -0.0047850371
0.0042569828 -0.0022621951 -0.00025875913
0.0052686953 -0.0026572389 -0.0072398758
0.0032170622 -0.0031829267 -0.0062368619
0.0032073103 -0.0031885304 -0.0067250356
0.0045549721 -0.0030731708 -0.0057244524
0.0042265761 -0.0030853665 -0.0052547441
0.0057469257 -0.002689024 -0.002735402
0.0052713188 -0.0027258187 -0.0032478096
0.0052713188 -0.0027258191 -0.0027354006
0.005746929 -0.0026890235 -0.0022229934
0.0045549721 -0.0030731708 -0.0022229929
0.0045549721 -0.0030731708 -0.0027354015
0.0045549721 -0.0030731708 -0.0032478105
0.0012654844 -0.0032671834 -0.004785039
0.0012654843 -0.0032671834 -0.0062368629
0.0017453631 -0.0032380144 -0.0067419074
-0.0075774333 0.00021341468 -0.0017532853
-0.0075774319 0.0012378049 -0.0012835765
-0.0012770938 -0.0032865847 -0.0032478077
-0.0012770946 -0.0032865847 -0.0027353982
-0.00076625671 -0.0032865843 -0.0027353987
-0.0017362407 -0.0032713413 -0.002222992
-0.0022136306 -0.0032439018 -0.0022229915
-0.0017362412 -0.0032713423 -0.0017532855
-0.0027244689 -0.0032439013 -0.002222992
-0.0022136315 -0.0032439018 -0.0017532848
-0.0027244696 -0.0032439013 -0.0017532858
-0.004229092 -0.0031143827 -0.0002940977
-0.0037461454 -0.002774389 -0.00025875913
-0.0037257117 -0.0031585372 -0.00027925544
-0.0057469257 -0.0012378049 -0.00025875936
-0.00025541932 -0.0027743895 -0.0082010925
0.00025541917 -0.0012378049 -0.0082010953
0.0075735631 -0.0017499999 -0.0072577978
0.0075632422 0.00025609758 -0.0057244538
0.0075348611 -0.00025609758 -0.005724452
-0.0047252513 -0.0031016264 -0.002735401
-0.0067047477 -0.0026510842 -0.002225365
-0.0071889814 -0.0025876518 -0.0022336678
-0.0057403794 -0.0027415566 -0.0012835769
-0.0057403781 -0.0027415557 -0.00077116769
-0.0051083798 -0.0030731708 -0.00038686139
0.0067017088 -0.0025975606 -0.0067370706
-0.0032353078 0.0012378049 -0.0082437983
-0.0032353064 0.00072560972 -0.0082437983
-0.0017453632 -0.00025609747 -0.0082437955
-0.0012770941 -0.0012378047 -0.0082010962
-0.0012783848 -0.00071345165 -0.0082282638
-0.0037461454 0.00021341455 -0.0082438029
-0.002724468 -0.00025609753 -0.0082437964
-0.0017362417 -0.0032713423 -0.0052547422
-0.00076625717 -0.0032865843 -0.0077740932
0.00025541929 -0.0032865852 -0.0062368698
-0.00025541909 -0.0032865833 -0.0057244538
-0.0012770944 -0.0032865857 -0.0062368633
-0.0012770946 -0.0032865838 -0.0067492719
-0.0012770946 -0.0032865847 -0.0072616804
-0.0012770939 -0.0032865852 -0.0052547459
-0.00076625688 -0.0032865852 -0.0057244473
-0.00076625677 -0.0032865852 -0.0052547436
-0.0042314394 -0.0031414642 -0.0077740876
-0.0032301161 -0.0032272455 -0.0081531852
-0.0027244685 -0.0032439018 -0.0057244515
-0.0027244685 -0.0032439013 -0.0062368619
-0.0027244685 -0.0017500006 -0.0082010962
-0.0037461459 0.0027743885 -0.00025875913
-0.0022136311 0.0034999996 -0.0017532846
-0.0022136313 0.0035000001 -0.0032478105
-0.0037461454 0.0035000001 -0.0037602191
-0.0067260386 0.00072560983 -0.00025875936
-0.0072368719 0.00072560989 -0.00025875936
-0.0075689182 -0.0022280491 -0.0022229925
-0.0052786577 -0.00072560983 -0.0082010943
-0.0052786572 -0.0017500004 -0.0082010906
-0.0062151947 0.00021341455 -0.0082010925
-0.0027244689 -0.0032439022 -0.0067492737
-0.0062151966 -0.0022621951 -0.0082010943
-0.0057469266 -0.0017499999 -0.0082010897
-0.0067260321 0.00021341455 -0.0082010888
-0.0075774319 0.0012378051 -0.0032478096
-0.0062151966 0.0034999996 -0.0017532848
-0.0067260345 0.0035000001 -0.0027354015
-0.006726034 0.0035000001 -0.0037602191
-0.0075774323 0.0027743904 -0.0022229925
-0.0062151966 0.0035000001 -0.0072616786
-0.005746928 0.0034999996 -0.0077740876
-0.0075774319 0.0022621953 -0.0047850367
-0.0075774319 0.001237805 -0.0047850371
0.0057469276 0.0034999996 -0.0012835767
0.0047678235 0.002774389 -0.00025875936
0.0027244708 0.002774389 -0.00025875936
0.0032353043 0.0027743885 -0.00025875936
0.0037461449 0.002774389 -0.00025875936
0.0047678207 0.0017499991 -0.00025875936
0.0015750838 -0.00072560983 0.0022178832
0.0015750837 -0.00072560983 0.0017481749
0.00097910617 -0.00059756095 0.0022605839
0.0017453644 0.0022621956 -0.00025875913
0.0037461426 0.00072560983 -0.00025875913
0.0047678235 -0.0012378049 -0.00025875913
0.0072368789 -0.00025609741 -0.00025875936
0.0072342306 -0.0012314736 -0.00026591006
0.0075727026 -0.00025609764 -0.0017343068
0.0075348611 -0.00025609758 -0.0022229929
0.007575193 0.00022015409 -0.0017442952
0.0075689186 0.00072560977 -0.0012494163
0.0075348606 -0.001237805 -0.0032478105
0.0075348606 -0.0017500002 -0.0032478101
0.0075348606 -0.001237805 -0.0027354015
0.0075436686 0.0032026917 -0.00076675066
0.0075774323 0.00021341469 -0.0012835772
0.0075632427 0.00025609758 -0.0037602186
0.0075699203 -0.0017424676 -0.0017281673
0.0075561465 0.0017926825 -0.0022229929
0.0057459925 -0.00225985 -0.0081602698
0.0027102798 -0.0032249312 -0.0032478096
0.0027102795 -0.0032249307 -0.0027354006
0.0045549721 -0.0030731708 -0.0017532848
0.0037267946 -0.0031507774 -0.0013076446
0.0037218197 -0.0031341477 -0.0022229929
-0.00076625682 -0.0032865843 -0.00077116792
-0.00025541909 -0.0032865852 -0.0012835755
-0.0002554192 -0.0032865852 -0.00025875913
-0.00025541912 -0.0032865843 -0.00077116792
-0.00076625682 -0.0032865843 -0.00025875936
0.00076625659 -0.0032865847 -0.0022229915
0.00076625712 -0.0032865857 -0.0017532841
0.0012654845 -0.0032671844 -0.0017532851
-0.0047688233 0.0027721846 -0.00026176637
-0.006206682 -0.00269756 -0.0067492709
-0.0042314408 -0.0031414642 -0.0047850343
-0.0037306664 -0.0031895791 -0.0052547469
-0.0051083798 -0.0030731708 -0.0052547446
-0.005740379 -0.0027415566 -0.0052547436
-0.0057403762 -0.0027415566 -0.0047850385
-0.006206681 -0.00269756 -0.0037602186
-0.006206681 -0.0026975595 -0.0042726281
-0.0067115915 -0.0026539634 -0.0037594563
-0.006206682 -0.00269756 -0.0032478091
-0.0042314408 -0.0031414637 -0.0072616809
