# .PCD v0.7 - Point Cloud Data file format
VERSION 0.7
FIELDS x y z
SIZE 4 4 4
TYPE F F F
COUNT 1 1 1
WIDTH 893
HEIGHT 1
VIEWPOINT 0 0 0 1 0 0 0
POINTS 893
DATA ascii
-0.0072250939 0.001 -0.0016854368
-0.0067380071 0.001 -0.0016854367
-0.0067380071 0.001 -0.00029902905
-0.007737054 0.001 -0.001664391
-0.0040752762 -0.00012083335 -0.0051473798
-0.0021075788 -0.00012820514 -0.0051232269
-0.0040639103 7.3333344e-05 -0.0051400391
0.010743651 0.0001942981 -0.00030417979
0.01071587 -0.00029166651 -0.0012368934
0.010744286 0.00020833319 -0.0012368929
0.010715876 -0.00029166657 -0.00074757158
-0.010744749 0.00018805692 -0.00030557066
-0.010756453 -0.00029166657 -0.0012368924
-0.010756458 -0.00029166654 -0.00074757152
-0.010744282 0.0002020832 -0.00074757164
-0.010750416 -0.00025569339 -0.0003309414
-0.010680822 0.00067897711 -0.0007475724
-0.010669033 0.00069743581 -0.00031283038
0.001954138 8.3333332e-05 0.0025669904
4.0590414e-05 4.166667e-05 0.0025961166
4.0590407e-05 -8.333334e-05 0.0025961166
-0.0072250939 0.001 -0.00029902905
-0.004749069 -0.00079166651 -0.0017262136
-0.0040996321 -0.00012500002 -0.0027456307
-0.0040996312 -0.00058333331 -0.0020116505
-0.0032472359 -0.00079166633 -0.00025825243
-0.0037343088 -0.00079166662 -0.00025825255
-0.0032472368 -0.00079166651 -0.00074757251
-0.0019686348 -0.00012499999 0.0025757281
-0.0019889299 0 0.0025961166
-0.0020701108 -0.00011111111 0.0025825244
-4.059041e-05 -8.333334e-05 0.0025961166
-0.0099446494 -8.333334e-05 0.0025553401
-0.0079963095 -8.333334e-05 0.0025553401
-0.0079963095 8.3333332e-05 0.0025553401
-0.010090774 6.4285719e-05 0.002212815
-0.01002583 -8.333334e-05 0.0025553401
-0.010689703 -0.00072532851 -0.0007481089
-0.010692487 -0.00073675462 -0.00027310487
0.010699886 0.00069191889 -0.0012368932
0.010553505 0.001 -0.0011145631
0.01069172 0.00071727979 -0.00029152416
0.010699886 0.00069191877 -0.00074757152
0.0039002092 0.0001286232 0.00223799
0.0020701108 9.9999983e-05 0.0025879615
0.0039372696 5.5555556e-05 0.0025825244
-0.00073062722 -0.00081060571 -0.00026937341
-0.00073062768 -0.00079166651 -0.0017262128
-0.00024354253 -0.00081060576 -0.00026937335
-0.010741044 0.00020147665 -0.0012363765
-0.010669474 0.00068154756 -0.0016446619
-0.010729404 0.00019989093 -0.001645995
-0.010678085 0.00067959749 -0.0012364243
-0.010746161 -0.00029276882 -0.001667315
-0.010089614 3.5714293e-05 -0.0032699034
-0.0099095432 7.2072078e-05 -0.0027500393
-0.0099106049 6.9892478e-05 -0.0032770438
-0.010092684 3.6764715e-05 -0.0027120507
0.010083333 9.5486117e-05 0.002235922
0.010082304 -0.00011594204 0.0022149431
0.01002583 4.1666663e-05 0.0025553401
0.010223784 -0.0007777774 -0.0016773832
0.010219242 -0.00077941158 -0.0012368932
0.010646147 -0.00072192022 -0.00166239
0.010655948 -0.00072222197 -0.0012368932
-0.00607841 0.00013541669 -0.0027456314
0.0072250939 0.001 -0.0016854368
0.0082804421 0.001 -0.0016854368
0.0072250939 0.00099999981 -0.00025825237
-0.010096863 7.2916664e-05 -0.0047436883
-0.010090774 -0.00011666668 -0.0047436883
-0.010069127 -0.00012222223 -0.0051269904
-0.010090775 -0.00011666668 -0.0042543691
-0.010095941 6.8181827e-05 -0.0042729024
-0.010228783 0.00099999981 -0.0012368931
-0.0072250944 0.00099999981 -0.0012368934
-0.0042213933 -0.00079166651 -0.0017262134
-0.0040996312 -0.00012500002 -0.0032757288
-0.0039024781 -0.00011904764 -0.0051398063
-0.0040996312 -0.00012500002 -0.0047436883
-0.0038662362 -0.00011979168 -0.0047334945
-0.0040996317 -0.00012500002 -0.0042543691
-0.0038608641 -0.00012254904 -0.00425197
-0.0021107013 -0.00012500002 -0.0047436887
-0.0021242313 -0.00012037038 -0.0042498386
-0.0020701108 8.3333332e-05 0.0025961166
-0.0021070109 -0.00012500002 0.0022513685
-4.0590417e-05 4.166667e-05 0.0025961166
-0.0040184502 -8.333334e-05 0.0025553401
-0.0040184502 4.166667e-05 0.0025553401
-0.0059667896 -8.333334e-05 0.0025553401
0.00073062681 -0.00081060571 -0.00026937347
0.0017453885 -0.00079166639 -0.0017262131
0.0012177109 -0.00079166639 -0.0017262129
-0.0079281796 9.8214296e-05 -0.0032757293
-0.0060784104 0.00013541667 -0.0032757288
-0.0079338616 6.4102569e-05 -0.0051294994
-0.007944121 -0.00011309525 -0.0051106797
-0.006082763 -0.00012500002 -0.00513398
-0.0081070103 -0.00012121214 -0.0051106797
-0.0079200473 -0.00012121214 -0.0047424529
-0.0067380071 0.00099999981 -0.00074757281
-0.010689261 -0.00072406145 -0.0012382434
-0.010682655 -0.0007314047 -0.001673307
0.0097416956 0.00099999981 -0.00025825237
0.010219232 0.00099999993 -0.00027024548
0.010079442 0.00011163523 0.00072115764
0.0099040577 0.00011538462 0.0012504855
-0.0012224857 -0.0008039212 -0.0002654483
-0.0017453883 -0.00079166633 -0.0007475717
-0.0017453874 -0.00079166656 -0.00025825255
-0.001217711 -0.00079166633 -0.00074757211
-0.0067380071 -0.00079166651 -0.0012368932
-0.0067380071 -0.00079166651 -0.00074757118
-0.0072250958 -0.00079166651 -0.0012368925
-0.0057638315 -0.00079166662 -0.00074757176
-0.0052767429 -0.00079166651 -0.00025825237
-0.0052767429 -0.00079166639 -0.00074757129
-0.0052767429 -0.00079166651 -0.0012368927
-0.0097417152 -0.00079166639 -0.0016854374
-0.010227273 -0.00079361373 -0.00026015809
-0.010228793 -0.00079166651 -0.0016854377
-0.0099142054 -0.00011458334 -0.0027762135
-0.0099040577 -0.00012083335 -0.0032879612
-0.00876927 -0.00079304876 -0.0017213827
-0.0087675387 -0.00079166651 -0.00074757228
-0.0092546279 -0.00079166639 -0.001236893
-0.0087675387 -0.00079166639 -0.0012368928
0.0047490695 -0.00079761865 -0.00026407762
0.0052767429 -0.00079166656 -0.0012368927
0.0052767429 -0.00079761876 -0.00026407785
0.004749069 -0.00079166651 -0.0017262123
-0.008118079 -0.00012500002 -0.0037650475
-0.0099059902 -0.0001230159 -0.0037941742
-0.008118079 -0.00012500002 -0.0032757283
-0.0077474802 -0.00078405777 -0.0017067121
-0.0082804542 -0.00079166639 -0.001236893
-0.008283956 -0.00078257185 -0.0017065495
-0.0099040577 -0.00012500002 -0.0047436883
-0.005917375 0.00010869566 0.0022344445
-0.0017453873 0.00099999958 -0.00074757275
-0.0012177122 0.00099999981 -0.00074757281
-0.0017453876 0.00099999958 -0.00025825232
-0.0012177122 0.00099999981 -0.00025825237
-0.010090774 -0.00011666668 -0.0032757288
-0.01009348 5.555556e-05 -0.0037786402
0.010093481 -0.00011805556 0.0012572816
0.010715869 -0.00026136337 -0.00034351269
0.010082032 -0.00011858976 0.00072038849
0.010655941 -0.00072222209 -0.00029902905
-0.010086715 2.0833344e-05 0.00072038849
-0.010169742 0.001 -0.00031385699
-0.010228792 0.00072321406 -0.00030776719
-0.010090774 -0.00011666667 0.0012504855
-0.010090774 -0.00011666668 0.00072038826
-0.0099060871 7.9166683e-05 0.0012464077
-0.0097416956 0.001 -0.00029902905
-0.0092546102 0.001 -0.00029902905
-0.0099052172 8.0952384e-05 0.0017864084
-0.0081180828 8.333334e-05 0.0012504853
-0.010091226 4.3981483e-05 0.0012957928
-0.010082032 -0.00011538463 0.0022448096
0.0040184502 4.1666673e-05 0.0025553401
0.0040184502 -8.333334e-05 0.0025553401
0.0059667896 8.3333332e-05 0.0025553401
0.0039024781 -0.00010119049 0.0022582524
0.0079963095 -8.333334e-05 0.0025553401
0.0079963095 2.7777773e-05 0.0025825244
0.0060479706 8.3333332e-05 0.0025553401
0.0079254648 9.8484859e-05 0.0022395048
0.0080774911 4.1666673e-05 0.0025553401
0.0099071795 0.00010470086 0.0022374899
0.0099446494 4.1666663e-05 0.0025553401
0.0057638381 0.00099999981 -0.001236893
0.0067269374 0.001 -0.0017076787
0.0052767536 0.00099999981 -0.0017262136
0.0057638385 0.00099999981 -0.0017262133
0.010228783 0.00099999981 -0.00074757286
0.0099012256 0.0001007752 0.00072702626
0.0092546269 0.00073387055 -0.00028324465
0.0087675378 0.00073387055 -0.00028324459
0.010698196 0.00069120643 -0.0016834376
0.010731651 0.00021286687 -0.0016812125
0.0059281322 -0.0001230159 0.0022407766
0.0097405938 -0.00079051539 -0.0016867897
0.0097417161 -0.00079166639 -0.0012368934
0.010219241 -0.00077941164 -0.00029902911
0.0097417152 -0.00079166656 -0.00029902917
0.0098946905 -0.00012500002 0.00072352518
0.010655949 -0.00072222197 -0.00074757257
0.00011945175 -0.00012380953 0.0022640773
-0.0018671593 -0.00012500002 -0.0042543672
-0.0079298932 9.9747485e-05 -0.0027369803
-0.0058856094 -0.00012500002 -0.0047436883
-0.0059285848 0.00013235296 -0.0032637357
-0.0040996312 -0.00012500002 -0.003765048
-0.0058856094 -0.00012500002 -0.0032757288
-0.0037343088 -0.00079166651 -0.0017262148
0.0037343178 0.00099999981 -0.00025825237
0.0039011901 0.00014814816 0.00072038849
0.0032472322 0.00099999981 -0.00025825232
0.0042214021 0.00099999981 -0.00025825237
-0.0099077476 7.5757584e-05 -0.0037662829
-0.009254613 0.001 -0.0016854369
-0.0087675285 0.001 -0.00029902905
0.0097416956 0.001 -0.0016854367
0.009254613 0.001 -0.0016854367
0.010228783 0.001 -0.0016854367
-0.0097292066 0.001 -0.0016603434
-0.010228783 0.00099999981 -0.00074757286
-0.0072250939 0.00099999981 -0.00074757286
-0.00409202 -0.00012239584 0.0022469661
-0.0021057511 0.00012195122 0.0022271364
-0.0038854033 7.1759263e-05 0.0022245953
-0.0038717017 8.6538465e-05 0.0017805834
0.0012209251 -0.00080610532 -0.00026753842
0.00024354241 -0.00081060565 -0.0002693733
0.00024354253 -0.00079166639 -0.0017262138
0.0022730592 -0.00079166639 -0.0017262145
-0.0059314934 8.6956534e-05 -0.0051355008
-0.00607788 7.8947378e-05 -0.0051278491
-0.0080977855 6.9444439e-05 -0.005097087
0.010099631 -0.00012121214 0.0017793466
0.010097995 0.00010714287 0.0017708751
0.010089371 0.00010869565 0.001252849
-0.0012177122 0.00099999981 -0.0017262133
-0.0017453872 0.00099999958 -0.0017262133
-0.0017453872 0.00099999958 -0.001236893
-0.0012177122 0.00099999981 -0.001236893
-0.00073062722 0.00099999981 -0.0017262131
-0.0052767536 0.001 -0.00029902905
-0.0059155151 0.00012719299 0.00071824237
-0.0057638385 0.001 -0.00029902905
-0.0059084743 0.00012441311 0.0012573769
-0.0037343085 -0.00079166651 -0.0012368931
-0.0047490695 -0.00079166645 -0.00025825249
-0.0062509184 -0.00079166662 -0.00025825243
-0.0067380071 -0.00079166656 -0.00025825249
-0.0072250958 -0.00079166662 -0.00025825243
-0.0079313647 -0.00011666667 0.0012504853
-0.0077527747 -0.00079166645 -0.00025825249
-0.0060885609 -0.00012500002 0.0017805829
-0.0079313628 -0.00011944446 0.0022617476
-0.0079282196 -0.00011827959 0.0017845287
-0.0087675387 -0.00079166651 -0.00025825243
-0.0077527747 -0.00079166645 -0.0012368924
-0.0062509184 -0.00079166639 -0.0017262141
-0.0062509184 -0.00079166633 -0.0012368927
-0.0062509188 -0.00079166656 -0.00074757193
-0.0057638315 -0.00079166633 -0.0012368932
-0.010228789 -0.00079166621 -0.001236893
-0.010228793 -0.00079166639 -0.00074757228
-0.0097417161 -0.00079166651 -0.00074757141
-0.0097417114 -0.00079166651 -0.0012368931
-0.0092495801 -0.00079144124 -0.0016920491
-0.0027601481 -0.00079166651 -0.0017262138
-0.0022730597 -0.00079166651 -0.001726213
-0.0022730592 -0.00079166656 -0.0012368931
-0.0012177113 -0.00079166639 -0.0017262148
0.0042213947 -0.00079166656 -0.0017262147
0.0042213951 -0.0007976187 -0.00026407768
0.003734309 -0.00079761894 -0.00026407774
0.0067380071 -0.00079761865 -0.00026407774
0.0077499007 -0.00079166633 -0.0017027587
0.0082808482 -0.00079935259 -0.00026814971
-0.008118079 -0.00012500002 -0.0027456305
-0.0079215383 -0.00012061405 -0.0027306073
-0.008118079 -0.00012500002 -0.0042543695
-0.0079313628 -0.00011666668 -0.0042543691
-0.0079252748 -0.00011979168 -0.0037574014
-0.0002435425 -0.00079166639 -0.0017262138
0.00073062693 -0.00079166639 -0.0017262131
0.00024354251 -0.00079166639 -0.0012368943
-0.0062509221 0.001 -0.00029902905
-0.0040844115 8.1597216e-05 0.0022597089
-0.010090774 -0.00011666667 -0.0027456309
-0.010090774 -0.00011666668 -0.0037650471
0.010744279 0.00020833319 -0.000747571
-0.0099064456 7.8431382e-05 0.00072278699
-0.0092539052 0.00072435878 -0.00030626752
-0.009905681 6.0000006e-05 0.0022193398
-0.010096863 7.2916671e-05 0.0017805832
-0.0099098561 -0.0001230159 0.0022446602
0.004071529 -0.00011858976 0.0022479463
0.0072250958 -0.00079761876 -0.00026407791
0.0077527747 -0.00079166656 -0.0012368929
0.0080774911 -8.333334e-05 0.0025553401
0.0059121158 0.00010884354 0.0022441051
0.0060953237 8.333334e-05 0.0022427184
0.0081130061 8.0729173e-05 0.0022469657
0.008280444 0.00099999981 -0.00025825237
0.0087675266 0.00099999981 -0.00025825237
0.0077527682 0.00099999958 -0.00074757292
0.0077527682 0.00099999958 -0.00025825237
0.0099040577 0.00011956522 0.0017823559
0.0097416956 0.00099999981 -0.0012368932
0.0052767536 0.00099999981 -0.001236893
0.005276754 0.00099999981 -0.00074757286
0.0042214021 0.00099999981 -0.00074757286
0.010706282 -0.00029343422 -0.0016706104
0.0040776907 0.00011936938 -0.0051261093
0.0059199557 9.6153854e-05 -0.0051232274
0.0059018433 0.00012500001 -0.0047436892
0.0060953256 -0.0001215278 0.0022393204
0.0079256017 -0.00012096776 0.0022449112
0.0098888362 7.8124998e-05 -0.0027524263
0.0098918807 7.9166668e-05 -0.003271651
0.010219249 -0.00077941152 -0.00074757182
0.0020701108 -8.333334e-05 0.0025553401
0.0019158672 -0.00011666668 0.00072854373
0.0017453878 -0.00079761876 -0.00026407756
-0.00011699583 -0.00012254904 0.0022603078
0.00012177117 -0.00012500002 0.0017805827
0.00010928184 0.00012307693 0.0022466904
-0.0018671594 -0.00012500002 -0.0047436883
-0.0017453881 -0.00079166639 -0.0017262135
-0.0067370171 0.00070447131 -0.0017152731
-0.0060479706 0.00050000002 -0.0020116505
-0.0079174479 -0.00012380953 -0.0032745637
-0.0081143901 7.5757591e-05 -0.0032769646
-0.0062509221 0.001 -0.0016854368
-0.0059084743 0.00012441313 -0.002752522
-0.0059026992 -0.00012280705 -0.0051278491
-0.0060885609 -0.00012500002 -0.0047436883
0.0039011906 0.00014814813 0.0012504851
0.00409339 0.00014102558 0.0012504853
0.0039003701 0.00015151515 0.0017813247
0.0021078025 0.0001547619 0.00071893202
-0.0077527668 0.00099999993 -0.00029902911
-0.0079331715 9.2592592e-05 0.00072038837
-0.0079331733 9.2592592e-05 0.0012504851
-0.0082804421 0.001 -0.00029902905
-0.0087675285 0.001 -0.0016854368
-0.008280443 0.00099999981 -0.00074757281
0.0087675285 0.001 -0.0016854368
0.0087665683 0.00070255145 -0.0017193849
0.0092546102 0.00099999981 -0.00025825237
-0.0099071804 4.4871795e-05 -0.0051294994
0.010093918 -0.00011827959 -0.0047371113
0.010068045 8.6666667e-05 -0.0051269913
0.010070111 -0.00011363638 -0.0050958516
-0.0099064456 7.8431389e-05 -0.0042543686
0.010089128 0.00010875707 -0.0047402335
0.010104557 0.00010606062 -0.004261781
-0.0087675266 0.00099999981 -0.001236893
-0.008280444 0.00099999981 -0.0012368929
-0.0077527682 0.00099999958 -0.0012368931
-0.0072250958 0.00073387066 -0.00028324459
-0.0099040577 -0.00012500002 0.0017805829
-0.0037343085 -0.00079166639 -0.00074757216
0.0042213942 -0.00079166662 -0.00074757182
0.0037343085 -0.00079166639 -0.00074757164
0.0038966795 -8.333334e-05 0.00072038849
0.0021107013 -0.00012500002 0.0012504858
0.0038966795 -8.333334e-05 0.0012504855
0.0040833941 -0.00011666668 0.00072038849
0.0032472361 -0.00079761865 -0.00026407756
-0.0059024049 -0.00012356325 0.002237563
-0.0040996317 -0.00012500002 0.0017805832
-0.0019136538 8.7878791e-05 0.00071668159
-0.0001414515 0.00014393932 0.00071915274
-0.0019028302 7.9545462e-05 0.0012529566
-0.0021107008 0.00013020834 0.00072548527
-0.0038763832 -0.00012202383 0.0022378638
-0.003856089 -0.00012500002 0.0017805829
-0.0021107013 -0.00012500002 0.0017805827
0.0017453859 -0.00079166639 -0.0012368925
0.0032472387 -0.00079166668 -0.00074757199
0.0027601484 -0.00079166633 -0.00074757164
0.0021107011 -0.00012500002 -0.0027456314
0.0027601484 -0.00079166651 -0.0017262137
0.0007306271 -0.00079166651 -0.0012368937
0.00024354261 -0.00079166656 -0.00074757147
0.0012177108 -0.00079166656 -0.00074757187
-0.00792694 9.5454554e-05 -0.0047503612
-0.0082874401 0.001 -0.0016798126
0.0081180818 8.333334e-05 0.00072038837
0.0079151299 -0.00012500002 0.0012504853
0.008118079 -0.00012500002 0.0012504855
0.008118079 -0.00012500002 0.00072038849
0.0099040577 -0.00012500002 0.0012504853
0.0081073977 -0.00012280705 0.0022334191
0.0032472319 0.00099999981 -0.0017262134
0.0027601481 0.00070833281 -0.0017262138
0.0032472361 0.00070833298 -0.0017262129
0.0027601481 0.00099999981 -0.0017262134
0.0032472319 0.00099999981 -0.00074757275
0.0027601481 0.00099999981 -0.0012368929
0.002097171 0.00052777777 -0.0020116505
0.0022730627 0.00099999981 -0.0017262134
0.0040833936 -0.00011666668 -0.0032757283
-0.002103538 7.8431374e-05 -0.0051058833
-0.0038717017 8.6538457e-05 -0.0047436883
-0.0021098729 0.00013265308 -0.0047561708
-0.00024354241 0.00099999981 -0.00074757281
0.00024354245 0.00099999981 -0.0017262134
-0.0047423113 0.00099999981 -0.00029223296
-0.0047490764 0.00099999958 -0.00074757292
-0.0022730592 -0.00079166656 -0.00025825232
-0.0021107011 -0.00012500002 0.00072038849
-0.0021107011 -0.00012500002 0.0012504853
-0.0042213937 -0.00079166651 -0.00025825249
-0.0040996321 -0.00012500002 0.0012504853
-0.0057638315 -0.00079166656 -0.00025825243
-0.0072250958 -0.00079166651 -0.00074757176
-0.0082804542 -0.00079166633 -0.00025825237
-0.0092546279 -0.00079166639 -0.00074757193
-0.0082804542 -0.00079166656 -0.00074757228
-0.0067380071 -0.00079166651 -0.001726214
-0.0057638315 -0.00079166639 -0.0017262143
-0.0060885609 -0.00012500002 -0.0042543695
-0.0099040577 -0.00012500002 -0.0042543695
-0.0099151284 -0.00012121214 -0.0051106797
-0.0032472361 -0.00079166651 -0.0012368935
-0.003858408 -0.00012380953 -0.0037708734
-0.0021200681 -0.00012179488 -0.0037650471
-0.0012177108 -0.00079166651 -0.001236893
-0.00073062658 -0.00079166639 -0.0012368928
0.0032472366 -0.00079166651 -0.0017262131
0.0052767429 -0.00079166633 -0.0017262134
0.0057638315 -0.00079166651 -0.0017262143
0.0052767429 -0.00029166654 -0.0017262137
0.004749069 -0.00029166657 -0.0017262123
0.0057638311 -0.00079761876 -0.00026407756
-0.0079307985 0.00010087719 -0.0037643332
-0.008118079 -0.00012500002 -0.0047436883
0.00012177118 -0.00012500002 -0.0027456309
-0.0060784104 0.00013541667 0.00072038826
-0.0072250958 0.0001893938 -0.00026937335
-0.0062509207 0.00099999981 -0.0012368934
-0.00607841 0.00013541667 0.0012504853
-0.004085137 9.8214303e-05 0.0017805829
-0.0057638385 0.00099999981 -0.0012368932
-0.005763839 0.00099999981 -0.00074757275
-0.010090775 -0.00011666668 0.0017805825
-0.0092546279 -0.00079166662 -0.00025825249
-0.0081143891 -0.00012500002 0.0022513685
-0.0060795387 0.00011111112 0.0022200649
-0.0079358974 7.9457372e-05 0.0022310219
-0.0060784104 0.00013541667 0.0017805829
0.004083395 -0.00011666667 0.0012504853
0.0079225134 0.00011363636 0.00072038849
0.0052767536 0.00099999981 -0.00025825237
0.0062509202 0.00099999981 -0.00074757286
0.0057638385 0.00099999981 -0.00074757286
0.005763839 0.00099999981 -0.00025825237
0.00409339 0.00014102559 0.00072038837
0.0047490764 0.00099999958 -0.00025825237
0.0047490709 0.00073387043 -0.00028324465
0.0021049029 0.00014455784 0.0022490975
0.0040863249 0.00012568307 0.0022291252
0.0040933895 0.00014102561 0.0017805827
0.0059018433 0.00012499999 0.0012504855
0.0059018433 0.00012500001 -0.0037650499
0.0059018428 0.00012500001 -0.0032757293
0.0061059543 8.3333347e-05 -0.0037650485
0.0062509212 0.00099999981 -0.0017262134
0.0072250939 0.00099999981 -0.00074757286
0.0097416947 0.00099999981 -0.00074757275
0.010228783 0.00099999981 -0.001236893
0.004749076 0.00099999958 -0.00074757281
0.0052767433 0.00073387055 -0.00028324471
0.0047490769 0.00099999958 -0.0012368934
0.0047490764 0.00099999958 -0.0017262135
0.0037343088 -0.00079166639 -0.001236893
0.0047490695 -0.00079166627 -0.001236893
0.010107011 -0.00012500002 -0.0042543686
0.010107011 -0.00012500002 -0.003765048
0.0098797036 -0.00011666668 -0.0047436887
0.010104691 -0.00012380953 -0.0032792236
0.0092518348 0.00070105802 -0.0016970888
0.0082804542 -0.00079166633 -0.0012368927
0.0082819415 -0.00078577636 -0.001699528
0.0087681822 -0.00078791863 -0.0016970879
0.0082804542 -0.00079166639 -0.00074757193
0.0059329644 -0.00011805556 -0.0051174755
0.0060885618 8.333334e-05 -0.0051292148
0.0040648389 -0.00011904764 -0.0051165046
0.0059018428 0.00012500001 0.00072038849
0.0092546279 -0.00079166639 -0.0012368931
0.0098982593 -0.00011904764 -0.0051165051
0.0067380071 -0.00079166651 -0.0012368938
0.0067380071 -0.00079166639 -0.00074757129
0.0072258837 -0.00078762113 -0.0017163162
0.005901841 0.00012499999 -0.0027456302
0.0061059543 8.3333332e-05 -0.0032757288
0.010097995 0.00010714287 -0.0037747584
0.01009078 0.00010833334 -0.0032757293
0.0019367422 -0.00011309525 0.0021650484
0.0027601477 -0.00079761876 -0.00026407768
0.0027601484 -0.00079166651 -0.0012368927
0.0022730592 -0.00079761876 -0.00026407774
0.00012177118 -0.00012500002 0.0012504855
0.0019204337 -0.00011197918 0.0012453884
-0.0019077499 8.673469e-05 0.0022108173
0.0021061914 0.00014814816 0.0017805836
0.0019120224 -0.00012061405 -0.0027585078
0.0019158672 -0.00011666668 -0.0033001946
-0.00024354264 -0.00079166656 -0.0012368928
-0.00024354253 -0.00079166656 -0.00074757211
-0.0067380071 0.00073387084 -0.00028324459
-0.00014564794 0.00014215679 -0.004743692
-0.0001217712 9.8837219e-05 -0.0051353364
0.00010928184 0.00014743586 -0.0047436901
-0.0018976023 8.8541674e-05 -0.0047589806
-0.00014564795 0.00014215679 -0.0042543667
-0.0017453873 -0.00079166639 -0.0012368917
-0.0081160534 7.9166675e-05 -0.0027415529
-0.0057638381 0.001 -0.0016854369
-0.0038717017 8.6538457e-05 -0.0042559351
-0.002128561 0.00010500001 -0.0042478428
0.0037343178 0.00099999981 -0.00074757286
-0.0077527692 0.00099999958 -0.00074757292
-0.0081138797 7.4712647e-05 0.0022291266
0.0087675266 0.00099999981 -0.00074757286
-0.010222538 0.001 -0.0016603434
-0.0081169214 8.0952384e-05 -0.0047495142
-0.0081180818 8.333334e-05 -0.0042543686
-0.0097416956 0.00099999981 -0.00074757286
-0.0097416956 0.00099999981 -0.001236893
-0.0092546102 0.00099999981 -0.0012368932
-0.0087644877 0.00072446984 -0.00030044315
-0.0087675266 0.00099999981 -0.00074757281
-0.0040884358 0.00010057472 -0.0047493139
-0.004085137 9.8214288e-05 -0.004257279
-0.0060784104 0.00013541669 -0.0037650494
-0.0059363456 0.00013541667 -0.0037650485
-0.0040842374 0.00010344828 -0.0037664552
-0.003858408 -0.00012380953 0.0007192234
-0.0058903852 -0.00012500002 0.0017685896
-0.0060848715 -0.00012500002 0.002251368
-0.0021129989 0.00012106918 0.001247408
-0.0038674837 7.6023396e-05 0.0012547778
-0.0038723256 7.2222232e-05 0.00071767007
-0.0038560894 -0.00012500002 0.0012504855
-0.0018671593 -0.00012500002 0.00072038826
-0.00015706722 -0.00012500002 0.00071861548
0.001217711 -0.00079166639 -0.0012368937
0.0019889299 0.00050000002 -0.0020116505
0.0018838736 0.00014215679 -0.0027456302
0.0021061914 0.00014814813 -0.0027456302
0.0021149006 0.00014080461 -0.0032757293
0.00073062704 -0.00079166651 -0.00074757199
0.0012177122 0.00099999981 -0.001236893
0.0012177122 0.00099999981 -0.0017262135
0.00073062733 0.00099999981 -0.0017262133
0.0012177122 0.00099999981 -0.00025825237
0.00010928183 0.00014743584 0.00072038861
0.0018838736 0.00014215682 0.00072038861
0.0012213597 0.00074063643 -0.00028803345
0.0081180828 8.3333332e-05 0.0012504855
0.007915128 -0.00012500002 0.0017805829
0.0061129136 -0.00011666667 0.0012504855
0.0077500688 -0.00079583289 -0.00026844675
0.0087632556 -0.00079396961 -0.00027566944
0.0099040577 -0.00012500002 0.0017805827
0.0040924186 0.00013981476 -0.002742911
0.0039004858 0.00015104165 -0.0027456302
-0.0012213591 0.00074063626 -0.00028803298
-0.0019331182 7.8125013e-05 -0.0050699036
-0.0039030882 5.7017551e-05 -0.005136434
-0.0022730625 0.00099999981 -0.00074757286
-0.00024354244 0.00099999981 -0.0012368931
-0.00024354241 0.00099999981 -0.0017262134
-0.00073062739 0.00099999981 -0.00074757281
-0.00073062745 0.00099999981 -0.00025825237
-0.00073062687 0.00074425247 -0.00029059267
-0.0052767433 0.00073387055 -0.00028324453
-0.0047490709 0.00073387049 -0.00028324459
-0.0022730627 0.00099999981 -0.0017262134
-0.0027601481 0.00099999981 -0.0017262134
-0.0027601481 0.00099999981 -0.001236893
-0.0021206229 0.00010740741 -0.0032820716
-0.0020701108 0.00050000002 -0.0020116505
0.0017453873 0.00099999958 -0.0017262136
-0.0027601481 -0.00079166639 -0.00074757263
-0.0027601484 -0.00079166651 -0.00025825243
-0.002273059 -0.00079166633 -0.00074757187
-0.0042213942 -0.00079166651 -0.00074757158
-0.0040996317 -0.00012500002 0.00072038837
-0.0077527747 -0.00079166639 -0.00074757158
-0.008118079 -0.00012500002 0.00072038837
-0.008118079 -0.00012500002 0.0012504855
-0.0079313638 -0.00011666668 0.00072038837
-0.0072241519 -0.00079108495 -0.0017252651
-0.0060885609 -0.00012500002 -0.0032757283
-0.0060885609 -0.00012500002 -0.0037650475
-0.0052767429 -0.00079166633 -0.0017262137
-0.00608856 -0.00012500002 -0.0027456307
-0.0072250958 -0.00029166654 -0.0017262131
-0.0032472385 -0.00079166651 -0.001726213
-0.0027601481 -0.00079166651 -0.0012368937
-0.0038608641 -0.00012254904 -0.0032661343
0.0037343085 -0.00079166651 -0.0017262137
0.0061129136 -0.00011666668 0.0017805825
0.0059261993 -0.00012500002 0.0012504858
0.0061059543 8.3333347e-05 0.0017805825
-0.0081169214 8.0952384e-05 -0.0037662126
-0.0079258531 8.9622648e-05 -0.0042551365
-0.0018671593 -0.00012500002 -0.0032757288
-0.0018671593 -0.00012500002 -0.0027456302
-0.00016236164 -0.00012500002 -0.0027456307
-0.0042214016 0.00099999981 -0.0017262136
-0.0040865401 9.0053771e-05 -0.0027535225
-0.0037343178 0.00099999981 -0.0017262133
-0.0042214026 0.00099999981 -0.00074757281
-0.0042214026 0.00099999981 -0.0012368932
-0.0067380071 0.00099999981 -0.001236893
-0.0047490769 0.00099999958 -0.0012368931
-0.004749076 0.00099999958 -0.0017262136
-0.0047490695 0.00070833263 -0.001726214
-0.0062509202 0.00099999981 -0.00074757286
-0.0097417124 -0.00079166651 -0.00025825255
-0.008118079 -0.00012500002 0.0017805827
0.0077527747 -0.00079166639 -0.00074757152
0.0067380075 0.00099999981 -0.00025825232
0.0027601481 0.00099999981 -0.00025825237
0.0032472345 0.00073387072 -0.00028324442
0.0027601444 0.00073387084 -0.00028324465
0.0059059015 0.00011904763 0.0017689328
0.0061059538 8.3333347e-05 0.0012504855
0.0040833941 -0.00011666668 0.0017805827
0.00010720026 9.6153854e-05 -0.0051462296
0.0019115256 0.00015503877 -0.0051125772
-0.00012177118 -0.00011805556 -0.0051446608
0.0001041232 -0.00011956524 -0.005163867
0.0072250939 0.00099999981 -0.0012368931
0.008280443 0.00099999981 -0.00074757275
0.0092546092 0.00099999981 -0.00074757286
0.0047490695 -0.00079166651 -0.00074757164
0.01009348 -0.00011805556 -0.0027456309
0.0098905275 -0.00012345682 -0.0032772389
0.008118079 -0.00012500002 -0.0032757288
0.008118079 -0.00012500002 -0.003765048
0.0079225134 0.00011363637 -0.0047436906
0.0079298876 7.8282828e-05 -0.005137865
0.0040833941 -0.00011666668 -0.0047436883
0.0039029229 0.00012820514 -0.005116954
0.0021049024 0.00014880953 -0.0051165051
0.0059261993 -0.00012500002 0.00072038837
0.0087675387 -0.00079166633 -0.0012368925
0.0097417124 -0.00079166651 -0.00074757187
0.008118079 -0.00012500002 -0.0047436887
0.0081006857 -0.00011904763 -0.0050757281
0.0098830629 -0.00012068968 -0.0037748902
0.009899999 6.2499996e-05 -0.0051188353
0.0098736146 7.2916671e-05 -0.0047436887
0.0072250958 -0.00079166633 -0.0012368928
0.0067397719 -0.00078502391 -0.0017173487
0.0062509202 0.00099999981 -0.0012368931
0.004083395 -0.00011666667 -0.0027456307
0.0079225134 0.00011363637 -0.0042543667
0.0081180818 8.333334e-05 -0.0047436883
0.0019193459 -0.00011309525 0.0017747575
0.0021128375 -0.00011842106 0.0022291262
0.0032472399 -0.00079166651 -0.0012368932
0.00012177117 -0.00012500002 0.00072038826
0.0018838734 0.00014215682 0.0012504858
0.0021061911 0.00014814812 0.0012504855
0.0018838735 0.0001421568 0.001780582
-0.0018794306 -0.000125969 0.0022499878
-0.0018671592 -0.00012500002 0.0017805832
0.0017453877 0.00099999958 -0.00025825232
-0.00011398675 0.00013584473 0.0022469996
-0.00012718326 0.00014999992 0.0017778639
-0.00014206643 -0.00012500002 0.0012368934
0.00010806535 0.00014718607 0.001777935
0.0021107011 -0.00012500002 -0.0032757288
0.0019077499 -0.00012500002 -0.003765048
0.0021107011 -0.00012500002 -0.003765048
0.0038966795 -8.333334e-05 -0.0032757283
0.00012177118 -0.00012500002 -0.0032757293
-0.0012177117 0.00070833298 -0.0017262143
-0.00073062727 0.00070833293 -0.0017262141
0.0018838736 0.0001421568 -0.0037650485
0.0021149004 0.00014080459 -0.0042431178
0.0018838737 0.00014215679 -0.0042543681
-0.0072234217 0.00070446701 -0.001703094
-0.0032472322 0.00099999981 -0.0017262131
-0.0027601484 0.00070833281 -0.0017262137
-0.0032472368 0.00070833293 -0.001726213
-0.0018952605 6.0897441e-05 -0.00425123
-0.0021242308 0.0001076389 -0.0037667481
0.0037343178 0.00099999981 -0.001236893
0.0042214021 0.00099999981 -0.0017262134
0.0037343176 0.00099999981 -0.0017262134
-0.0081180818 8.3333347e-05 0.0017805825
0.0087675266 0.00099999981 -0.001236893
-0.010073583 5.3921565e-05 -0.0051154769
-0.0099040577 8.3333347e-05 -0.0047436887
-0.0092546111 0.00099999981 -0.00074757286
-0.009254626 0.00070833316 -0.0016854375
-0.0081180818 8.3333332e-05 0.00072038837
-0.0059319967 0.00010714286 -0.0047436883
-0.0040871436 8.6538472e-05 -0.0032820022
0.0021107011 -0.00012500002 0.00072038849
-0.0058856094 -0.00012500002 0.0012504853
-0.0059099603 0.00012499999 0.0017765054
-0.0021075788 0.00014102565 0.0017805834
-0.0040884363 7.9022997e-05 0.0012589222
-0.0018671595 -0.00012500002 0.0012504853
0.0022730588 -0.00079166639 -0.00074757193
0.002273059 -0.00079166651 -0.0012368932
0.0022730627 0.00099999981 -0.0012368931
0.00073062733 0.00099999981 -0.00074757286
0.0017453862 -0.00079166639 -0.00074757129
0.007915128 -0.00012500002 0.00072038837
0.0079225143 0.00011363634 0.0012504853
0.008118079 -0.00012500002 0.0017805825
0.0092552714 -0.00078924134 -0.00028737867
-0.0018966791 -0.00012878788 -0.0051180939
-0.0022730625 0.00099999981 -0.00025825237
-0.00073062733 0.00099999981 -0.0012368932
-0.00024354247 0.00099999981 -0.00025825237
0.0021061907 0.00014814816 -0.0047436883
0.0018838735 0.0001421568 -0.0047436915
-0.0022730627 0.00099999981 -0.0012368932
-0.0042213933 -0.00079166651 -0.0012368932
-0.0040894854 7.2916664e-05 0.00072038826
-0.0099040577 -0.00012500002 0.00072038849
-0.0072250958 0.00020833313 -0.0017262131
-0.0058856099 -0.00012500002 -0.003765048
-0.005885608 -0.00012500002 -0.0027456309
-0.0021155721 -0.00012333336 -0.0032806215
-0.0038601481 -0.00012291668 -0.0027354364
-0.0018671593 -0.00012500002 -0.0037650494
-0.00016236164 -0.00012500002 -0.0042543667
0.007915129 -0.00012500002 -0.0042543681
0.008118079 -0.00012500002 -0.0042543695
0.007915128 -0.00012500002 -0.003765048
0.0061129136 -0.00011666668 -0.0042543695
0.0079225134 0.00011363637 -0.0032757293
0.00012177117 -0.00012500002 -0.0047436883
-0.00016236163 -0.00012500002 -0.0032757288
-0.0037343176 0.00099999981 -0.001236893
-0.0052767536 0.00099999981 -0.0012368931
-0.0052767429 0.00070833275 -0.0017262138
-0.00073062681 -0.00079166651 -0.00074757164
0.0062509202 0.00099999981 -0.00025825237
0.0038966795 -0.00010416668 0.0018213593
0.0059261993 -0.00012500002 0.0017805822
0.008280444 0.00099999981 -0.0012368932
0.0040184502 0.00050000002 -0.0020524273
0.0057638306 -0.00079166651 -0.0012368931
0.0042213942 -0.00079166639 -0.0012368928
0.0052767429 -0.00079166639 -0.00074757199
0.010090783 0.00010833333 -0.00274563
0.0098888362 -0.00012239584 -0.0027583733
0.008118079 -0.00012500002 -0.0027456314
0.0079151299 -0.00012500002 -0.0027456305
0.0087634604 -0.00028867612 -0.0017193854
0.007915128 -0.00012500002 -0.0032757288
0.0072233807 0.00070539856 -0.0017233422
0.0067380071 0.00070833293 -0.0017262129
0.0061129131 -0.00011666667 -0.0027456309
0.0081024682 7.6923083e-05 -0.0050981333
0.0039047971 -8.333334e-05 -0.0050943689
0.0019280444 -0.00012500002 -0.005049515
0.0062509184 -0.00079761876 -0.00026407762
0.0062509184 -0.00079166639 -0.0012368927
0.0087675387 -0.00079166651 -0.00074757182
0.0092546279 -0.00079166639 -0.00074757182
0.0092552714 -0.00078395032 -0.0016970882
0.0081180818 8.3333347e-05 -0.0032757288
0.0098736146 -0.00011979168 -0.004251821
0.0072250958 -0.00079166651 -0.00074757147
0.0067380071 0.00099999981 -0.0012368932
0.0081180818 8.333334e-05 -0.0042543681
0.0061059543 8.3333332e-05 -0.0042543677
0.0059018428 0.00012500001 -0.0042543667
0.0021107011 -0.00012500002 0.0017805822
0.0018999253 0.00014959832 0.0022389507
-0.00013800737 -0.00012500002 0.0017765056
-0.0001301169 0.0001487538 0.001241339
0.0001092819 0.00014743584 0.0012504851
0.0001217712 -0.00012500002 -0.0037650475
0.0012177115 0.00070833293 -0.0017262134
0.00073062727 0.00070833293 -0.0017262136
0.0039011901 0.00014814816 -0.0032757288
0.0018838736 0.0001421568 -0.0032757265
0.00010928184 0.00014743584 -0.0032757293
0.00010928183 0.00014743587 -0.0042543686
0.004221403 0.00099999981 -0.0012368931
0.0032472317 0.00099999981 -0.0012368931
-0.0079331715 9.2592592e-05 0.0017805832
0.0092546111 0.00099999981 -0.0012368931
-0.0087725809 0.0007179486 -0.0016748219
-0.0059363465 0.00013541667 -0.0042543667
-0.0038690788 7.9999998e-05 -0.0032789907
-0.0058856094 -0.00012500002 0.00072038837
-0.00608856 -0.00012500002 0.0012504855
-0.0018981993 9.558825e-05 0.0017805832
0.0027601481 0.00099999981 -0.00074757286
0.0012177122 0.00099999981 -0.00074757275
0.00024354242 0.00099999981 -0.00025825243
0.00024354245 0.00099999981 -0.0012368931
0.0067380071 0.00073387049 -0.00028324465
0.0079225134 0.00011363636 0.0017805834
0.0099059902 -0.00011904763 0.0022446602
-0.00014564799 0.00014215679 -0.0027456312
-0.0037343176 0.00099999981 -0.00025825237
0.0038988166 0.00015789473 -0.004745835
-0.0032472352 0.00073387055 -0.00028324459
-0.0027601444 0.00073387066 -0.00028324465
-0.0047490695 -0.00079166645 -0.0012368923
-0.0099040577 -0.00012500002 0.0012504855
-0.0058856104 -0.00012500002 -0.0042543691
-0.0018952605 6.0897437e-05 -0.0037681866
-0.0019026761 5.9027785e-05 -0.0032808259
0.007915128 -0.00012500002 -0.0047436883
0.0061129136 -0.00011666668 -0.0047436887
0.0060943603 -0.00011904764 -0.0051165046
0.0079225134 0.00011363637 -0.0037650499
0.0059261993 -0.00012500002 -0.0037650475
0.0059261988 -0.00012500002 -0.00425437
0.0040833941 -0.00011666668 -0.0037650471
-0.0021107011 -0.00012500002 -0.0027456309
0.0001092819 0.00014743583 -0.0027456298
-0.00016236161 -0.00012500002 -0.0047436883
0.00012177118 -0.00012500002 -0.0042543681
-0.0052672033 0.00099999993 -0.00171422
-0.005276754 0.00099999981 -0.00074757286
0.0077527682 0.00099999958 -0.0012368931
0.004749069 0.00070833269 -0.0017262129
0.0039372696 0.00054166664 -0.0020116505
0.0062509184 -0.00078571396 -0.0017203884
0.0079225143 0.00011363634 -0.0027456295
0.0061059538 8.333334e-05 -0.0027456312
0.0059261997 -0.00012500002 -0.0032757279
0.0059261997 -0.00012500002 -0.0027456309
0.0061129136 -0.00011666668 -0.0032757288
0.0021107013 -0.00011666668 -0.0050943689
0.0021107013 -0.00012500002 -0.0047436887
0.0019077496 -0.00012500002 -0.0047436883
0.0021107011 -0.00012500002 -0.0042543695
0.0061129136 -0.00011666668 0.00072038849
0.0098736146 7.2916671e-05 -0.0042543667
0.0057638311 -0.00079166651 -0.00074757199
0.0062509184 -0.00079166639 -0.00074757228
0.0072250958 -0.00029166651 -0.0017262133
0.0061059543 8.333334e-05 -0.0047436883
-0.00016236161 -0.00012500002 -0.0037650489
0.0040898924 0.00013666663 -0.003274098
0.00010928186 0.00014743584 -0.0037650489
-0.0060784104 0.00013541667 -0.0042543667
-0.0038729387 8.9622648e-05 -0.0037658173
-0.0038749359 8.1845246e-05 -0.0027499993
-0.0060885609 -0.00012500002 0.00072038849
0.0022730625 0.00099999981 -0.00025825237
0.00073062733 0.00099999981 -0.00025825237
0.00024354245 0.00099999981 -0.00074757286
0.00073062704 0.00074425252 -0.00029059267
0.00073062739 0.00099999981 -0.0012368931
0.0072250958 0.00073387072 -0.00028324476
0.0081180818 8.333334e-05 0.0017805827
-0.0018985842 6.8548383e-05 -0.0027535229
-0.00014564795 0.00014215679 -0.0032757279
-0.0042214021 0.00099999981 -0.00025825237
-0.0037343183 0.00099999981 -0.00074757286
-0.0027601479 0.00099999981 -0.00025825237
0.0040910891 0.00013815786 -0.0047458368
0.0040874016 0.00013356164 -0.0042549265
-0.004749069 -0.00079166639 -0.00074757182
0.0079322187 -0.0001140351 -0.005136434
0.0052767429 0.00070833281 -0.0017262133
0.0059261993 -0.00012500002 -0.0047436883
0.0038966795 -8.333334e-05 -0.0027456309
0.0077527678 0.00099999993 -0.0016854369
0.0061129136 -0.00011666668 -0.0037650471
0.0019077493 -0.00012500002 -0.0042543686
0.0061059543 8.333334e-05 0.00072038849
0.0098819174 7.5757576e-05 -0.003779877
0.0067380071 0.00099999981 -0.00074757281
0.0017453873 0.00099999958 -0.00074757275
0.0038995796 0.0001547619 -0.0042543667
0.0021224853 0.00013844084 -0.0037624184
0.0039011901 0.00014814816 -0.0037650494
0.0040898928 0.00013666664 -0.0037634186
-0.0060885591 8.3333332e-05 -0.0047436883
-0.0021129989 0.00011792453 -0.002748708
0.0022730625 0.00099999981 -0.00074757286
-0.00014564795 0.0001421568 -0.0037650489
-0.0032472319 0.00099999981 -0.0012368929
-0.0032472319 0.00099999981 -0.00074757286
0.0081180828 8.3333347e-05 -0.0027456314
0.0081180818 8.3333332e-05 -0.0037650475
0.0017453873 0.00099999958 -0.0012368935
0.0038966793 -0.00011111113 -0.0047029122
0.003896679 -0.00011666668 -0.0042462144
0.003896679 -0.00011666668 -0.003765048
-0.0032472319 0.00099999981 -0.00025825243
-0.0027601479 0.00099999981 -0.00074757286
0.0040833941 -0.00011666668 -0.0042543695
