# .PCD v0.7 - Point Cloud Data file format
VERSION 0.7
FIELDS x y z
SIZE 4 4 4
TYPE F F F
COUNT 1 1 1
WIDTH 1129
HEIGHT 1
VIEWPOINT 0 0 0 1 0 0 0
POINTS 1129
DATA ascii
0.0071197571 -0.00089768367 0.0021468161
0.0070884833 -0.0011277056 0.0021053932
0.006933332 -0.00089999998 0.0021308472
-0.0068487502 -0.00089172984 0.0021930411
-0.0070980121 0.00087781955 0.002151829
-0.0069333334 -0.00094642863 0.0025330507
-0.0070719966 0.0010678566 0.0012374576
-0.0076585533 0.0016663042 -0.00029796828
-0.0071014147 0.0020000001 -0.00029661017
-0.0068864301 0.0010820663 0.0012142083
-0.0070755524 0.0010714281 0.0017322029
-0.0070707314 0.0010665853 0.00073559303
-0.0071024583 0.00085810892 0.00074136478
-0.0068800002 0.0010803565 0.00073559303
-0.0068589151 -0.00090365461 -0.0051116277
-0.0070900377 -0.00089947088 -0.0051227873
-0.0070400001 0.00092857145 -0.0050305082
-0.0070624924 0.00087172049 -0.004738498
-0.0071297302 -0.00088095333 -0.0047457637
-0.006878865 0.0010714281 -0.0047109267
-0.0051128883 0.0010976192 -0.0050684754
-0.0070743263 0.0010677333 -0.0047359434
-0.0068809357 0.001082706 -0.0042449608
-0.0076650721 0.0016715172 -0.00076283701
-0.0071111126 0.0020000001 -0.00075932208
-0.0076618274 0.0016722233 -0.0016420337
-0.0071029058 0.0020000001 -0.0012548889
-0.0070958729 0.0020000001 -0.0016491525
-0.0072103119 0.0017438274 -0.001647833
-0.006933332 0.0010659341 0.0021374184
-0.0070755552 0.0010659338 0.0021374186
-0.0070471116 -0.00095714291 0.002543729
-0.0071032043 -0.00088624412 0.0021988698
0.007671671 0.0017281206 -0.00026967429
0.0080000004 0.001107143 -0.000261017
0.0080000004 0.001107143 -0.00075932214
0.0051199999 -0.001 0.0025152543
0.0051081479 -0.001095238 0.0025152543
0.004918518 0.0009047619 0.0025152543
0.0050417776 0.00089999998 0.0025294917
-0.0069333334 -0.0010714285 0.0025152543
-0.0070577776 -0.0010892856 0.0025152543
-0.0071050134 -0.0011316326 0.002192881
-0.0050539682 -0.0011020408 0.0025355932
-0.0068644448 -0.0011517856 0.0021771188
-0.0077431616 0.00077282893 -0.00030875352
-0.0077511142 0.00021428589 -0.00043898274
-0.007733216 0.0012104498 -0.00031094323
-0.0050914148 -0.00091316528 -0.0051379865
-0.0050732153 -0.0011484961 -0.0051279217
-0.0070847319 -0.0011129032 -0.0051315473
0.0010628578 0.0011135198 0.0022101691
0.0010548148 0.0010833334 0.0025152543
0.00090074062 0.0011111113 0.0025310731
0.0028562963 0.0011190475 0.0025152543
0.00086193578 0.0011261526 0.0022259161
-0.007128641 -0.00088111626 -0.0042484337
-0.0071302527 -0.0011318686 -0.0042474568
-0.0068921642 -0.0011353384 -0.0050942013
-0.007069421 0.0010652703 -0.0042462312
-0.0077311029 -0.0012776759 -0.0017197682
-0.0071302522 -0.0011318686 -0.0027525425
-0.007751104 -0.0007857139 -0.00172034
-0.0076605873 -0.0017343634 -0.0016970579
-0.0076639964 0.0016700899 -0.001257627
-0.0077300123 0.0012409193 -0.0012576275
-0.0077296537 0.0012420128 -0.0016505043
0.0071028452 0.00083766336 -0.0047450438
0.0070996452 0.0011204255 -0.0047445842
0.0071085854 0.0011164236 -0.0042474587
0.0071083172 0.00084033719 -0.0042474582
0.0068674902 0.00087566127 -0.0051175142
0.0050824117 0.00087551016 -0.0051505091
0.0050920662 0.00083758595 -0.0047440669
0.0050894767 0.0011204912 -0.0047428869
0.006889876 0.0011011903 -0.005127402
0.0068802135 0.001123064 -0.0047431896
0.0069333334 -0.00092857145 -0.0050661014
0.0071051847 -0.00088095228 -0.0050601698
0.0050682817 0.0010844151 -0.0051567014
0.0048592598 0.0011139452 -0.0050966097
0.00488404 0.00084740255 -0.0050919871
0.0051081479 -0.00091428566 -0.0050684744
0.0011041184 0.0008409532 -0.0042417636
0.0028676339 0.00082375872 -0.0042482312
0.0028705189 0.00082381035 -0.0037515275
0.0070985355 0.0011046182 0.0022003071
0.0071031717 0.0011186547 0.0017339678
0.0068800002 0.0011250004 0.0017322027
0.0071060266 0.00085289206 0.0021974575
0.007016296 0.0010833333 0.002538983
0.003235558 -0.0017857138 -0.00075932231
0.0027377694 -0.0017857136 -0.00075932179
0.0032355597 -0.0017857136 -0.0012576273
-0.0029222814 0.00082239369 0.0021535505
-0.0011189543 0.0010588237 0.0025487535
-0.0011022222 0.00089285709 0.0025508476
-0.0011429628 0.00084449508 0.0021993639
0.0068622222 0.00092857145 0.0025152543
0.0068888892 0.0010535715 0.0025241526
0.0068682493 0.00084503688 0.0021810399
0.0070637008 -0.0011241494 -0.0047033899
0.0071039945 -0.00088571501 -0.0047457623
0.0070865392 0.0011259748 0.0012338993
0.0071111117 0.0020000001 -0.00029661017
0.0071009477 0.00083673571 0.0012338983
0.00095999998 -0.00085714285 0.0025508474
0.00095999998 -0.0011428571 0.0021949154
-0.00090412697 -0.0011530613 0.0025305084
-0.00087308633 -0.00094444444 0.0025389832
0.0011151516 -0.0011103897 0.0025476119
0.0029125942 -0.0008571432 0.0017371466
0.002851557 0.00082857249 0.0012338986
0.0028584525 0.00082684081 0.0017429884
0.002912594 -0.00085714314 0.0012329095
0.0011582904 -0.00087133783 0.0012334422
-0.0069333334 0.00092857145 0.0020525423
-0.006891707 0.0010783968 0.0017322036
-0.0077300216 0.0012409193 -0.00075932179
-0.0071057728 0.00085535803 0.0012374579
-0.0069096289 0.00092857145 -0.0042158188
-0.006841308 -0.00087815209 -0.0042474573
-0.0068477499 -0.00087547489 -0.0037434832
-0.0067199999 0.0020000001 -0.0016491525
-0.0051223747 0.00084285822 -0.0042474587
-0.0051223743 0.00084285822 -0.0037491531
-0.0051199994 0.00085164828 -0.0050633634
-0.004942222 0.00082142855 -0.0050661014
-0.0010311111 -0.0011785715 0.0025152543
0.0032355608 -0.0017812492 -0.00026546605
0.0037333309 -0.0017812492 -0.00026546617
0.0029071362 -0.0008571432 0.00073278253
0.0022400012 -0.0017857138 -0.00026101718
-0.0051075355 -0.0011465679 0.0022083197
-0.0051000435 -0.00087092817 -0.0037491526
0.0030814817 -0.0016666666 -0.0020406779
0.0027440246 -0.0017852482 -0.0017308895
0.0032300379 -0.0017803967 -0.0017324348
0.0027377703 -0.0017857131 -0.0012576277
0.006868687 0.00083116966 0.0017322029
-0.00085875718 -0.00086985558 0.0022045665
0.00091777754 -0.00085602712 0.0021904665
0.00088888884 0.00089795917 0.0025254239
0.0011571718 -0.00087337737 0.0017322029
-0.0071302527 -0.0011318686 -0.0047457619
-0.0068515972 -0.0011617411 -0.0037442436
-0.0068458137 -0.0011593413 -0.0042474568
-0.0071302536 -0.0011318686 -0.0037491545
-0.0071286419 -0.00088111637 -0.0037491529
-0.0071302513 -0.0011318686 -0.0032508462
-0.0068458137 -0.0011593413 -0.0032508471
-0.0068458128 -0.0011593413 -0.0027525434
-0.0070699751 0.00087395002 -0.0042390837
-0.0076647596 -0.0017408158 -0.0012576268
-0.0072177877 -0.0017857131 -0.0012576265
-0.0031486403 0.0008134931 -0.0042474582
-0.0031460919 0.0008145172 -0.0037491526
-0.0048775729 0.00082467613 -0.0037491531
-0.0030850114 -0.00086854171 -0.0037514267
-0.0029368883 0.0010857141 -0.0042474577
-0.0011499478 0.0011342287 -0.0047534071
-0.002936888 0.0010857141 -0.0047457628
-0.0031232738 0.0011353388 -0.0042474587
-0.0031232736 0.0011353389 -0.0037491517
-0.00086242898 -0.00086157344 -0.0047512809
0.00092235295 -0.00084873941 -0.0051163514
-0.00087033835 -0.00088405795 -0.0051439917
0.0028590872 0.0011218494 -0.0037491543
0.0028590886 0.0011218493 -0.0042474573
0.0031031182 0.0011231987 -0.0037530726
0.0071083172 0.00084033719 0.0017322032
0.001138545 -0.00086279656 -0.0037491524
0.0011578343 -0.00087042194 -0.0042488272
0.006868687 0.00083116966 -0.0047457609
0.0068686875 0.00083116966 -0.0042474582
0.0070740692 0.0011130947 -0.0051120776
0.0070911101 0.00087053567 -0.0051039187
0.0028588169 0.0011139814 -0.0051016943
0.0028458666 0.00085999985 -0.0050789141
0.00088888896 0.0011156016 -0.0051850574
-0.00089547335 -0.0011560841 -0.0051768366
0.0011414818 -0.00088541722 -0.0051639825
0.00086074095 0.00084375031 -0.0051224586
0.0029511112 -0.0010714285 -0.0050305082
0.001150815 -0.0011511903 -0.0051313555
0.0031339682 -0.0011462587 -0.0050644064
0.003131066 -0.00087463559 -0.0050915261
0.0030942331 0.00084086886 -0.0042411499
0.0048483517 0.00083071529 -0.0042438991
0.0030904107 0.00084638043 -0.0047350358
0.0048520463 0.00083137065 -0.0047435616
0.0030791112 0.00083571428 -0.0050305086
0.0051199999 -0.0011160714 -0.0050572036
0.0050973762 -0.0011493509 -0.0047457628
-0.0031486407 0.0008134931 -0.0032508469
-0.0028546052 -0.001163266 -0.0037491533
-0.0030666667 -0.0011517853 -0.0032508473
-0.0028546045 -0.001163266 -0.0032508452
-0.0028546045 -0.001163266 -0.0027525418
-0.0030761291 -0.0011543777 -0.0027433578
-0.0030526984 -0.0016632654 -0.0020406779
-0.0037333369 -0.0017857136 -0.0017203395
0.0079999957 0.00071428565 -0.00075932208
0.0079999957 0.00071428565 -0.0012576277
0.0080000004 0.001107143 -0.0012576273
0.0068800002 0.0011250003 0.0012338983
0.0050806664 0.0011238607 0.0012376849
0.0068800002 0.0011250003 0.00073559268
0.0050607403 0.0010714288 0.0025389832
0.0050668893 0.0011199297 0.0022225992
0.004924444 0.0010535715 0.0025152543
0.0031644444 -0.0010714285 0.0025152543
0.0068813264 0.001100213 0.0021986333
0.0050666705 0.0011250003 0.0017322029
0.0030883723 0.00084551511 0.0021311787
0.0048566945 0.00084556063 0.0021804846
0.0048636217 0.0011187976 0.0021892942
-0.0050577773 -0.00094642863 0.0025241526
-0.004924444 -0.00098214287 0.002533051
0.00074666721 -0.0017857136 -0.00075932255
0.00024888874 -0.0017857135 -0.00075932266
0.00074973819 -0.0017869001 -0.0017261333
0.00024888883 -0.0017857139 -0.00026101706
0.0072177858 0.0017543543 -0.00026622566
0.0028552203 0.00083874527 0.002155008
0.0031257127 -0.00086415902 0.0021847445
0.0028535894 0.001120409 0.0022013555
0.0010642152 0.0011145315 0.001718702
0.0052266652 0.0019999992 -0.00029661017
0.0071111112 0.0020000001 -0.00075932214
-0.0070998785 0.00085338432 0.001737823
-0.0069333324 0.00092857145 -0.0037491526
-0.0068413089 -0.00087815215 -0.0032508478
-0.0070851939 0.00086198607 -0.0027501294
-0.007738872 0.00069999939 -0.0017057532
-0.0077511114 0.00021428606 -0.0017203412
-0.0070817894 0.00086466223 -0.0032508471
-0.0048689218 -0.0011593406 0.0021691781
-0.0048601669 -0.0011703303 0.0017322025
0.0031217772 -0.0011714294 0.0007355928
0.0031217765 -0.0011714294 0.0012338988
0.004231113 -0.0017812492 -0.00026546617
0.0011524184 -0.0011638663 0.00073559314
0.0017422233 -0.0017857129 -0.00026101718
-0.0051089982 -0.0011530617 0.0017279661
-0.0051041692 -0.00086974876 -0.004757727
-0.0051234239 0.00084409449 -0.0047437083
-0.0068413084 -0.00087815209 -0.0047457633
0.0022400017 -0.0017857132 -0.00075932202
0.0022400005 -0.0017857136 -0.0017203395
0.0069333324 -0.00092857145 -0.003250848
0.0069333324 -0.00092857145 -0.0037491526
0.006868687 0.00083116966 -0.0037491531
0.0051137311 -0.00088235387 -0.0037491517
0.0031288869 -0.00085714378 -0.0047457605
0.006933332 -0.00090109895 -0.0047485009
0.0037333353 -0.0017857135 -0.0007593222
0.0042311125 -0.0017857136 -0.00075932266
0.0051213196 -0.00089858938 0.0021645953
0.0051197158 -0.00087921118 0.0017345184
0.0050834003 0.00083928643 0.0021949152
0.0071217422 -0.00088400568 0.001738287
-0.0032355608 -0.0017857136 -0.00026101718
-0.0030630452 -0.0011547613 0.0012352166
-0.0037333323 -0.0017857131 -0.00026101718
-0.0030775312 -0.0011564625 0.00073446298
-0.00089535356 -0.0011688315 0.0022305087
-0.0010737783 -0.0011476186 0.0021877962
-0.0010952115 -0.001160966 0.001729195
-0.00092289847 0.00082919275 0.0021887252
-0.00091733312 0.00082381006 0.0017322036
-0.00085894769 -0.00086466264 0.0017322025
0.00074666733 -0.0017857135 -0.0012576275
-0.00096000003 0.00085714285 0.0025508474
-0.00094577769 0.0010857143 0.0021949157
0.0011525364 -0.0011590305 0.0022063314
0.0011524181 -0.0011638663 0.0017322029
0.0029511114 -0.0011428574 0.0012338983
0.0029511114 -0.0011428574 0.0017322036
0.0029511114 -0.0011357144 0.0021023727
-0.0051138205 -0.0011552802 0.0012338983
-0.0057244534 -0.0017857139 -0.0002610173
-0.0052266661 -0.0017857132 -0.00026101747
-0.0067199869 -0.0017857135 -0.0012576263
-0.0067204749 -0.0017849872 -0.0017211831
-0.0062222183 -0.0017857138 -0.0017203377
-0.0062222201 -0.0017857136 -0.0012576263
-0.0057244464 -0.0017857138 -0.0017203372
-0.0068498207 -0.0011586384 -0.0047333483
-0.0068977773 0.00091666664 -0.0047279662
-0.0077511095 -0.00028571475 -0.0012576274
-0.0077511077 0.00021428606 -0.0012576275
-0.0077511114 0.00021428605 -0.00075932202
-0.0077511114 -0.00078571384 -0.0012576273
-0.0077511049 -0.00028571475 -0.0017203372
-0.0077319709 -0.0012774726 -0.0012576269
-0.007665806 -0.0017386822 -0.00026277424
-0.0076647601 -0.0017408156 -0.00075932208
0.0028541954 0.0011255768 -0.0047486355
0.0011029708 0.0011233089 -0.0047420156
-0.0029155561 0.00082142901 -0.0047457633
-0.0028800021 -0.00088265364 -0.0047457619
-0.0028800019 -0.0008826534 -0.0042474582
-0.0029155561 0.0008214289 -0.0042474577
-0.0031232736 0.0011353388 -0.0047457628
-0.0049155555 0.0011160708 -0.0042474577
0.0030577781 0.0011507937 -0.0050700563
-0.0011431263 0.00083185948 -0.0047501735
-0.0011351436 0.00082936615 -0.0042474568
-0.00092717941 0.00082142843 -0.0051181223
0.0010632261 0.0011152074 -0.0051246583
-0.0029511114 0.0010833334 -0.0050542373
-0.0011464498 0.001105401 -0.0051503098
-0.003119013 0.0010932538 -0.0050858762
-0.00091902068 0.00082324509 -0.0032436079
-0.00086613355 -0.00085828657 -0.0032440138
-0.00067555555 0.00016071428 -0.0020406782
-0.00091259246 0.00082539732 -0.0027525423
-0.00085894769 -0.00086466258 -0.0027525432
0.00086044462 0.00082857237 -0.0032508473
0.00086044427 0.00082857237 -0.0037491531
0.00086044468 0.00082857249 -0.0027525425
-0.0072125825 0.0017456438 -0.00029661
0.00088444434 0.0017098214 -0.0020406782
0.0010577778 0.0016875 -0.0020406779
0.0011050954 0.0011161622 -0.0037491533
0.0010962965 0.0011147963 -0.0032694908
0.00086022401 0.0011306762 -0.0037491543
0.0030968015 0.00083885103 -0.0037526262
0.0048448713 0.00082940463 -0.0037470802
0.0068800002 0.0011250003 -0.0042474591
0.0050740615 0.0011243986 -0.0042594573
0.0076724594 0.0017251079 -0.00075932208
-0.0077510974 0.00071428483 -0.0007593222
-0.0077511086 0.00071428472 -0.0012576273
0.00095999998 -0.0011428574 -0.0042474577
0.00095999998 -0.0011428572 -0.0037491524
0.0011341223 -0.0011702279 -0.0037491529
0.00091229269 -0.00085443078 -0.0047475644
0.0010882155 0.00084090978 -0.0037588598
0.00091474754 -0.00085714314 -0.0042474582
0.00091474719 -0.00085714343 -0.0037491533
0.00086044468 0.00082857249 -0.0042474573
0.00095999992 -0.0011224489 -0.0050915256
0.00095676765 -0.0011396105 -0.0047489982
0.0011524183 -0.0011638663 -0.0047457633
-0.0028609207 -0.001155052 -0.0051051672
-0.0028725136 -0.00090413529 -0.0051016957
-0.0048731426 -0.00092653057 -0.0051138983
-0.0010615874 -0.0011530614 -0.0051186439
0.0010311111 0.00089285709 -0.0051372889
0.004942222 -0.00082142861 -0.0050305082
-0.0030666671 -0.0011517853 -0.0042474587
-0.0048426623 -0.0011714294 -0.0042474573
-0.0030666671 -0.0011517853 -0.0037491529
-0.0048426623 -0.0011714294 -0.003749154
-0.00089535344 -0.0011688315 -0.0042474573
-0.00087215699 -0.000852942 -0.0037491538
0.00091474765 -0.00085714326 -0.0032508471
-0.0029155561 0.0008214289 -0.0032508464
-0.0028800019 -0.00088265364 -0.0032508471
-0.0029155561 0.00082142901 -0.0027525427
-0.0028800021 -0.00088265375 -0.0027525425
-0.0022399994 -0.00028571446 -0.00043898274
-0.0022400003 -0.00083150179 -0.00027926976
-0.0028384381 -0.00086871331 0.00022826449
0.0032355557 0.0019999989 -0.00026101695
0.0037333332 0.0019999989 -0.00026101695
0.0030903385 0.0011300758 0.0012316506
0.0030994862 0.0011250007 0.0007301172
0.0048543783 0.001130253 0.0017322025
0.0011069627 0.0011238102 -0.0042474591
0.0053688888 7.1428563e-05 -0.0020406779
0.0062222178 0.00021428606 -0.0017203388
0.0068686875 0.00083116966 -0.002752542
-0.0051125195 -0.00088283268 0.002197413
-0.0051226201 -0.00086764799 0.0017374377
-0.0028546047 -0.001163266 0.00073559303
-0.0027377703 -0.0017857135 -0.00026101724
-0.0017422215 -0.0017857132 -0.0002610173
-0.0010933338 -0.0011339281 0.00073559303
0.0079999957 0.00021428568 -0.0012576274
0.0070933271 0.0011231535 0.00073006994
0.0031311964 -0.0011604826 0.0021750375
0.0031217765 -0.0011714294 0.0017322029
0.0030872161 0.0011305689 0.0017513393
0.0027377778 0.0019999989 -0.00026101695
0.0030744446 0.0011450892 0.002157097
-0.0072177863 -0.0017857132 -0.0007593222
0.0069333334 -0.0011071428 0.0020525423
0.0050898106 -0.0011495951 0.0021593221
-0.0048588961 -0.00087373803 0.002184489
-0.0030944271 -0.00089011004 0.0021450843
-0.0028800019 -0.00088265364 0.0012338986
-0.0028800012 -0.00088265364 0.0017322029
-0.0011022222 -0.00089560484 0.0012338986
-0.0011390703 0.00083311799 0.0017315561
-0.0011390703 0.00083311799 0.0012332518
0.0022400001 0.0019999992 -0.0017203388
0.0028444445 0.0017142857 -0.0020406779
0.002240001 0.001749999 -0.0017203386
-0.0071217716 -0.0008790826 -0.0027555944
-0.0070883753 0.00085948542 -0.0037468188
-0.0062222225 0.0020000001 -0.0016491523
-0.0062222215 0.0019999989 -0.00075932208
-0.0032299296 -0.0017835919 -0.0017277403
-0.0027438658 -0.0017795908 -0.0017369501
-0.0027377692 -0.0017857135 -0.0012576267
-0.0028778771 -0.0008987207 0.002158259
-0.00288 -0.0011071428 0.0025152543
-0.0030775312 -0.0011523805 0.0021529945
-0.004942222 -0.001095238 0.002538983
0.002851557 0.00082857249 0.00073559314
-0.0027377708 -0.0017857135 -0.00075932214
-0.0022400012 -0.0017857135 -0.0012576275
-0.0032355594 -0.0017857135 -0.00075932266
-0.0037333351 -0.0017857135 -0.00075932231
-0.0042311097 -0.0017857135 -0.00026101712
-0.0068458128 -0.0011593413 0.0017322027
-0.0050954395 -0.00087013061 -0.0042422805
-0.005101514 -0.0011457145 -0.004754304
-0.0048775729 0.00082467613 -0.0032508466
0.00095999998 -0.0011428574 -0.0032508476
0.001152418 -0.0011638661 -0.0027525425
0.0011555556 -0.0015892857 -0.0020406779
0.0017422205 -0.0017857134 -0.0017203379
0.0013561904 9.1836737e-05 -0.0020406779
0.0011582902 -0.00087133783 -0.0027529998
0.0011480058 -0.0008688856 -0.0032454834
0.0029111733 -0.00085714326 -0.0032527968
0.0049106157 -0.00084127026 -0.0032508476
0.0049106153 -0.0008412702 -0.0037491524
0.0031288867 -0.00085714378 -0.0032508464
0.0048426623 0.00082857249 -0.0032508469
0.0049106157 -0.00084127014 -0.0027525416
0.0048426623 0.00082857249 -0.002752542
0.0017422229 -0.0017857132 -0.001257627
0.0022399998 -0.0017857131 -0.0012576274
0.0037333351 -0.0017857132 -0.0012576275
0.0062222178 -0.00028571475 -0.0017203393
0.0069333324 -0.00092857145 -0.0027525423
0.0076890602 -0.0012722686 -0.00031154533
0.0076517202 -0.0016737917 -0.00030866126
0.0080000004 -0.001095238 -0.00039152539
0.0070644915 -0.00111746 0.00073242933
0.0079999994 -0.00082773104 -0.00031335995
0.0051137302 -0.00088235363 -0.0032508462
0.0050779823 0.00083116966 -0.0032508471
0.0051137297 -0.00088235387 -0.0027525413
0.0050779828 0.00083116966 -0.0037491519
0.0051137302 -0.00088235375 -0.0042474577
0.0049106162 -0.00084127014 -0.0042474582
0.0031217767 -0.0011714294 -0.0042474573
0.004942222 -0.0010714285 -0.0042474573
0.0031256552 -0.0011645029 -0.0047371327
0.007103995 -0.00088571501 -0.0042474573
0.0029125947 -0.00085714308 -0.0027515532
0.0050817477 0.00083363557 0.0012347996
0.0068686884 0.00083116966 0.0012338983
0.0051152646 -0.00088154845 0.0012350851
0.0049039321 -0.00085714279 0.0021155153
0.0031288874 -0.00085714384 0.0017322034
0.0049003316 -0.00084344455 0.0017419546
0.0069333324 -0.00092857145 0.0012338983
0.0069333324 -0.00092857145 0.00073559326
0.0068686875 0.00083116966 0.00073559291
0.0080000004 -0.00028571428 -0.00043898309
0.0080000004 -0.0011043957 -0.00075932202
-0.0010933337 -0.001133928 0.0012338981
-0.00089535367 -0.0011688315 0.0012338983
-0.0012444458 -0.0017857139 -0.00026101677
0.00024888883 -0.00083150179 -0.00027926994
0.00024888883 -0.00028571446 -0.00043898274
-0.00085894729 -0.00086466264 0.00073559314
-0.00024888868 -0.00083150179 -0.00027926976
0.0010615877 0.00083673501 0.0017322032
-0.00085894729 -0.00086466246 0.0012338986
-0.001102222 -0.00089560496 0.0017322036
0.0017422226 -0.0002857144 -0.00043898274
0.0017422205 -0.00083150173 -0.00027926971
0.0022400003 -0.00083150167 -0.00027926971
0.0012444447 -0.0017857135 -0.00075932231
0.0012444468 -0.0017857135 -0.00026101677
-0.00024888921 -0.0017857136 -0.0007593215
-0.00024888874 -0.0017857138 -0.0012576275
-0.00074666704 -0.0017857139 -0.00075932167
-0.0007466668 -0.0017857136 -0.000261017
-0.00074666721 -0.0017857135 -0.001257627
-0.0012444458 -0.0017857138 -0.0012576277
-0.00089535344 -0.0011688314 0.0007355928
0.00095999998 -0.0011428574 0.0012338981
-0.00089535321 -0.0011688315 0.0017322032
0.0029511114 -0.0011428574 0.00073559314
0.00095999998 -0.0011428574 0.0017322036
-0.0048601669 -0.0011703303 0.0012338986
-0.0048612994 -0.0011650252 0.00074050215
-0.0047288896 -0.0017857135 -0.00026101718
-0.0062222285 -0.0017857135 -0.0007593222
-0.0062222201 -0.0017857136 -0.0002610173
-0.0067199888 -0.0017857136 -0.00026101706
-0.0057244482 -0.0017857135 -0.0012576283
-0.0052266633 -0.0017857132 -0.0012576273
-0.0072165355 -0.0017838229 -0.00026290148
-0.0062222201 0.00021428583 -0.00043898274
-0.0057244459 0.00077731098 -0.00029242248
-0.0062222229 0.00077731081 -0.0002924226
-0.0067200032 0.00021428583 -0.0004389828
-0.0069333324 0.00092857145 0.00073559314
-0.0077511114 -0.00028571475 -0.00075932255
-0.0077511086 -0.00078571372 -0.00075932156
-0.0071264142 -0.00088144944 -0.0032523302
-0.0051223747 0.00084285822 -0.002752543
-0.0062222201 0.00021428602 -0.0017203372
-0.0052244444 0.00025892857 -0.0020406775
-0.0057244487 0.00021428603 -0.0017203372
-0.0052217408 -0.0017821775 -0.0017277389
-0.0072139469 -0.0017818597 -0.0017100973
0.0028580083 0.00082916149 -0.0047531012
0.0029056016 -0.00086000015 -0.0047419677
-0.0049171248 0.0011134449 -0.0047248243
-0.0011362089 0.001133929 -0.0032492757
-0.0029368885 0.0010857141 -0.0032508471
-0.0011486615 0.0011321678 -0.0027491532
-0.0011390472 0.00082461844 -0.0032463979
-0.0029155561 0.00082142901 -0.0037491529
0.0031006432 0.0011234988 -0.0047457633
-0.0002488888 0.00021428586 -0.0004389828
-0.00090562069 0.00083298376 0.00073663983
-0.00093211321 0.0011064421 -0.0037617143
-0.0011321637 0.0011353388 -0.0037491531
-0.00093629636 0.0010833329 -0.0032508473
-0.0011006419 -0.00089444499 -0.0047433889
-0.00092444423 0.00082142901 -0.0047457623
-0.001068089 -0.00088857138 -0.0050846101
-0.00094577781 0.0010857143 -0.0050661019
-0.00094015506 0.0011046508 -0.0047176196
0.00086402905 0.0011265975 -0.0047405548
-0.0029292309 0.00080769224 -0.0050688395
-0.0030737168 -0.0008793103 -0.0050820569
-0.0031037705 -0.00087483687 -0.0047418447
-0.0031345014 0.0008214296 -0.0047345213
0.00024888865 -0.0017857128 -0.0012576266
-0.00093629636 0.001083333 -0.0027525425
-0.0011496291 0.00082619156 -0.00275017
-0.0010947804 -0.00089119654 -0.0027575081
-0.0067200018 0.0019999989 -0.0007593222
0.00086089259 0.0011282347 -0.002754224
0.00024888883 0.001749999 -0.0017203386
0.0010913464 0.0011260507 -0.0027399794
0.00086089276 0.0011282347 -0.0032514085
0.0080000004 0.0011006496 -0.0017041606
0.0048543774 0.0011302527 -0.003749155
0.0048523038 0.0011310517 -0.0032473158
0.0042311111 0.0019999989 -0.0007593222
0.0047288891 0.0019999992 -0.00029661023
0.0042235465 0.0019999989 -0.00027010462
0.0076724528 0.0017251074 -0.0012576265
0.006222222 0.0019999992 -0.0017203393
0.0068799993 0.0011250003 -0.0032508462
0.0067140739 0.0019999996 -0.0016906778
0.0068800002 0.0011250004 -0.0027525418
0.0011524181 -0.0011638663 -0.0042474577
0.0012399865 -0.0017814701 -0.0017277382
0.0029058601 -0.00085714302 -0.0037491522
0.004942222 -0.0010714285 -0.0037491526
0.0031217763 -0.0011714294 -0.0037491538
0.004942222 -0.0010714285 -0.0032508471
0.0050973762 -0.0011493509 -0.0032508466
0.0031217772 -0.0011714294 -0.0032508464
0.0029422222 -0.0011339288 -0.0032567799
0.0010982162 0.0008370229 -0.0047186911
-0.0048711109 -0.001607143 -0.0020406779
-0.0047341837 -0.0017797034 -0.0017324341
-0.0051100473 -0.0011428574 -0.0037491524
-0.001100642 -0.00089444488 -0.0032532206
-0.0010851561 -0.0011371423 -0.0027653554
-0.0017422208 -0.0017857138 -0.0017203386
-0.001742223 -0.0017857136 -0.0012576266
-0.0028546045 -0.001163266 -0.0047457633
-0.00089535367 -0.0011688315 -0.0047457637
-0.0010933338 -0.001133928 -0.0042474573
-0.00087215687 -0.000852942 -0.0042474587
-0.00092444423 0.0008214289 -0.0037491533
-0.0027323077 -0.00036263734 -0.0020406777
0.0012444445 0.0019999989 -0.00026101695
0.0007466668 0.0019999989 -0.00026101695
0.00086123502 0.0011269846 0.00073559326
0.00086123473 0.0011269847 0.0012338986
0.001068961 0.0011186633 0.00072525942
0.0048543783 0.0011302528 0.001233899
0.006868687 0.00083116966 -0.0032508473
-0.0049155555 0.0011160708 0.0012338983
-0.0051121037 0.0011269847 0.0012338988
-0.004915555 0.0011160708 0.0017322034
-0.0047288891 0.0019999989 -0.00026101695
0.0079999957 -0.00078571436 -0.0012576276
0.0080000004 -0.0011020408 -0.0016338984
0.0080000004 -0.0011011906 -0.001227966
0.0079999985 -0.0007797617 -0.0016906778
0.0071057011 0.0011177148 -0.0037491531
0.0071065295 0.00083946355 -0.0037491531
0.007104706 0.00083857245 -0.0032472881
0.0010755563 0.00084438827 -0.0032546602
0.0010737784 0.00084285764 -0.0027447767
0.002859087 0.0011218493 -0.0032508455
-0.00074666669 -0.00027472532 -0.0020406782
0.0028705187 0.00082381035 -0.0027501693
0.00112 -0.00093214284 0.0025437283
0.0029237599 -0.00085164834 0.0021301175
0.001151533 -0.00088060577 0.0022076466
0.0030843194 0.00084104703 0.0017301978
0.0031288872 -0.00085714384 0.001233899
0.0030905262 0.0008402263 0.0012301516
0.0031288872 -0.00085714372 0.00073559349
0.0002488888 0.0019999989 -0.000261017
-0.00090089481 0.0011150279 0.00074206421
-0.00024888874 0.001749999 -0.00026101695
-0.00091259257 0.0011133783 0.0012180791
0.00086123479 0.0011269847 0.0017322025
0.0028570823 0.0011233772 0.0012333107
0.0028570832 0.0011233772 0.0017351448
0.0057244445 0.0019999992 -0.00029661023
0.0062222225 0.0019999992 -0.00029661017
0.0042311097 -0.00028571452 -0.0004389828
0.0037333351 0.00021428584 -0.00043898274
0.0042311125 0.00021428583 -0.00043898274
0.0070755524 -0.0011259734 0.0017529121
0.0049422225 -0.0011011906 0.0017618646
0.0049077417 -0.00084415625 0.001242527
-0.0031352092 0.00083968352 0.0021767232
-0.0031463737 0.00082786992 0.0017187819
-0.0030873448 -0.00086842169 0.0017426938
-0.0051094131 0.0011086632 0.0021767395
-0.0031373836 0.001120102 0.0021744412
0.0042311111 0.0019999992 -0.0017203388
0.0037333334 0.0019999992 -0.0017203388
0.0037333332 0.0019999989 -0.0012576277
0.004844652 0.0011339984 -0.0027514396
-0.0031232736 0.0011353389 -0.0032508469
-0.0037333334 0.0019999992 -0.0017203386
-0.0032355557 0.0019999992 -0.0017203386
-0.0048775729 0.00082467613 -0.0027525416
-0.0070694219 0.0010652703 -0.0037552894
-0.006891707 0.0010783968 -0.0037491524
-0.0062222225 0.0019999992 -0.00029661017
-0.0042311102 0.0019999989 -0.00075932208
-0.0042311111 0.0019999992 -0.0017203388
-0.0057170894 0.0020000001 -0.0016552894
-0.0062120622 0.0017336 -0.0016778447
-0.0057189958 0.0017392092 -0.0017089793
-0.0062222215 0.0019999989 -0.0012576277
-0.0030596489 -0.0011654138 -0.0050867083
-0.0028595435 -0.0011555775 0.0021758995
-0.0028546047 -0.001163266 0.0017322027
-0.0030630454 -0.0011547613 0.0017387948
-0.0011582341 0.0011276911 0.0022090541
-0.00094137579 0.0010986391 0.0017322036
-0.0011526118 0.0011319777 0.0017336172
0.002853265 0.0011262863 0.0007338844
0.0027365154 -0.0017838224 -0.00026290113
0.0022399991 -0.00028571446 -0.0004389828
0.0030942329 0.00084086886 0.00073379057
0.003733336 0.00077731092 -0.00029242266
0.00085937133 0.00082749425 0.00073357811
0.00086044456 0.00082857249 0.0012338986
-0.0068413089 -0.00087815215 0.001233899
-0.0069333324 0.00092857145 0.0017322032
-0.0069333324 0.00092857145 0.0012338981
-0.0077511049 -0.00083150144 -0.00027926994
-0.0048775729 0.00082467601 -0.0042474577
-0.005108471 -0.0011438226 -0.0042455345
-0.004915555 0.0011160708 -0.0037491526
-0.0048474073 -0.00086904864 -0.0032508443
-0.003085159 -0.00088177383 -0.0027541786
-0.0048474073 -0.00086904847 -0.002752542
-0.0070666648 0.0010624994 -0.0027525425
0.0011437557 -0.0011668782 -0.0032458068
0.00095999998 -0.0011428572 -0.0027525423
0.0050862036 0.0008350978 -0.0027499052
0.0029511112 -0.0015714286 -0.0020406779
0.0022400019 -0.00028571469 -0.0017203388
0.0022399998 0.00021428605 -0.0017203402
0.005721787 -0.0017664487 -0.0016856324
0.0052266652 -0.0017857142 -0.0012576275
0.0052202283 -0.0017660373 -0.0017043543
0.0057244487 -0.0017857132 -0.0012576275
0.0050973766 -0.0011493509 0.0007355928
0.006933332 -0.001107143 0.0012338983
0.006933332 -0.001107143 0.00073559314
0.0050973762 -0.0011493509 0.0012338981
0.0050973757 -0.0011493509 0.0017322036
0.0067150383 -0.0017558137 -0.0016491518
0.006933332 -0.001107143 -0.0032508478
0.0062157004 -0.0017706418 -0.0016680926
0.0069333324 -0.0010928571 -0.0027525423
0.0062222201 -0.0017857131 -0.0012576284
0.0067150346 -0.0017558133 -0.0012576269
0.0067159566 -0.0017613627 -0.00029903691
0.0072108358 -0.0017219261 -0.00030207291
0.006933332 -0.00089682534 -0.0042500943
0.0051137297 -0.00088235387 -0.0047457628
0.0050817467 0.00083273143 -0.0042528654
0.0049119117 -0.0008395788 -0.0047387602
0.0047257976 0.00026708073 -0.0020406777
0.0048237033 -0.00033333333 -0.0020406779
0.0042303479 -0.0017773251 -0.0017121066
0.0027930865 0.00034920633 -0.0020406779
0.0047299303 -0.0017844571 -0.00026226934
0.0047288882 -0.0017857132 -0.00075932231
0.0052266647 -0.0017857132 -0.00075932196
0.0050799465 0.00082821061 0.0017367087
0.0051046791 0.0011200747 0.00072577421
0.0048448704 0.00082940463 0.00073559314
0.0042311032 0.00077731092 -0.00029242254
0.004942222 -0.0010982142 0.0021326272
0.006933332 -0.001107143 0.0017322034
0.0070994888 -0.000885432 0.00073982181
0.0080000004 0.00021428571 -0.00043898309
0.0079999957 0.00021428571 -0.0007593222
0.0079999957 -0.00028571434 -0.0007593222
-0.0028546043 -0.001163266 0.0012338986
0.00095999998 -0.0011428574 0.00073559326
0.0010531804 0.00085221662 0.0021568676
-0.00091111095 0.0008292417 0.0012283367
0.00091602351 -0.0008571432 0.0017331399
0.0011842133 -0.00085831428 0.00023378734
0.00074666721 -0.0017857132 -0.00026101695
0.0011524181 -0.0011638663 0.0012338988
-0.00024888874 -0.0017857135 -0.00026101712
-0.0012444457 -0.0017857136 -0.00075932138
-0.0071302522 -0.0011318686 0.0012338988
-0.0071302522 -0.0011318686 0.00073559291
-0.0077329795 -0.0012682214 -0.00026973378
-0.0052266619 -0.0017857132 -0.00075932249
-0.0029155568 0.00082142901 0.0012338981
-0.006719993 -0.0017857131 -0.00075932284
-0.0057244515 -0.0017857132 -0.00075932266
-0.0077319616 -0.0012774726 -0.00075932255
-0.0048474073 -0.00086904847 0.0012338986
-0.0030832852 -0.00086801307 0.0012346718
-0.0057244482 -0.00028571469 -0.0017203391
-0.006723335 0.00020801643 -0.0017398668
-0.0068413084 -0.00087815209 -0.0027525423
-0.0051043369 -0.0008716716 -0.0027573688
-0.0051223743 0.00084285822 -0.0032508466
-0.0037333325 -0.0017857138 -0.0012576269
-0.0047288886 -0.0017857131 -0.0012576279
0.0029511114 -0.0008303572 -0.0050572036
-0.00075202924 -0.0017812641 -0.0017293252
-0.0022400005 0.000214286 -0.0017203402
-0.0012586666 -0.00020714286 -0.0020406782
-0.0012009876 0.00030555556 -0.0020406779
-0.0027377775 0.0019999992 -0.0017203388
-0.0022399996 0.0019999992 -0.0017203388
-0.0027377782 0.0019999989 -0.00075932208
-0.0027377778 0.0019999989 -0.0012576277
-0.0068869558 0.001079192 -0.0032740599
-0.002936888 0.0010857141 -0.0037491522
0.0048502972 0.0011318241 -0.0042532431
0.0050666705 0.0011250003 -0.0037491517
0.0031055042 0.0011229094 -0.0042513059
0.0002488888 0.001749999 -0.00026101706
0.00086044456 0.00082857249 -0.0047457633
0.00086022407 0.0011306761 -0.0042474568
-0.0011320433 0.00084792689 -0.005144177
-0.003120241 0.00084362924 -0.0050882287
0.0076732351 0.001722612 -0.0016829993
0.0077124094 0.0012395215 -0.001709671
0.0071027228 0.0011190481 -0.0032450608
0.0071065295 0.00083946355 -0.0027504268
0.0029239212 -0.0011281511 -0.0042453641
0.0031288872 -0.00085714378 -0.0042474577
0.0050973762 -0.0011493509 -0.0037491533
0.006933332 -0.001107143 -0.0037491522
0.0011571711 -0.00087337755 -0.0047457661
-0.0028546045 -0.001163266 -0.0042474568
-0.0010933338 -0.001133928 -0.0037491526
-0.0030788893 -0.0011551338 -0.0047457623
-0.0050666663 -0.0015892857 -0.0020406779
-0.0028800014 -0.00088265352 -0.0037491529
-0.00089535367 -0.0011688315 -0.0037491526
-0.0010615872 -0.0016632652 -0.0020406779
-0.0010918792 -0.0011350643 -0.0032547303
-0.0022400015 -0.0017857136 -0.0017203386
-0.00024888874 -0.0017857134 -0.0017203388
-0.0010901471 -0.0011334226 -0.0047336742
-0.0011022222 -0.00089560507 -0.0037491538
-0.00092444423 0.00082142901 -0.0042474582
-0.00093629613 0.0011086304 -0.0042519071
-0.003265186 0.00027976188 -0.0020406777
-0.0031460917 0.00081451726 -0.0027490978
-0.0012375851 -0.0017811202 -0.0017339573
-0.0030766525 -0.00087566167 -0.003252604
0.001058766 0.0011097877 0.0012325798
0.0032355557 0.0019999989 -0.0007593222
0.0037333332 0.0019999989 -0.0007593222
0.0042311079 0.0017499987 -0.00026101695
0.0037333332 0.0017499989 -0.00026101671
-0.0022400005 -0.0017857131 -0.00075932161
-0.0022400012 -0.0017857129 -0.00026101724
0.0071039945 -0.00088571501 -0.0027525425
0.007103995 -0.00088571501 -0.0032508466
0.0077155577 0.000214286 -0.0017203393
0.007103995 -0.00088571489 -0.003749154
0.0079999957 -0.00078571436 -0.00075932225
0.0062222225 0.00021428583 -0.00043898274
0.0062222253 0.00077731092 -0.0002924226
0.0068800002 0.0011250003 -0.0037491531
0.0028622227 0.00082589377 -0.0032508473
0.0031006432 0.0011234988 -0.0027525427
0.0028590879 0.0011218494 -0.0027525425
0.003064889 0.0016857143 -0.0020406782
0.0050806664 0.0011238608 -0.0027487564
-0.00024888874 0.0019999989 -0.00026101695
-0.0007466668 0.0019999989 -0.00026101695
0.0067200004 0.0019999989 -0.0007593222
0.0067200018 0.0019999989 -0.0012576277
0.0037333353 -0.00083150167 -0.00027926971
0.0042311042 -0.00083150179 -0.00027926994
0.0037333339 -0.00028571446 -0.0004389828
0.0070653949 -0.0011224485 0.0012338981
0.0048483517 0.00083071529 0.0017329149
0.0076786969 -0.0016694258 -0.00075932173
0.0076742196 -0.0016691968 -0.0012487278
0.0072115101 -0.0017100835 -0.00075932255
-0.00024888874 0.00077731087 -0.00029242254
-0.00074666669 0.0019999989 -0.00075932208
0.0032355557 0.0019999992 -0.0017203388
0.0052266666 0.0019999992 -0.0017203388
0.004918518 0.0016547618 -0.0020406779
0.0050577777 0.0016517858 -0.0020406779
0.0047288891 0.0019999989 -0.00075932208
0.0012444446 0.0019999989 -0.0007593222
0.0017422218 0.0019999989 -0.0007593222
0.0027377782 0.0019999989 -0.0012576275
0.0022399998 0.0019999989 -0.0007593222
0.0022400001 0.0019999989 -0.0012576276
-0.0049162391 0.0011085159 -0.0027607558
-0.0047288891 0.0019999992 -0.0017203388
-0.0067200009 0.0019999992 -0.00029661017
-0.0051164227 0.0011240315 0.0017355138
-0.0049176067 0.0011071431 0.0021127774
-0.0062213778 0.001749858 -0.00029562518
-0.0042311116 0.0019999989 -0.0012576277
0.0071054972 0.0020000001 -0.0016772524
-0.0057244455 0.0019999989 -0.0012576275
-0.0052173901 0.0019999989 -0.0002749447
-0.005724445 0.0019999992 -0.00029661023
-0.0052266661 0.0019999989 -0.0007593222
-0.0057220608 0.0017510655 -0.00028173527
-0.0051121041 0.0011269846 -0.0042474596
-0.0051122 0.0011236939 -0.004740553
-0.0067200018 0.0019999989 -0.0012576277
-0.0046933331 0.00012499999 -0.0020406779
-0.0048622233 -0.0011589283 -0.005103474
-0.0010856302 -0.00089285721 0.0021616949
-0.0048888898 0.00083214289 0.0021326274
-0.0048775733 0.00082467613 0.0017322029
-0.0022399998 0.0019999989 -0.0007593222
-0.0017422218 0.0019999989 -0.0007593222
-0.0017422219 0.0019999989 -0.00026101695
-0.0022400001 0.0019999989 -0.00026101695
-0.0017422205 0.0017499992 -0.00026101671
-0.0022400008 0.0017499989 -0.00026101706
0.0017422227 -0.0017857136 -0.0007593222
0.00091474748 -0.00085714314 0.0007355928
-0.0068413084 -0.00087815215 0.00073559303
-0.0062222229 -0.00028571446 -0.00043898274
-0.0062222201 -0.00083150173 -0.00027926988
-0.0071241278 -0.00088028266 0.0017311999
-0.0071252775 -0.00088012085 0.001230414
-0.0077511086 -0.00028571446 -0.00043898274
-0.0048474069 -0.00086904847 -0.0047457623
-0.0048474073 -0.00086904853 -0.0042474577
-0.0030812128 -0.00087337702 -0.0042555477
-0.0048474073 -0.00086904847 -0.003749154
-0.004915555 0.0011160708 -0.0032508464
-0.0048426623 -0.0011714294 -0.0027525427
0.00091474736 -0.00085714314 -0.0027525432
-0.00087530614 -0.0011653297 -0.0027381449
0.0029449279 -0.0011366463 -0.0027494475
0.0062222211 -0.0017857132 -0.00075932301
0.0057244515 -0.0017857138 -0.00075932121
0.004942222 -0.0010873015 0.0012734463
0.004942222 -0.0010714285 0.00073559314
0.007065394 -0.0011224485 -0.0037491526
0.006933332 -0.001107143 -0.0042474573
0.0067200046 -0.00028571446 -0.00043898274
0.0069333324 -0.0011071429 -0.0046745762
0.0050666695 0.0011250003 -0.0032508466
0.004942222 -0.0010714285 -0.0047457628
0.0062222234 -0.0012857141 -0.0017203388
0.0052586664 -0.00037857145 -0.0020406779
0.003732105 -0.0017820059 -0.0017172599
0.0047304393 -0.0017719971 -0.0017097639
0.0031217763 -0.0011714294 -0.0027525425
0.0050967084 0.00084072346 0.0007315015
0.0057244455 0.00077731092 -0.00029242272
0.0057244436 0.00021428583 -0.00043898274
0.0048543774 0.0011302528 0.00073559303
0.0048471685 0.00083026977 0.0012360129
0.006933332 -0.00090571423 0.0017322036
0.0077155544 0.00021428583 -0.00043898274
0.0077155563 -0.0002857144 -0.00043898274
0.0071009481 0.00083673571 0.00073559291
0.0079999957 -0.00028571434 -0.0012576277
0.00024888874 0.00021428583 -0.00043898274
0.0010615879 0.00083673489 0.0012338981
0.0010615878 0.00083673501 0.00073559314
0.0017422201 0.00077731081 -0.00029242254
0.002240001 0.00077731087 -0.00029242266
0.0010311111 0.00089285715 0.0025152543
0.00086044497 0.00082857249 0.0017322032
0.0011582901 -0.00087133778 0.00073513668
-0.0029155561 0.0008214289 0.0017322032
-0.0048474073 -0.00086904853 0.001732202
-0.0030947691 -0.00087878847 0.00073703087
-0.0031713566 0.00082490197 0.00073114387
-0.0062222215 -0.00028571469 -0.0017203388
-0.0062222183 0.00071428518 -0.0017203398
-0.0051136208 -0.0011428575 -0.0027580173
-0.003235559 -0.0017857136 -0.0012576273
-0.0042311097 -0.0017857134 -0.0017203393
-0.0042311097 -0.0017857135 -0.001257627
0.002742626 0.0019999992 -0.0017316639
-0.0029368883 0.0010857141 -0.0027525425
-0.002240001 0.0017499991 -0.0017203386
0.00024888883 0.0019999992 -0.0017203388
-0.0017422221 0.0019999992 -0.0017203388
-0.0012444446 0.0019999992 -0.0017203388
-0.0012444446 0.0019999989 -0.00026101695
-0.0011415599 0.0011347522 -0.0042454381
-0.0012444447 0.0019999989 -0.0007593222
-0.001088 0.0016285714 -0.0020406779
-0.0069333324 0.00092857145 -0.0032508473
0.0057244445 0.0019999989 -0.0007593222
0.0048421207 0.001133517 -0.0047474047
-0.0011976371 0.0008214296 0.0002327828
-0.0017422215 0.0002142858 -0.0004389828
-0.00174222 0.00077731092 -0.00029242242
-0.0022399991 0.00021428583 -0.00043898274
0.0079999967 0.00071428553 -0.0017203386
0.0062222215 0.0019999989 -0.0012576277
0.0029409528 -0.0011258505 -0.004705085
0.0029266663 -0.0011272322 -0.0037536009
0.0012444459 -0.0017857136 -0.0012576275
0.0029058601 -0.00085714326 -0.0042474587
0.0031288869 -0.00085714384 -0.0037491547
0.0050973766 -0.0011493509 -0.0042474573
-0.00089535391 -0.0011688315 -0.0032508466
-0.0028507188 -0.0016890755 -0.0020406782
0.00024888909 -0.0017857136 -0.0017203393
-0.0008888889 -0.0016428571 -0.0020406782
-0.0011022219 -0.00089560484 -0.0042474577
-0.0011338268 0.00082539779 -0.0037491533
-0.0032355557 0.0019999989 -0.0012576275
0.0017422214 0.001749999 -0.00026101695
0.0022400003 0.001749999 -0.00026101695
-0.0017422225 -0.00028571446 -0.0004389828
-0.00174222 -0.00083150173 -0.00027926982
-0.0011022221 -0.00089560507 0.00073559256
-0.0017422237 -0.0017857138 -0.00075932179
0.0079999967 -0.00028571428 -0.0017203384
0.0052260291 -0.0017818982 -0.0002648193
0.0057237963 -0.0017778735 -0.00027078367
0.0030984739 0.00083993206 -0.0032534194
0.0030884626 0.00084344501 -0.0027515665
0.0062222248 0.0017499991 -0.0017203384
0.0037333358 0.0017499991 -0.0017203391
0.0042344383 0.001748883 -0.0017242304
0.0037333346 0.000214286 -0.0017203393
0.0042311074 0.00021428605 -0.0017203409
-0.0011582902 0.0011286632 0.00073604949
0.0067199999 0.0019999992 -0.00029661023
0.0062222173 0.0017499989 -0.000261017
0.0057244468 0.0017499987 -0.00026101689
0.007103995 -0.00088571524 0.001233899
0.005724445 0.0019999992 -0.0017203388
0.0057244441 0.0019999989 -0.0012576277
0.0052266656 0.0019999989 -0.0012576276
0.0012444446 0.0019999989 -0.0012576276
0.00074666686 0.0019999989 -0.0012576275
-0.0047288891 0.0019999989 -0.0012576277
-0.0052157259 0.0019999994 -0.0017066489
-0.003733333 0.0019999989 -0.0007593222
-0.0037333337 0.0019999989 -0.00026101695
0.0071000503 0.0011200487 -0.0027525406
0.0072132344 0.0017442915 -0.0016935233
-0.0057244445 0.0019999989 -0.0007593222
-0.0051178173 0.0011230775 0.00073559326
-0.0047288891 0.0019999989 -0.0007593222
-0.0037333358 0.00077731081 -0.00029242254
-0.0037333351 0.0002142858 -0.00043898274
-0.005132522 0.0008551316 0.0021623299
-0.0029414145 0.0010811689 0.0021463791
-0.0031384502 0.0011300498 0.0017263112
0.00091733347 -0.00085714308 0.0012310511
-0.0068458128 -0.0011593413 0.0012338988
-0.0068458128 -0.0011593413 0.00073559268
-0.0071302536 -0.0011318686 0.0017322027
-0.0068413089 -0.00087815215 0.0017322029
-0.0071275341 -0.00088128168 0.00073510245
-0.0051138201 -0.0011552802 0.00073559268
-0.0048802518 0.00082551094 -0.0047244085
-0.0048426627 -0.0011714294 -0.0047457623
-0.0051121041 0.0011269847 -0.0032508476
0.0072114989 -0.0017100848 -0.0016491527
0.0049106157 -0.00084127038 0.00073559291
0.0072115087 -0.0017100837 -0.0012576263
0.0076753609 -0.0016692559 -0.0016445103
0.0070653935 -0.0011224485 -0.0042474577
0.0070653954 -0.0011224485 -0.0032508471
0.0062222229 -0.00028571446 -0.0004389828
0.0057244422 -0.0002857144 -0.0004389828
0.0067227683 -0.00028228271 -0.00174952
0.0062222183 -0.00083150185 -0.00027926976
0.0057244464 -0.00083150179 -0.00027926976
0.0042311107 -0.0017857138 -0.001257628
0.0047288854 -0.0017857142 -0.0012576269
0.0031288872 -0.00085714372 -0.0027525425
0.0042311097 -0.0012857142 -0.0017203405
0.0077089895 -0.00082802196 -0.00029086025
0.0079999994 0.00077731081 -0.00029242272
-0.0002488888 -0.0002857144 -0.0004389828
0.0008594637 0.00084154448 0.0021961413
0.0017422214 0.00021428583 -0.00043898274
-0.0048501268 -0.00087060989 0.00073909387
-0.0051303478 0.00084220892 0.0017380272
-0.0057244441 0.00021428583 -0.00043898274
-0.0051169298 -0.0011428575 -0.0032534834
-0.0042311084 -0.0017857132 -0.00075932255
-0.0017422199 0.00021428602 -0.0017203398
0.0047288896 0.0019999992 -0.0017203388
0.0047288896 0.0019999989 -0.0012576276
0.0027377778 0.0019999989 -0.00075932208
-0.0031232731 0.0011353388 -0.0027525418
-0.0037333365 0.0017499991 -0.0017203384
0.0012444446 0.0019999992 -0.0017203388
-0.0002488888 0.0019999992 -0.0017203391
0.0071111121 0.0020000001 -0.001257627
-0.0017422201 0.001749999 -0.00172034
-0.0017422223 0.0019999989 -0.0012576274
-0.0012444446 0.0019999989 -0.0012576277
-0.0070666624 0.0010624994 -0.0032508469
-0.0068835556 0.0010771423 -0.0027454239
-0.0062222248 0.0012499994 -0.0017203384
-0.0011492276 0.00083232555 0.0007355928
0.006222222 0.0019999989 -0.0007593222
-0.0037333337 -0.00028571469 -0.0017203388
0.001742222 0.0019999989 -0.00026101695
0.0077155521 -0.00028571469 -0.0017203405
0.0079999967 0.00021428571 -0.0017203388
0.0062183212 -0.0017790316 -0.00028375071
0.0062161083 -0.0012557602 -0.00028117374
0.0031055047 0.0011229094 -0.0032482808
0.00024888874 -0.00028571475 -0.0017203391
0.00069925922 0.00016666666 -0.0020406779
0.0057244436 0.0017499991 -0.0017203384
0.0032355555 0.0019999989 -0.0012576277
-0.0052266661 0.0019999989 -0.0012576275
-0.0042311107 0.0019999989 -0.00026101695
-0.0032355564 0.0019999989 -0.00026101695
-0.0031451348 0.0011277203 0.00073135004
-0.0037333337 0.0019999989 -0.0012576277
-0.003235556 0.0019999989 -0.00075932208
-0.005134793 0.00084134121 0.0007355928
-0.0022400003 0.00077731075 -0.0002924226
-0.0029155561 0.00082142901 0.00073559338
-0.0029368883 0.0010857141 0.0017322036
-0.002936888 0.0010857141 0.0012338981
-0.0011513794 0.0011299142 0.0012315104
-0.0042311111 -0.00028571475 -0.0017203405
-0.0051136967 0.0011244245 -0.0027542657
-0.0051121041 0.0011269846 -0.0037491536
0.0051137302 -0.00088235363 0.00073559291
0.0050133332 -0.0015714286 -0.0020406779
0.0037333346 -0.00028571475 -0.0017203377
0.0042311093 -0.00028571469 -0.0017203372
0.004942222 -0.0010714285 -0.0027525423
0.0022399994 0.00021428583 -0.00043898274
-0.0057244478 -0.00083150185 -0.00027926982
-0.0057244417 -0.0002857144 -0.00043898274
-0.0051083476 -0.00087236607 -0.0032531812
-0.0048426627 -0.0011714294 -0.003250848
-0.0042311042 0.001749999 -0.0017203405
0.0017422218 0.0019999992 -0.0017203391
0.00074666657 0.0019999992 -0.0017203388
-0.00074666669 0.0019999992 -0.0017203386
-0.00024888874 0.0019999989 -0.0007593222
-0.00024888891 0.001749999 -0.0017203395
-0.0022400003 0.0019999989 -0.0012576275
-0.0069333324 0.00092857145 -0.0027525425
0.0022400003 0.0019999989 -0.00026101695
0.0077112406 -0.0012795812 -0.0016516673
0.0042311107 0.0019999989 -0.0012576275
0.00024888865 0.00077731087 -0.00029242242
-0.0031659768 0.00082528382 0.0012313384
-0.0048775733 0.00082467613 0.0012338983
-0.002936888 0.0010857141 0.00073559326
-0.0031451343 0.0011277202 0.0012381419
-0.0027377782 0.0019999989 -0.00026101695
-0.0051238979 -0.00087487057 0.00073559314
-0.0051223757 0.00084285822 0.0012338986
-0.004915555 0.0011160708 0.00073559303
-0.0042311107 0.0017499989 -0.00026101689
-0.0047370158 -0.00031428575 -0.0020406775
-0.0028800012 -0.00088265364 0.00073559268
-0.0042311116 -0.00028571446 -0.00043898274
-0.0042311088 0.00021428583 -0.0004389828
0.0067150332 -0.0017558134 -0.00075932237
0.0032460908 -0.00035185181 -0.0020406777
0.0050973757 -0.0011493509 -0.002752543
0.001742222 0.0019999989 -0.0012576276
0.0017422203 0.0017499989 -0.0017203402
0.00074666669 0.0019999989 -0.00075932208
-0.00074666657 0.0019999989 -0.0012576275
0.00024888877 0.0019999989 -0.0007593222
0.007063413 -0.001111498 -0.002752542
0.0052266661 0.0019999989 -0.0007593222
-0.0051189442 -0.00086993707 0.0012354923
-0.0047288858 -0.0017857132 -0.00075932272
-0.0048775733 0.00082467613 0.00073559268
-0.0042311028 0.00077731092 -0.00029242248
-0.00024888874 0.0019999989 -0.0012576277
0.0002488888 0.0019999989 -0.0012576277
-0.0037333339 -0.00028571446 -0.00043898274
-0.0037333358 -0.00083150179 -0.00027927005
-0.0037333362 0.0017499992 -0.00026101695
-0.0042311074 -0.00083150179 -0.00027926976
