# .PCD v0.7 - Point Cloud Data file format
VERSION 0.7
FIELDS x y z
SIZE 4 4 4
TYPE F F F
COUNT 1 1 1
WIDTH 1187
HEIGHT 1
VIEWPOINT 0 0 0 1 0 0 0
POINTS 1187
DATA ascii
0.024672396 0.0028277775 -0.00091428572
0.02470547 0.0022954904 -0.00091428577
0.023713281 -0.001297451 -0.00022053585
0.023217186 -0.0012974509 -0.00022053579
0.023217186 -0.0022954901 -0.00022053579
0.023217188 0.00029941183 -0.00091428589
0.023217188 0.00029941171 -0.0016080359
0.0032742189 0.0042915689 -0.00091428572
0.0037703125 0.0042915684 -0.00091428583
0.0037703123 0.0037925486 -0.00091428583
0.0032742189 0.003792549 -0.00091428583
-0.014783594 0.0032935292 -0.0012116074
-0.0142875 0.0022954899 -0.00091428583
-0.013692187 0.002694706 -0.00091428577
-0.01476375 0.0022555687 -0.00091428577
0.019248435 0.0050899996 -0.0012116074
0.011211718 0.0047905883 -0.0015089286
0.011707813 0.0047905887 -0.0015089287
0.011211718 0.0042915684 -0.0015089287
0.016271874 0.00079843157 -0.00091428583
0.015279687 0.001297451 -0.00091428583
0.017264061 -0.001297451 -0.00022053579
0.017760158 0.00029941171 -0.00091428583
0.028277345 0.001297451 -0.00091428572
0.027265314 0.0012575294 -0.00091428583
0.029765623 0.0027945098 -0.0012116074
0.030261718 0.0017964706 -0.0012116074
0.015775779 -0.001297451 -0.0022026785
0.015279689 -0.0022954901 -0.00022053579
0.014783592 -0.00079843134 -0.0022026785
0.002778125 -0.001297451 -0.00022053585
0.0032742186 -0.0017964705 -0.00022053579
0.0032742191 -0.001297451 -0.00022053579
0.002778125 -0.0017964706 -0.00022053573
0.011211718 -0.0012974509 -0.0022026782
0.016271874 0.001297451 -0.00091428583
0.017264061 0.0017964706 -0.00091428577
0.020736719 0.0017964706 -0.001608036
0.021728905 0.0017632026 -0.0015750001
0.021232814 0.0017632028 -0.0015750001
0.022225 0.0050899996 -0.0012116074
0.021728907 0.004690784 -0.0015089286
0.021728905 0.0050899996 -0.0012116072
0.020141406 0.0050899996 -0.0015089286
0.021232814 0.0017964706 -0.00091428577
0.020736719 0.001297451 -0.00091428577
0.020736719 0.0017964706 -0.00091428577
0.022721091 0.00029941194 -0.0016080359
0.023217188 0.001297451 -0.0016080358
0.024209376 0.00029941183 -0.00091428577
0.023713281 0.00029941183 -0.00091428572
0.024209373 0.00079843146 -0.00091428583
0.018752342 -0.001297451 -0.00022053585
0.019248437 -0.001297451 -0.00022053579
0.019744532 -0.0012974509 -0.00022053579
0.019744532 -0.00079843123 -0.00022053567
0.01974453 -0.0017964705 -0.00022053573
0.020240622 -0.0017964705 -0.00022053585
0.019266479 -0.00080750434 -0.00022954558
0.018752344 0.001297451 -0.00091428577
0.018752344 0.00079843134 -0.00091428577
0.018752344 0.0017964706 -0.00091428577
0.022721093 -0.0027945098 -0.0022026785
0.022225 -0.0022954901 -0.00022053579
0.022721093 -0.0027945095 -0.00022053579
0.021728909 -0.0032935292 -0.00022053579
0.021232814 -0.003792549 -0.00022053579
0.021728907 -0.0037925486 -0.00022053579
0.01974453 -0.0027945098 -0.0022026782
0.019744532 -0.0032935292 -0.0022026785
0.020240622 -0.0032935292 -0.0022026785
0.021183204 -0.0036927448 -0.0022522321
0.011707813 0.0042915684 -0.0015089287
0.0127 0.0017964706 -0.0016080358
0.017264063 0.0037925486 -0.00091428577
0.017760158 0.003792549 -0.00091428577
0.016767967 0.003792549 -0.00091428577
0.017760158 0.0042915684 -0.00091428577
0.024209373 0.0050899996 -0.0012116072
0.024209378 0.0047905887 -0.0012116072
0.024209375 0.0041917646 -0.0015089288
0.021183204 0.0047406862 -0.0015089287
0.022225 0.004690784 -0.0015089285
0.026789058 0.0042915689 -0.0012116071
0.02926953 0.0032935292 -0.0012116072
0.018256253 0.00029941183 -0.0016080358
0.017760156 0.00029941183 -0.0016080358
0.018256249 0.00079843134 -0.0016080356
0.018752344 0.00079843134 -0.001608036
0.018752344 -0.00079843123 -0.0022026785
0.018752344 0.00029941183 -0.0016080356
0.0127 -0.0017964706 -0.0022026782
0.013791406 0.0027945098 -0.0015089287
0.021728909 0.001297451 -0.0016080358
0.017264061 -0.0022954901 -0.0022026785
0.016767969 -0.0017964705 -0.0022026785
0.017264063 -0.0017964705 -0.0022026782
0.016767969 -0.0022954904 -0.0022026785
0.016767969 -0.0027945098 -0.0022026785
0.017264063 -0.0027945098 -0.0022026785
0.017760158 -0.0017964704 -0.0022026787
0.031551562 -0.001297451 -0.0021035713
0.031551562 -0.00089823519 -0.0021035713
0.028277345 0.0040919608 -0.0015089287
0.02778125 0.0037925486 -0.0015089287
0.031551562 -0.0022954901 -0.0021035713
0.030261718 -0.0030939211 -0.0022026785
0.027285157 -0.0022954904 -0.0022026785
0.027781248 -0.0022954901 -0.0022026785
0.028277343 -0.0022954901 -0.0022026785
0.028277345 -0.0027945098 -0.0022026785
0.028277345 -0.0040919608 -0.0015089286
0.029269531 -0.0036927448 -0.0015089287
-0.028773436 -0.0017964705 -0.0022026785
-0.027781248 -0.0012974511 -0.0022026785
-0.027781254 -0.0017964708 -0.0022026785
-0.029765626 -0.0022954904 -0.0022026785
-0.029269528 0.0027945098 -0.0012116074
-0.029765626 -0.0008982353 -0.00022053579
-0.03033259 -0.0048048459 0.0022288268
-0.030360937 -0.0044911765 0.0022571429
-0.030360937 -0.0044911765 0.0017616071
-0.027285157 -0.0032935292 -0.0022026785
-0.02678906 -0.0036927448 -0.0022026785
-0.02678906 -0.0032935292 -0.0022026787
0.025796875 0.0047905887 -0.0012116072
0.02470547 0.00079843134 -0.0015089286
0.025201561 0.00079843134 -0.0015089288
0.023713281 0.00079843134 -0.00091428577
0.026193749 0.002694706 -0.00091428577
0.026292969 0.0022954904 -0.00091428583
0.02582168 0.0022954904 -0.00091428589
0.024209376 0.0022954899 -0.00091428589
0.025796875 0.0036927448 -0.00091428577
0.026292969 0.0017964706 -0.00091428577
0.026739452 0.0018463725 -0.00091428577
0.02926953 -0.001297451 -0.00022053579
0.030757807 -0.0022954904 -0.00022053579
0.030360937 -0.0044911765 0.0022571429
0.031253904 -0.0017964705 -0.00022053585
0.028773436 0.0042915693 -0.0012116071
0.019248439 0.0032935292 -0.00091428577
0.020240624 0.0022954904 -0.00091428583
0.01974453 0.0027945098 -0.00091428577
0.021232814 0.0027945098 -0.00091428583
0.022721093 0.003792549 -0.00091428572
0.023217186 0.0037925486 -0.00091428577
0.023713281 0.0047905878 -0.0012116074
0.025201561 0.00079843134 -0.00091428572
0.024705468 0.0017964706 -0.00091428577
0.02470547 0.001297451 -0.00091428577
0.025201561 0.0017964706 -0.00091428577
0.024209373 0.001297451 -0.00091428583
0.023713281 0.003792549 -0.00091428572
0.024209376 0.0032935292 -0.00091428577
0.023217186 -0.00079843134 -0.00022053579
0.022721093 0.0027945098 -0.00091428577
0.023217186 0.0017964706 -0.00091428583
0.023217186 0.0032935292 -0.0015089288
0.023217186 0.0027945098 -0.0015089288
0.023713281 0.0032935292 -0.0015089288
0.020736719 -0.0027945093 -0.0022026785
0.020736719 -0.0032935292 -0.002202678
0.023018749 -0.0044911765 0.0012660713
0.023713281 -0.0032935292 -0.00022053585
0.023713281 -0.0037925486 -0.00022053579
0.021232814 -0.0027945098 -0.0022026785
0.021232812 -0.0032935292 -0.0022026787
0.022225 -0.0027945098 -0.00022053585
-0.015279686 -0.0050899996 0.0026535715
-0.015200311 -0.0047706272 0.0026932145
-0.015239999 -0.0048105493 0.0022571427
-0.015279688 -0.0050899996 0.0017616071
0.0025796874 -0.0050899996 0.0026535715
0.0051593748 -0.0050899996 0.0026535715
0.0049609374 -0.0050899996 0.0026535715
0.0051593748 -0.00475732 0.0027196428
0.0049609374 -0.0050899996 0.0022571429
-0.0052585937 -0.0047905887 0.0022571429
-0.0051593748 -0.0043913722 0.0022571429
-0.0025796874 -0.0047905883 0.0026535715
-0.00238125 -0.0047905883 0.0026535715
-0.0025796874 -0.0050899996 0.0026535715
0.021728907 -0.0050899996 -0.00022053567
0.022225 -0.0050899996 -0.00071607158
0.022225 -0.0050899996 -0.00022053579
0.023018749 -0.0050899996 0.00077053567
0.0127 -0.0017964704 -0.00022053579
0.012700003 -0.0012974511 -0.00022053579
0.014299174 -0.0032817875 -0.00022636564
0.014783594 -0.0032935292 -0.00022053585
0.014783592 -0.0027945098 -0.00022053579
0.014287501 -0.0027945098 -0.00022053579
0.013791406 -0.0022954901 -0.00022053585
0.013295311 -0.001297451 -0.00022053579
0.013295314 0.0022954904 -0.00091428577
0.012203906 0.001297451 -0.00091428572
0.012203906 0.00079843134 -0.00091428577
0.012203907 -0.00079843123 -0.00022053573
0.012700002 0.001297451 -0.0016080358
0.012203906 0.0017964706 -0.00091428577
0.011707813 0.0017964706 -0.00091428577
0.023713281 -0.0017964705 -0.0022026785
-0.00079374999 0.0050899996 -0.0012116074
0.00017008936 0.0042345379 -0.00091428583
-0.00029765622 0.0050899996 -0.0012116072
0.0022820313 -0.0017964704 -0.00022053573
0.0022820311 -0.0022954901 -0.00022053585
0.0022820309 -0.001297451 -0.00022053585
0.0017859375 -0.0017964706 -0.00022053579
0.0032742186 -0.00079843123 -0.00022053567
-0.002778125 0.0041917646 -0.00091428572
-0.0022820313 0.0041917646 -0.00091428577
-0.0022820313 0.0050899996 -0.0012116071
-0.0032742186 0.0050899996 -0.0012116072
-0.0032742186 0.0041917646 -0.00091428572
-0.0032742186 0.003792549 -0.00091428572
-0.002778125 0.0050899996 -0.0012116072
-0.0052585937 0.0041917646 -0.00091428577
-0.0052585937 0.0050899996 -0.0012116072
-0.0047625001 0.0050899996 -0.0012116072
-0.0057546869 0.0050899996 -0.0012116072
-0.006250781 0.003792549 -0.00091428583
-0.0062507815 0.0032935292 -0.00091428572
-0.0057546878 0.0032935292 -0.00091428589
-0.0057546874 0.0027945093 -0.00091428577
-0.006250781 0.0027945098 -0.00091428572
-0.0067468751 0.0032935292 -0.00091428577
0.022225 0.0027945098 -0.0015089288
0.019744532 0.0042915684 -0.00091428577
0.020240625 0.0037925486 -0.00091428583
0.021232814 0.0042915684 -0.00091428583
0.018752344 0.003792549 -0.00091428577
0.017760158 0.004690784 -0.00091428583
0.016767967 0.004690784 -0.00091428577
0.018256249 0.0042915689 -0.00091428589
0.012203906 0.004690784 -0.00091428572
0.012699999 0.0037925486 -0.00091428577
0.015775781 0.003792549 -0.00091428572
0.015775779 0.0032935292 -0.00091428583
0.013791406 0.0042915684 -0.00091428577
0.013791407 0.004690784 -0.00091428577
0.013295312 0.004690784 -0.00091428572
0.016271874 0.0027945098 -0.00091428583
0.011707813 0.0050899996 -0.0015089286
0.012203906 0.0050899996 -0.0015089286
0.018752344 0.0027945098 -0.00091428583
0.020736719 -0.0027945098 -0.00022053579
0.020240624 -0.0027945098 -0.00022053585
0.020306772 -0.0044246404 0.00077053567
0.017760156 -0.0022954901 -0.00022053579
0.017760158 -0.0027945098 -0.00022053585
0.018057812 -0.0047905883 0.0017616071
0.017760158 -0.0044911765 0.0012660713
0.017760158 -0.0044911765 0.0017616071
0.017760158 -0.0044911765 0.0022571429
0.017760158 -0.0032935292 -0.00022053585
0.014783593 0.0017964706 -0.00091428572
0.014287499 0.0017964706 -0.00091428583
-0.0017859377 0.0041917646 -0.00091428577
-0.0017859375 0.0050899996 -0.0012116072
-0.0012898438 0.0050899996 -0.0012116072
0.0057546874 0.0050899996 -0.0012116074
0.006250781 0.0050899996 -0.0015089286
0.0067468751 0.0050899996 -0.0012116074
0.0057546874 0.0050899996 -0.0015089286
0.0052585937 0.0050899996 -0.0012116071
0.0058539063 0.004690784 -0.00091428577
0.0022820313 0.0050899996 -0.0012116072
0.0017859375 0.0050899996 -0.0012116074
0.002778125 0.0042915684 -0.00091428583
0.002301875 0.0042516468 -0.00091428572
0.0017859377 0.0047905887 -0.0012116074
0.021232814 0.0050899996 -0.0012116074
0.020736719 0.0047905878 -0.0015089286
0.022225 0.0042915684 -0.00091428577
0.017264063 0.0050899996 -0.0015089285
0.017264063 0.0050899996 -0.0012116072
0.016767967 0.0050899996 -0.0015089286
0.017264061 0.0047905878 -0.0015089288
0.010219531 0.0042915684 -0.00091428577
0.010219531 0.004690784 -0.00091428572
0.009723437 0.004690784 -0.00091428572
-0.021728909 0.0042915684 -0.0012116072
-0.021232814 0.0047905887 -0.0012116074
-0.021232812 0.0042915689 -0.0012116072
0.007739062 0.00029941183 -0.0016080358
0.0082351565 0.00029941183 -0.0016080358
0.0072429688 0.00029941183 -0.001608036
0.0072429683 0.00079843134 -0.001608036
-0.017264063 0.00079843134 -0.00091428572
-0.017760156 0.00029941183 -0.00091428577
-0.020339843 -0.0044911765 0.0022571429
-0.022225 0.00079843146 -0.00091428572
-0.022225 0.001297451 -0.0012116072
-0.021728907 0.0017964706 -0.0012116074
-0.022721093 0.0017964706 -0.0012116072
-0.022185314 0.0021757255 -0.0015089287
-0.021728907 0.0012475491 -0.0015584823
-0.022225 0.0027945098 -0.0012116074
-0.022721093 0.0027945098 -0.0012116074
-0.024181027 0.00078417372 -0.001537245
-0.024209375 0.001297451 -0.0015089288
-0.023713281 0.001297451 -0.0015089288
-0.021728909 0.0037925486 -0.0012116072
-0.021232814 0.003792549 -0.0012116074
-0.02123281 0.0032935292 -0.0012116072
-0.020736719 0.0037925486 -0.0012116072
-0.020736719 0.0047905883 -0.0012116072
-0.020240624 0.0050899996 -0.0012116072
-0.020240622 0.0047905887 -0.0012116072
-0.020240625 0.004690784 -0.0015089285
-0.019248437 0.0042915689 -0.0012116072
-0.018752344 0.0047905887 -0.0012116072
-0.019248439 0.0047905887 -0.0012116074
-0.018752344 0.0042915684 -0.0012116074
-0.0047625001 0.00079843134 -0.00091428572
-0.0047625005 0.00029941183 -0.00091428583
-0.0042664064 0.00029941183 -0.00091428577
-0.0042664064 0.00079843134 -0.00091428572
-0.0042664064 0.001297451 -0.00091428577
-0.0047625001 0.001297451 -0.00091428583
-0.0057546878 0.0022954904 -0.00091428583
-0.0052585937 0.0022954904 -0.00091428577
-0.025201561 -0.0037925486 -0.0023017859
-0.025201561 -0.0027945098 -0.0022026785
-0.025201565 -0.0022954901 -0.0022026785
-0.024705468 -0.00089823524 -0.0022026785
-0.025796875 -0.0042915689 -0.0015089288
-0.02629297 -0.0042915684 -0.0015089288
-0.026292969 -0.0050899996 -0.0012116072
-0.0052585937 0.0017964706 -0.00091428577
-0.0057546874 0.0017964706 -0.00091428577
0.0032742184 -0.0022954904 -0.0022026787
0.0027781248 -0.0027945098 -0.0022026785
0.0037703125 -0.0017964705 -0.0022026785
0.003770313 -0.0022954901 -0.0022026789
0.0022820313 -0.0027945098 -0.0022026785
0.0027781248 -0.0032935292 -0.0022026785
0.0017859375 -0.0036927448 -0.0023017856
0.0012898438 -0.0017964704 -0.0022026785
0.00079375011 -0.0017964705 -0.0022026787
0.0012898436 -0.0012974509 -0.0022026785
0.0013229167 -0.0047905878 -0.00025357143
0.00079375011 -0.0032935292 -0.00022053585
-0.00019843754 -0.0044911765 0.00077053567
6.6145847e-05 -0.0044246404 0.0012660713
-0.00029765634 -0.0032935292 -0.00022053573
0.0013229165 -0.0042915684 -0.00025357143
0.00238125 -0.0044911765 0.00077053567
0.00079374999 -0.0032935287 -0.0022026785
0.00019843754 -0.0032935292 -0.00022053585
0.00019843742 -0.0027945095 -0.00022053579
-0.0032742186 -0.0047905887 -0.001608036
-0.002778125 -0.0047905887 -0.0016080356
-0.002778125 -0.0050899996 -0.0015089286
-0.0032742186 -0.0050899996 -0.0015089286
9.9218742e-05 -0.0047905887 0.0012660713
9.9218742e-05 -0.0047905883 0.00077053567
0.0012898438 0.001297451 -0.00091428577
0.00079374993 0.0012974512 -0.00091428583
0.00079374999 0.00079843146 -0.00091428583
0.0012898438 0.00079843123 -0.00091428577
0.00079374999 -0.00089823524 -0.00022053579
0.0018355469 -0.00084833323 -0.00022053567
0.0032742186 0.0017964706 -0.001608036
0.0032742189 0.0022954904 -0.001608036
0.002778125 0.0022954904 -0.0016080358
-0.007739062 0.0042915689 -0.0012116074
-0.0072429688 0.003792549 -0.00091428583
-0.0072429688 0.0042915684 -0.0012116072
-0.0072429688 0.0047905883 -0.0012116074
-0.024209375 -0.00089823524 -0.0022026785
-0.023693439 -0.0012774902 -0.0021828567
-0.021728907 0.00079843134 -0.0016080359
-0.022225 -0.00089823524 -0.0022026785
-0.021761978 -0.00089823519 -0.0021696428
-0.028773436 -0.00033933332 -0.0015882143
-0.02678906 0.00079843134 -0.0015089288
-0.026590625 0.0011976472 -0.0015089286
-0.026292969 0.0010978432 -0.0015089286
-0.025598437 0.0016966666 -0.0015089286
-0.021034375 0.0027945098 -0.0015089287
-0.02424906 -0.001297451 -0.0021828569
-0.024209373 -0.0022954904 -0.0022026785
-0.02470547 -0.0017964704 -0.0022026785
-0.024705468 -0.0027945095 -0.0022026782
-0.023713281 -0.0022954901 -0.0022026782
-0.023713281 -0.0027945098 -0.0022026785
-0.023217186 -0.00089823524 -0.0022026785
0.0062507815 0.0042915684 -0.0015089288
0.0057546874 0.0047905883 -0.0015089288
0.0057546878 0.0042915689 -0.0015089288
0.0057546874 0.0032536075 -0.0015882143
0.0067468742 0.00029941183 -0.0016080359
0.0067468737 0.00079843146 -0.0016080359
0.0067468747 -0.0007984314 -0.0022026785
-0.012203907 0.00029941183 -0.0016080356
-0.012203906 -0.00089823513 -0.0022026785
-0.012699999 -0.00089823524 -0.0022026785
-0.0127 0.0050899996 -0.0012116074
-0.012203906 0.0047905883 -0.0015089287
-0.012699999 0.0047905878 -0.0015089288
-0.017760158 0.0047905883 -0.0012116072
-0.018256249 0.0047905887 -0.0012116074
-0.016271874 0.0050899996 -0.0012116072
-0.015775781 0.0050899996 -0.0012116072
-0.016271874 0.0047905887 -0.0012116072
-0.01974453 0.0050899996 -0.0012116071
-0.018752344 0.0048903921 -0.0015089286
-0.0067964843 -0.0037426469 -0.00022053567
-0.0076596881 -0.0044512548 0.00079035712
-0.016271874 -0.00089823524 -0.00022053579
-0.016767969 -0.00089823513 -0.00022053573
-0.016260203 -0.0012857093 -0.00022636564
-0.007662741 -0.0047982656 0.0022723901
-0.013791407 -0.00089823524 -0.0022026785
-0.014287501 -0.00089823524 -0.0022026785
-0.0142875 0.00029941159 -0.0016080358
-0.019248435 -0.0012974511 -0.00022053579
-0.018752344 -0.001297451 -0.00022053579
-0.019248435 -0.00089823524 -0.00022053579
-0.019223634 0.0032685781 -0.0015089288
-0.018752344 0.0032935292 -0.0015089287
-0.01974453 -0.00089823524 -0.00022053567
-0.019744532 -0.0012974507 -0.00022053573
-0.0086915623 -0.003792549 -0.00024035719
-0.0087195765 -0.0043033101 -0.00022636569
-0.011707813 0.0017964706 -0.00091428577
-0.011707813 0.0022954899 -0.00091428589
-0.012203906 0.0017964706 -0.00091428577
-0.012203907 0.0022954904 -0.00091428572
-0.011707813 0.0027945098 -0.00091428577
-0.0096950894 0.0032364982 -0.00091428577
-0.0092273438 0.0027945093 -0.00091428577
-0.0092273438 0.0032935292 -0.00091428577
-0.018057812 -0.0047905883 0.0017616071
-0.017760158 -0.0050899996 0.0017616071
-0.017760158 -0.0050899996 0.0012660713
-0.01805781 -0.0047905887 0.0012660713
-0.018057812 -0.0044911765 0.0017616071
-0.017760156 -0.0047905887 0.0022571429
-0.015240001 -0.0048105489 0.0017616071
-0.017760158 -0.0044911765 0.0017616071
-0.017760158 -0.0044911765 0.0022571429
-0.018752342 -0.0017964705 -0.00022053579
-0.019266479 -0.0017873975 -0.00022954546
-0.021728907 -0.003792549 -0.0023017856
-0.021728907 -0.0047905878 -0.0015089286
-0.021232814 -0.0047905883 -0.0015089287
-0.022721095 -0.0044911765 0.0022571429
-0.022225 -0.0017964705 -0.00022053585
-0.022721091 -0.0022954901 -0.00022053579
-0.022721093 -0.0017964705 -0.00022053573
-0.0254 -0.0050899996 0.0012660713
-0.025300784 -0.0047905887 0.0022571429
-0.025333853 -0.0047905878 0.0027196428
-0.02535039 -0.0050899996 0.0022571429
-0.026789062 0.003792549 -0.0012116074
-0.02629297 0.0042915684 -0.0012116072
0.022721093 -0.0047905883 -0.0015089287
0.022225 -0.0037925486 -0.0023017859
0.021728907 -0.0047905878 -0.0015089286
0.021232814 -0.0050899996 -0.0015089286
0.017760158 -0.0036927448 -0.0022026785
0.016767969 -0.0050899996 -0.0016080358
0.018256251 -0.0032935292 -0.0022026782
0.018752344 -0.0032935292 -0.0022026785
0.018752344 -0.0027945098 -0.0022026787
0.016232187 -0.0036927448 -0.0021828571
0.016271874 -0.0027945098 -0.0022026785
0.015775779 -0.0027945098 -0.0022026785
0.016271872 -0.0022954904 -0.0022026785
0.015775779 -0.0022954904 -0.0022026785
0.014783593 -0.0036927448 -0.0023017856
0.015319374 -0.0036927448 -0.0022225
0.015279688 -0.0047905887 -0.0016080358
0.014287502 -0.0022954904 -0.0022026785
0.014287502 -0.0027945098 -0.0022026782
0.025201567 -0.0022954904 -0.0022026785
0.02470547 -0.0022954904 -0.0022026785
0.025201561 -0.0017964706 -0.0022026785
0.025796875 -0.0027945098 -0.0022026789
0.025796873 -0.0022954904 -0.0022026785
0.024705468 -0.0027945095 -0.0022026785
0.024705468 -0.0017964705 -0.0022026787
0.027285155 -0.0047905887 -0.0012116074
0.0082351565 -0.0036927448 -0.0023017856
0.0087312507 -0.0036927448 -0.0023017856
0.0082351565 -0.0047905883 -0.001608036
0.0077390629 -0.0036927448 -0.0023017856
0.0072429683 -0.0036927448 -0.0023017856
0.0068460936 -0.0036927448 -0.0023017856
0.0072429683 -0.0050899996 -0.0016080356
0.0072429683 -0.0017964705 -0.0022026785
-0.023217186 -0.0037925486 -0.0023017859
-0.022225 -0.0037925486 -0.0023017859
-0.014783592 -0.0047905883 -0.001608036
-0.025189161 0.00027446088 -0.0015956474
-0.026292967 -0.0012974509 -0.0022026785
-0.025825223 0.0012404203 -0.0015089288
-0.025201561 0.001297451 -0.0015089288
-0.026292969 0.00079843134 -0.0015089287
0.0032742189 -0.001297451 -0.0022026785
0.0037703125 -0.001297451 -0.0022026785
-0.011707813 -0.0047905887 -0.001608036
-0.010715625 -0.0050899996 -0.001608036
-0.010715625 -0.0036927448 -0.0023017856
-0.010219531 -0.0036927448 -0.0023017856
-0.009723437 -0.0036927448 -0.0023017856
-0.013791407 -0.0050899996 -0.0012116071
-0.013295311 -0.0050899996 -0.0012116072
-0.013295313 -0.0050899996 -0.00071607158
-0.011211718 -0.0032935292 -0.0022026785
-0.011211719 -0.0027945098 -0.0022026785
0.0042664064 -0.0036927448 -0.0023017856
0.0037703125 -0.0036927448 -0.0023017856
0.002778125 -0.0022954904 -0.00022053579
0.0025796874 -0.0043913722 0.0012660713
0.00238125 -0.0044911765 0.0012660713
0.00238125 -0.0044911765 0.0017616071
0.0037703128 -0.0027945098 -0.00024035713
0.0042664064 -0.0022954904 -0.00022053585
0.0037703125 -0.0022954901 -0.0002403573
0.0051593748 -0.0044911765 0.0022571429
0.0049609374 -0.0044911765 0.0026535715
0.0057546874 -0.0022954901 -0.00022053579
0.0062177083 -0.0022954904 -0.00025357149
0.0057546874 -0.0017964705 -0.00022053579
-0.029765623 0.0027945098 -0.0012116072
-0.027285153 0.00029941183 -0.0015089288
-0.023217188 -0.001297451 -0.00022053585
-0.023217188 -0.0017964708 -0.00022053573
-0.023693439 -0.0012774902 -0.00024035713
-0.023713281 -0.00089823524 -0.00022053573
-0.023217186 0.0017964706 -0.0012116074
-0.023217188 0.001297451 -0.0012116072
-0.023713281 0.0017964706 -0.0012116072
-0.023217186 0.00069862744 -0.00091428583
-0.022721093 0.00079843134 -0.00091428577
-0.022721095 0.00029941183 -0.00091428577
-0.023217186 0.0027945098 -0.0012116074
-0.026292969 -0.0050899996 -0.00022053579
-0.03032125 -0.0048105489 0.0017417858
-0.030559372 -0.0044911765 0.0012660713
-0.030559372 -0.0044911765 0.0017616071
-0.030559372 -0.0044911765 0.00077053567
-0.030360937 -0.0044911765 0.00077053567
-0.027880467 -0.0050899996 0.0017616071
-0.030559372 -0.0044911765 0.0022571429
-0.030559372 -0.0047905883 0.0027526785
-0.02926953 -0.0022954901 -0.00031964295
-0.030559372 -0.0050899996 0.00077053567
-0.030559372 -0.0050899996 0.0012660713
-0.030559372 -0.0050899996 0.0017616071
-0.030360937 -0.0050899996 0.00077053567
-0.030658588 -0.0047905883 0.0012660713
-0.02926953 -0.0050899996 -0.00071607158
-0.02926953 -0.0050899996 -0.00022053579
-0.02877344 -0.0050899996 -0.00071607158
-0.029765623 -0.0050899996 -0.00022053573
-0.030360937 -0.0050899996 0.000275
-0.03032125 -0.0048105484 0.00075071433
-0.030559372 -0.0050899996 0.000275
-0.028178126 -0.0047905883 0.00077053567
-0.028178126 -0.0047905878 0.0012660713
-0.025784474 -0.0032685781 -0.00023292418
-0.02629297 -0.0037925486 -0.00022053585
-0.02629297 -0.0032536075 -0.00024035724
-0.025796875 -0.003792549 -0.00022053573
0.0057546869 -0.0017964705 -0.0022026785
0.006250781 -0.0036927448 -0.0023017856
0.0062507819 -0.0022954904 -0.0022026787
0.0062507815 -0.0050899996 -0.0012116071
0.0057546874 -0.0050899996 -0.0012116072
0.0062507815 -0.0050899996 -0.0016080359
0.0067468751 -0.0047905883 -0.0016080358
0.006250781 -0.0047905883 -0.0016080358
0.0057546874 -0.0047905887 -0.001608036
0.0047625001 -0.0050899996 -0.0012116074
0.0017859375 -0.0050899996 -0.0012116074
0.0057546874 -0.0050899996 -0.001608036
0.0032742186 -0.0050899996 -0.0012116071
0.017760158 -0.0050899996 -0.0015089286
0.017760158 -0.0050899996 -0.0012116072
0.014783594 -0.0050899996 -0.0016080358
0.0087312497 -0.0047905887 -0.0016080356
0.0092273438 -0.0047905878 -0.0016080358
0.0087312507 -0.0050899996 -0.0016080359
0.0017859375 -0.0047905887 -0.0016080358
0.0012898438 -0.0050899996 -0.0012116072
0.013791406 -0.0022954904 -0.0022026785
0.012203907 -0.001297451 -0.0022026785
0.012203907 -0.00079843128 -0.0022026785
0.013295311 -0.00079843117 -0.0022026785
0.013295311 -0.001297451 -0.0022026782
0.0127 0.00079843146 -0.001608036
0.0127 0.0047905878 -0.0015089288
0.013295312 0.0042915689 -0.0015089288
0.012699999 0.0042915684 -0.0015089288
0.017760156 -0.0022954901 -0.0022026785
0.017760158 -0.0027945098 -0.0022026785
0.014783594 -0.0022954901 -0.0022026782
0.014783593 -0.0017964704 -0.0022026782
0.014287501 -0.0017964706 -0.0022026782
0.015279685 -0.0032935292 -0.0022026787
0.014783594 -0.0032935292 -0.0022026782
0.015775779 -0.0032935292 -0.0022026787
-0.025598437 -0.0050899996 0.0017616071
-0.027781248 -0.0050899996 -0.00022053585
-0.027880467 -0.0050899996 0.000275
-0.027880467 -0.0050899996 0.00077053567
-0.02877344 -0.0050899996 -0.00022053573
-0.028277345 -0.0050899996 -0.00022053573
-0.028277345 -0.0050899996 -0.00071607146
0.020339845 -0.0050899996 0.0022571429
0.020339845 -0.0050899996 0.000275
0.020637499 -0.004690784 0.0016625
0.02030677 -0.0044246404 0.0012660713
0.021719888 -0.0043097143 -0.00022954552
0.0049609374 -0.0047905883 0.0017616071
0.0049609374 -0.0044911765 0.0017616071
0.0049609374 -0.0047905878 0.0012660713
0.0049609374 -0.0047905883 0.0026535715
-0.0099218749 -0.0050899996 0.0022571429
-0.0099218749 -0.0047905883 0.0022571429
-0.0099218749 -0.0047905883 0.0017616071
0.0067468751 -0.0050899996 -0.00071607146
0.0077390629 -0.0050899996 -0.00071607158
0.0057546874 -0.0050899996 -0.00022053573
0.0087312507 -0.0050899996 -0.00022053585
0.007639844 -0.0047905878 0.00077053567
0.00871321 -0.0047996617 -0.00022954558
-0.020339843 -0.0050899996 0.0017616071
-0.020258663 -0.0047815153 0.0017525973
-0.02032 -0.0044512548 0.0017417858
-0.020339845 -0.0050899996 0.0012660713
-0.024209373 -0.003792549 -0.00022053579
-0.023722302 -0.0032753833 -0.00022954558
-0.023713281 -0.0037925486 -0.00022053579
-0.024209373 -0.0032935292 -0.00023292424
-0.024209375 -0.0042915689 -0.00022053579
-0.027285155 -0.0050899996 -0.0012116071
-0.020736719 -0.0050899996 -0.0015089287
-0.020736719 -0.0047905883 -0.0015089286
-0.025796875 -0.0050899996 -0.0012116072
-0.022224998 -0.0047905883 -0.0015089287
-0.028773436 -0.0050899996 -0.0011125
-0.023713281 -0.0050899996 -0.00071607146
-0.023217186 -0.0050899996 -0.00071607158
-0.023217186 -0.0050899996 -0.00022053579
0.015775779 -0.0032935292 -0.00022053573
-0.018057812 -0.0047905883 0.00077053567
-0.017760158 -0.0050899996 0.00077053567
-0.018752344 -0.0050899996 -0.00022053579
-0.021728905 -0.0050899996 -0.00022053579
-0.023018749 -0.0050899996 0.00077053567
-0.019248439 -0.0050899996 -0.00022053567
-0.017760158 -0.0050899996 0.000275
-0.018752344 -0.0050899996 -0.00071607146
-0.020240625 -0.0050899996 -0.00022053585
-0.01974453 -0.0050899996 -0.00071607152
-0.01974453 -0.0050899996 -0.00022053573
-0.020280313 -0.0047706277 0.00077053567
-0.019248439 -0.0047905883 -0.00022053585
0.028773436 -0.0027945098 -0.0022026785
0.030559374 -0.0044911765 0.00027500011
0.030757809 -0.0027945098 -0.0022026785
0.031650782 -0.0017964706 -0.00071607163
0.022721095 -0.003792549 -0.0023017856
0.021728909 -0.0012974509 -0.002202678
0.021728907 -0.00079843134 -0.0022026785
0.018256251 -0.0022954901 -0.0022026785
0.022721091 -0.001297451 -0.00022053585
0.022721093 -0.0047905883 0.0017616071
0.024705468 -0.0032935292 -0.00022053585
0.025796875 -0.0047905887 -0.0012116072
0.028178126 -0.0047905878 0.00077053567
0.027880467 -0.0044911765 0.0022571429
0.027880466 -0.0047905887 0.0022571429
0.025796875 -0.0050899996 -0.00022053573
0.025598437 -0.0050899996 0.00077053567
0.026292969 -0.0050899996 -0.0012116072
0.026789064 -0.0047905887 -0.00022053585
0.027880467 -0.0047905883 0.00077053567
0.025201565 -0.0027945098 -0.00022053573
0.025598437 -0.0047905883 0.00077053567
0.026292969 -0.0050899996 -0.00022053585
0.025598437 -0.0050899996 0.000275
0.029765623 0.00079843146 -0.0015089288
0.030261718 0.00079843134 -0.0015089287
0.027781254 -0.0027945098 -0.00022053579
0.02629297 -0.0027945098 -0.00022053579
0.02629297 -0.0022954904 -0.00022053585
0.025796879 -0.0022954901 -0.00022053573
0.025796877 -0.0012974511 -0.00022053585
0.025201561 -0.00079843146 -0.0022026789
0.025189159 0.000274461 -0.0015956475
0.023713281 -0.0017964705 -0.00022053585
0.023217188 -0.0027945098 -0.00022053573
0.022721091 0.00029941183 -0.00091428577
0.0032742186 0.0050899996 -0.0016080358
0.0032742186 0.0050899996 -0.0012116071
0.0028277345 0.0050899996 -0.0015584822
-0.012700002 0.0022954904 -0.0016080358
-0.012203908 0.0017964706 -0.0016080358
-0.012203909 0.0022954904 -0.0016080358
0.022196651 0.0017822128 -0.001537245
0.022224998 0.0013373726 -0.0015882144
0.019248437 0.0037925486 -0.0015089288
0.018752344 0.0032935292 -0.0015089287
0.019248439 0.0032935292 -0.0015089287
0.01974453 0.003792549 -0.0015089286
0.019248437 0.0042915684 -0.0015089288
0.018752344 0.0022455882 -0.0015584823
0.019248439 0.0022455882 -0.0015584822
0.019248439 0.0027945093 -0.0015089288
0.01974453 0.0047905883 -0.0015089286
0.019248435 0.0047905878 -0.0015089288
0.019744532 0.0042915684 -0.0015089288
0.010219531 0.0050899996 -0.0012116071
0.010715625 0.0050899996 -0.0012116072
0.009723437 0.0050899996 -0.0012116072
0.016767969 0.001297451 -0.001608036
0.016767967 0.0017964706 -0.0015089287
0.016271874 0.001297451 -0.0016080358
0.017264064 0.00079843146 -0.0016080356
0.017264063 0.001297451 -0.0016080356
0.018752344 -0.001297451 -0.0022026785
0.018256251 -0.001297451 -0.0022026785
0.018752344 -0.0017964705 -0.0022026785
0.027285155 0.00079843134 -0.00091428577
0.029765623 0.001297451 -0.0012116071
0.029765626 0.0022954904 -0.0012116071
0.015279689 -0.0027945098 -0.00022053585
0.014783594 -0.0022954904 -0.00022053579
0.0082351565 -0.00079843128 -0.0022026785
0.0082351565 0.00079843134 -0.001608036
0.0087312497 0.00029941183 -0.0016080358
0.0087132119 -0.0008075044 -0.0021936689
0.0087312497 0.00079843146 -0.0016080358
0.0087312497 0.001297451 -0.0016080356
0.0092273429 -0.0007984314 -0.0022026785
0.0087312488 -0.001297451 -0.0022026782
0.0092273438 -0.001297451 -0.0022026785
0.0097234389 -0.00079843134 -0.0022026785
0.007739062 -0.0017964705 -0.0022026785
0.0082351565 -0.0017964705 -0.0022026789
0.016782144 -0.00081268884 -0.00023469393
0.01974453 0.0027945093 -0.0015089287
0.019730357 0.0022669751 -0.001537245
0.020240625 0.0017964706 -0.00091428577
0.01974453 0.0017964706 -0.00091428577
0.021232814 0.0042915684 -0.0015089288
0.021728905 0.0042915684 -0.0015089288
0.021232812 0.001297451 -0.0015882144
0.021728905 0.001297451 -0.00091428577
0.023688477 0.0012725001 -0.0015584822
0.023713281 0.0017964706 -0.0015089286
0.018752342 -0.0017964705 -0.00022053573
0.019248439 0.0017964706 -0.00091428577
0.019248439 0.00079843134 -0.00091428577
0.019248439 0.00029941183 -0.00091428583
0.018752344 0.00029941183 -0.00091428577
0.018256249 0.00029941183 -0.00091428583
0.01974453 0.00029941183 -0.00091428577
0.018256249 -0.0027945098 -0.00022053579
0.018256251 -0.0032935292 -0.00022053579
0.02123281 -0.0022954899 -0.00022053579
0.023713281 -0.0032935292 -0.0022026785
0.015279687 0.00029941183 -0.0016080358
0.014783593 0.0027945098 -0.0015089287
0.014783592 0.0022954904 -0.0015089288
0.014287501 0.0027945098 -0.0015089287
0.014287502 0.0022954904 -0.0015089288
0.014287502 0.001297451 -0.0016080358
0.014783595 0.001297451 -0.0016080359
0.015775779 0.0017632026 -0.0015750001
0.015775779 0.001297451 -0.0016080358
0.017264063 0.0022954904 -0.00091428583
0.017264063 0.0027945098 -0.00091428583
0.017760158 0.0027945098 -0.00091428577
0.017264061 0.0032935292 -0.00091428577
0.016767969 0.0042915684 -0.00091428583
0.02470547 0.0047905887 -0.0012116072
0.022721095 0.0042915684 -0.0015089287
0.025796875 -0.0017964705 -0.0022026785
0.017264061 -0.0012974509 -0.0022026785
0.016767969 -0.0012974509 -0.0022026785
0.016271874 -0.00079843134 -0.0022026785
0.016271874 0.00029941183 -0.0016080358
0.013295312 -0.0017964706 -0.0022026785
0.013277274 0.0022591976 -0.0015449678
0.013791406 0.0017964706 -0.0016080358
0.013791406 0.001297451 -0.0016080359
0.013791407 0.0017964706 -0.00091428572
0.013791406 0.0042915684 -0.0015089288
0.014287501 0.0037925486 -0.0015089288
0.0142875 0.0042915684 -0.0015089287
0.014783592 0.0042915684 -0.0015089287
0.015775779 0.00029941183 -0.0016080356
0.015775779 0.00079843157 -0.001608036
0.02123281 -0.0012974511 -0.0022026787
0.021232814 -0.0007984314 -0.0022026785
0.020240622 -0.0027945098 -0.0022026782
0.019248437 -0.001297451 -0.0022026785
0.019266479 -0.00080750423 -0.0021936686
0.030757807 -0.0012974511 -0.0022026785
0.028277345 0.003792549 -0.0012116072
0.026292967 -0.0032935292 -0.0022026785
0.025796875 -0.0032935292 -0.0022026785
0.026789062 -0.0027945098 -0.0022026785
0.026789062 -0.001297451 -0.0022026785
0.02629297 -0.00079843123 -0.0022026785
0.02629297 -0.001297451 -0.0022026785
0.028277343 -0.0032935292 -0.0022026785
0.028773436 -0.0042915684 -0.0012116074
0.027741563 -0.0041718041 -0.0015089286
0.027285155 -0.0040919608 -0.0015089286
-0.02926953 -0.0022954901 -0.0022026782
-0.029269531 0.0022954904 -0.0012116074
-0.028773436 0.0022954904 -0.0012116071
-0.029269528 0.0017964706 -0.0012116072
-0.02926953 0.00079843134 -0.0012116072
-0.02877344 0.00079843146 -0.0012116072
-0.02877344 0.00029941183 -0.0012116072
-0.029765623 0.00079843157 -0.0012116072
-0.028178126 -0.0047905883 0.0017616071
-0.027900312 -0.0050899996 0.0022175
-0.030360937 -0.0047905883 0.0026535715
-0.02726531 -0.0018164313 -0.00028000004
-0.02778125 -0.0017964705 -0.00031964289
-0.027792919 -0.0012857093 -0.00022636558
-0.027285155 -0.0012575292 -0.00024035719
0.02629297 0.0047905883 -0.0012116072
0.026789062 -0.00079843134 -0.0022026785
0.027285153 -0.00079843123 -0.0022026785
0.025796875 -0.0012974509 -0.0022026785
0.023713281 0.0022954904 -0.0015089288
0.023217186 0.0022954899 -0.0015089288
0.025201565 0.0028943131 -0.00091428577
0.026789062 0.0022289543 -0.00091428572
0.027285157 0.0017964706 -0.00091428572
0.025796875 0.00079843146 -0.00091428577
0.025796875 0.001297451 -0.00091428583
0.025796875 0.00029941183 -0.00091428589
0.030559374 -0.0044911765 0.0017616071
0.020736719 0.0022954904 -0.00091428572
0.020736719 0.0027945098 -0.00091428583
0.023167579 0.004141863 -0.00091428577
0.02470547 0.00079843134 -0.00091428572
0.024209375 0.0017964706 -0.00091428583
0.024258984 0.0027446076 -0.00091428583
0.022721095 0.0022954904 -0.00091428572
0.022721093 0.0027945098 -0.0015089286
0.022721095 -0.0044911765 0.0012660713
0.024209378 -0.003801622 -0.00022954558
0.024209375 -0.0042915689 -0.00022053579
0.023713281 -0.0042915684 -0.00022053579
-0.0127 -0.0047905887 0.00077053567
-0.0127 -0.0050899996 0.00077053567
-0.013791407 -0.0050899996 -0.00022053579
-0.012700003 -0.0047905874 0.0012660711
-0.01021953 -0.0047905883 0.0012660713
-0.01021953 -0.0047905883 0.0017616071
-0.010219531 -0.0044911765 0.0017616071
-0.010219531 -0.0050899996 0.0012660713
-0.010219531 -0.0050899996 0.00077053567
-0.010219531 -0.0047905883 0.00077053555
-0.0127 -0.0047905887 0.0017616069
-0.0127 -0.0050899996 0.0017616071
-0.010219531 -0.0044911765 0.0022571429
-0.013295312 -0.00089823524 -0.00022053573
-0.013791406 -0.001297451 -0.00022053579
-0.013791406 -0.00089823519 -0.00022053573
-0.015180469 -0.0044911765 0.0022571429
-0.015775779 -0.001297451 -0.00022053585
-0.012699999 -0.0044412743 0.0017616071
-0.012719843 -0.0044512548 0.0012660713
-0.012733073 -0.0044579082 0.00073749991
-0.0127 -0.0050899996 0.0012660713
-0.015180469 -0.0050899996 0.0022571429
-0.012700002 -0.0047905878 0.0022571427
-0.010120313 -0.0050899996 0.0026535715
9.9218742e-05 -0.0050899996 0.0022571429
5.8207661e-11 -0.0050899996 0.0026535715
0.00238125 -0.0050899996 0.0022571429
0.014287501 -0.0050899996 -0.0012116072
-0.00019843742 -0.0047905883 0.0026535715
-0.0026789063 -0.0047905887 0.0022571429
-0.0048947921 -0.0047794986 0.0022791668
0.0097234389 -0.0032935292 -0.0022026785
0.0092273438 -0.0032935292 -0.0022026785
0.0093265623 -0.0036927448 -0.0023017856
0.0092273438 -0.0027945098 -0.0022026785
0.0092273429 -0.0022954901 -0.0022026785
0.0097234389 -0.0022954901 -0.0022026787
0.024209375 -0.0050899996 -0.00022053579
0.02530078 -0.0050899996 0.0012660713
0.023713281 -0.0050899996 -0.00022053573
0.02530078 -0.0047905883 0.00077053567
0.023018749 -0.0050899996 0.0017616071
0.023018749 -0.0050899996 0.000275
0.012700002 -0.0047905878 0.0022571429
0.012728348 -0.0047763302 0.0027102041
0.0127 -0.0044911765 0.0026535715
0.0097234389 -0.0047905887 -0.0016080358
0.010219531 -0.0047905883 -0.0016080359
0.010219531 -0.0036927448 -0.0023017856
0.009723437 -0.0036927448 -0.0023017856
0.012700003 -0.0022954904 -0.00022053579
0.013791406 -0.0037592808 -0.00025357143
0.013791406 -0.0032935292 -0.00022053585
0.014312305 -0.003767598 -0.00027008931
0.011707813 0.0027945093 -0.00091428577
0.009723438 0.00029941183 -0.00091428577
0.0092273429 0.00029941183 -0.00091428577
0.0092273429 -0.00079843123 -0.00022053573
0.0092273429 0.00029941183 -0.0016080358
0.010715625 -0.00079843134 -0.00022053579
0.011202699 -0.0012793049 -0.00022954546
0.010715625 -0.0012974509 -0.00022053585
0.010219531 -0.0007984314 -0.00022053573
0.0086915633 -0.0042915684 -0.00024035719
0.013295312 0.0027945098 -0.00091428583
0.013791406 0.0022954904 -0.00091428577
0.013295314 0.0017964706 -0.00091428577
0.011707813 0.001297451 -0.00091428583
0.0127 0.0012974512 -0.00091428583
0.013295313 0.001297451 -0.00091428589
0.013791406 -0.0027945098 -0.00022053579
0.0117475 -0.001297451 -0.00024035719
0.011211718 -0.0017964704 -0.00022053579
0.0117475 -0.0017964705 -0.00024035713
0.0117475 -0.00079843123 -0.00024035713
0.012700002 -0.0044412743 0.0022571427
0.012799218 -0.0050899996 0.0022571429
0.023217188 -0.0017964704 -0.0022026785
0.010186458 -0.0044246404 0.0022571431
0.010120313 -0.0044911765 0.0026535715
0.010199687 -0.0047706272 0.0026932145
0.01021953 -0.0047905887 0.0022571429
0.0092273438 -0.0022954904 -0.00022053585
0.0086915633 -0.0022954901 -0.00024035724
0.0092273438 -0.0027945095 -0.00022053573
0.0072429683 0.0050899996 -0.0012116071
0.0072429688 0.0042915684 -0.00091428572
0.0079375003 0.004690784 -0.00091428572
0.0061515626 0.004690784 -0.00091428572
0.0017859377 -0.0012974509 -0.00022053579
0.0012898438 -0.00089823513 -0.00031964289
0.0032742184 0.0022954904 -0.00091428577
0.0032742186 0.0027945098 -0.00091428577
0.0037703125 0.0027945098 -0.00091428572
0.002778125 0.0027945093 -0.00091428577
0.0022820311 0.0032935292 -0.00091428572
0.0022820313 0.0027945098 -0.00091428577
0.0022820311 0.0022954904 -0.00091428577
0.0017859375 0.0017964706 -0.00091428577
0.0022820313 0.0017964706 -0.00091428577
0.0017859375 0.0022954899 -0.00091428583
0.0022820313 -0.00079843123 -0.00022053579
0.0037561387 -0.0013117085 -0.00024885213
0.0037207031 -0.00079843134 -0.00027008937
-0.0037703128 0.0037925486 -0.00091428583
-0.0042664064 0.003792549 -0.00091428577
-0.0042664064 0.0032935292 -0.00091428572
-0.0047625001 0.0027945098 -0.00091428577
-0.0042664064 0.0027945098 -0.00091428572
-0.002778125 0.0047905887 -0.0012116072
-0.0032742186 0.0050899996 -0.0015089286
-0.0062507815 0.0050899996 -0.0012116071
-0.006250781 0.0050899996 -0.0015089287
-0.0072429688 0.0050899996 -0.0012116071
-0.0067468751 0.0050899996 -0.0012116074
-0.0037703123 0.0041917646 -0.00091428577
-0.0042664064 0.0050899996 -0.0012116072
-0.0037703128 0.0050899996 -0.0012116074
-0.0042664064 0.0041917646 -0.00091428572
-0.0065484373 0.0040919608 -0.00091428572
-0.0077390629 0.0050899996 -0.0012116072
-0.0076894532 0.0037426469 -0.00091428572
-0.0082351565 0.0050899996 -0.0012116072
-0.0082351565 0.0036927448 -0.00091428583
-0.0085328128 0.0036927448 -0.00091428572
-0.0022820311 -0.001297451 -0.00022053585
-0.0022820313 -0.00089823519 -0.00022053573
-0.002778125 -0.0012974507 -0.00022053579
-0.002778125 -0.00089823524 -0.00022053579
-0.0037703123 0.0027945098 -0.00091428572
-0.0017859377 0.0017964706 -0.00091428577
-0.0012898438 0.001297451 -0.00091428577
-0.0012898438 0.0017964706 -0.00091428577
-0.0032742186 0.0022954904 -0.00091428577
-0.002778125 0.0022954904 -0.00091428583
-0.0032742191 0.0027945098 -0.00091428577
0.022721091 0.0032935292 -0.0015089288
0.022721093 0.003792549 -0.0015089287
0.021728905 0.003792549 -0.0015089287
0.022225002 0.0042915684 -0.0015089288
0.021232814 0.0037925486 -0.0015089288
0.020736719 0.003792549 -0.00091428572
0.018256249 0.0037925486 -0.00091428577
0.017760158 0.0047905883 -0.0015089287
0.018256249 0.0047905878 -0.0015089288
0.017760158 0.0042915684 -0.0015089287
0.017264063 0.004690784 -0.00091428583
0.018256251 0.004690784 -0.00091428577
0.016767967 0.0050899996 -0.0012116072
0.015775781 0.0050899996 -0.0012116072
0.012699999 0.0042915684 -0.00091428577
0.012203906 0.0047905883 -0.0015089287
0.016271874 0.0037925486 -0.00091428577
0.016271874 0.004690784 -0.00091428577
0.016271874 0.0050899996 -0.0012116074
0.011707813 0.0037925486 -0.0015089288
0.012203906 0.003792549 -0.0015089286
0.0127 0.0037925486 -0.0015089288
0.011211719 0.003792549 -0.0015089286
0.010715625 0.0037925486 -0.0015089288
0.018752344 0.0022954904 -0.00091428577
0.01805781 -0.0047905878 0.0022571429
0.017760158 -0.0047905883 0.0026535715
0.017660938 -0.0044911765 0.0026535715
0.017859375 -0.0050899996 0.0026535715
0.020339843 -0.0047905883 0.0017616071
0.020339843 -0.0050899996 0.0017616071
0.020339841 -0.0047905887 0.0012660713
0.017760158 -0.0044911765 0.00077053567
0.018256249 -0.003792549 -0.00022053585
0.017264061 -0.0032935292 -0.00022053585
0.01677699 -0.0032753828 -0.00022954558
0.017264064 -0.00079843146 -0.0022026785
0.016767969 0.00029941183 -0.0016080359
0.017264064 0.00029941183 -0.0016080356
0.017760158 0.00079843146 -0.001608036
0.017760158 -0.00079843134 -0.0022026785
-0.00079374999 0.0041917646 -0.00091428577
-0.0022820313 0.0047905887 -0.0012116072
-0.0017859377 0.0037925486 -0.00091428583
0.0052585937 0.0050899996 -0.0015089286
0.002778125 0.0050899996 -0.0012116074
0.0017859377 0.0050899996 -0.0015089286
0.0022820313 0.0050899996 -0.0015089286
0.0052585937 0.0042915684 -0.00091428577
0.0057546869 0.0042915689 -0.00091428589
0.019248437 0.0050899996 -0.0015089286
0.01974453 0.0050899996 -0.0015089287
0.010219531 0.0032935292 -0.00091428577
0.010715625 0.0027945098 -0.00091428583
0.010219531 0.0027945098 -0.00091428577
0.010715625 0.0042915684 -0.00091428577
0.010219531 0.003792549 -0.00091428577
0.010715625 0.0050899996 -0.0015089286
-0.025796875 0.0047905883 -0.0012116074
-0.025796875 0.0050899996 -0.0012116072
-0.024209373 0.0047905887 -0.0012116074
-0.024209375 0.0050899996 -0.0012116074
-0.023713281 0.0050899996 -0.0012116071
-0.021728909 0.0047905883 -0.0012116072
-0.022224998 0.0047905887 -0.0012116074
-0.022225002 0.0032935292 -0.0012116071
0.0067468747 0.0022954904 -0.001608036
0.0072429683 0.0027945098 -0.0016080359
0.0072429688 0.0022954904 -0.0016080358
0.0067468737 0.0017964706 -0.0016080359
0.0062507819 0.0022954904 -0.0016080358
-0.017264061 0.00029941183 -0.00091428583
-0.020280311 -0.0047706277 0.0022571429
-0.019273242 -0.0023079657 -0.00023292424
-0.019248439 -0.0027945098 -0.00022053573
-0.019744532 -0.0022954901 -0.00022053585
-0.022225 -0.0008982353 -0.00022053573
-0.021728905 -0.00089823519 -0.00022053573
-0.021728905 0.00029941183 -0.00091428577
-0.021728905 0.00079843134 -0.00091428572
-0.019744532 0.001297451 -0.001608036
-0.019248439 0.00079843134 -0.0016080356
-0.019248435 0.001297451 -0.0016080358
-0.022721091 0.00029941183 -0.001608036
-0.022225 0.00029941183 -0.0016080358
-0.022721091 0.001297451 -0.0012116072
-0.023217186 0.0017964706 -0.0015089288
-0.023713281 0.0017964706 -0.0015089286
-0.023217186 0.001297451 -0.0015089287
-0.022225 0.0017964706 -0.0015089288
-0.020736719 0.0042915684 -0.0012116072
-0.020736719 0.0050899996 -0.0012116072
-0.0062507815 0.0022954904 -0.00091428577
-0.019744532 -0.00475732 -0.0015750001
-0.019248437 -0.0047573205 -0.0015750001
-0.01974453 -0.0050899996 -0.0015089286
-0.025201561 -0.0042915684 -0.0015089288
-0.025201565 -0.0032935292 -0.0022026785
-0.02629297 -0.0032935292 -0.0022026785
-0.025796875 -0.0032935292 -0.0022026785
-0.025796875 -0.0027945098 -0.0022026782
-0.0052585937 0.001297451 -0.00091428577
-0.0047625001 0.0017964706 -0.00091428572
-0.0042664064 0.0017964706 -0.00091428583
-0.0077390629 0.0050899996 -0.0015089286
-0.0042664064 0.0037925486 -0.0016080359
-0.0037703132 0.0042915693 -0.0016080356
-0.0042664059 0.0042915684 -0.0016080358
-0.0037703128 0.0047573205 -0.0015750002
-0.0012898438 0.00079843134 -0.00091428583
-0.0017859375 0.00079843134 -0.00091428583
-0.00079375011 -0.001297451 -0.0022026785
-0.00079375011 -0.0017964705 -0.0022026785
-0.0012898438 -0.001297451 -0.0022026785
-0.00079374999 -0.0036927448 -0.0023017856
0.00079375022 -0.0012974509 -0.0022026785
0.002778125 -0.0022954901 -0.0022026785
0.0037703125 -0.0032935292 -0.0022026787
0.0022820313 -0.0050899996 -0.0015089286
0.0022820311 -0.0036927448 -0.0023017856
-0.0012898438 0.00029941183 -0.00091428572
-0.0017859375 0.00029941171 -0.00091428589
-0.0012898438 -0.00089823524 -0.00031964289
-0.0012898438 -0.0012974509 -0.00031964289
-0.0032742186 -0.00089823513 -0.0022026785
-0.0032742191 0.00029941183 -0.0016080356
-0.0037703128 -0.00089823524 -0.0022026785
-0.0032742186 0.0017964706 -0.0016080359
-0.0037703132 0.0017964706 -0.001608036
-0.0032742191 0.001297451 -0.001608036
0.0017859375 -0.0017964705 -0.0022026785
0.0012898438 -0.0027945098 -0.0022026785
0.0042664064 -0.0032935292 -0.00022053573
0.0049609374 -0.0047905883 0.00077053567
0.0049609374 -0.0044911765 0.00077053567
-0.0099218749 -0.0047905878 0.00077053567
-0.0099218749 -0.0044911765 0.0012660713
-0.0099218749 -0.0047905883 0.0012660713
-0.00029765622 -0.0047905883 -0.0016080359
-0.00079374987 -0.0047905887 -0.0016080356
-0.00029765622 -0.0027945098 -0.00022053573
-0.00019843754 -0.0044911765 0.0012660713
-0.00019843742 -0.0044911765 0.0017616071
-0.0022820313 -0.0047905883 -0.001608036
-0.0022820311 -0.0042915684 -0.001608036
-0.0012898438 -0.0017964705 -0.00031964289
-0.00029765634 -0.001297451 -0.00022053579
0.0012898437 -0.0022954904 -0.0022026787
0.00019843748 -0.0022954904 -0.00022053579
0.00079374999 -0.0017964705 -0.00022053573
0.00019843748 -0.0017964705 -0.00022053573
0.0012898438 -0.0017964704 -0.00031964283
0.00019843754 -0.001297451 -0.00022053579
0.00019843748 -0.00089823519 -0.00022053579
0.0017859377 -0.0042915689 -0.00022053585
-0.0051593748 -0.0050899996 0.0022571429
-0.0049609374 -0.0044911765 0.0022571429
-0.0042664064 -0.0050899996 -0.0012116072
-0.0047625001 -0.0050899996 -0.0012116074
-0.0042664064 -0.0050899996 -0.00071607146
-0.0022820311 -0.0032935292 -0.0022026782
-0.0022820313 -0.0027945098 -0.0022026785
-0.002778125 -0.0027945098 -0.0022026787
0.00238125 -0.0047905878 0.0012660713
-0.00029765622 -0.0050899996 -0.00022053567
-0.00079375011 -0.0050899996 -0.00071607158
-0.00079374999 -0.0050899996 -0.00022053579
-0.00029765611 -0.0050899996 -0.0007160714
0.00079375005 -0.0022954901 -0.0022026785
0.0012898438 0.0017964706 -0.00091428572
0.0012898438 0.0022954904 -0.00091428577
-0.00079375011 0.0012974512 -0.00091428589
0.00019843748 0.00079843157 -0.00091428583
0.0022820313 0.00079843134 -0.001608036
0.002778125 0.0017964706 -0.0016080358
-0.0022820313 0.00079843134 -0.001608036
-0.0017859377 0.00079843146 -0.0016080358
-0.0017859377 -0.0008982353 -0.0022026785
-0.0017859377 0.00029941183 -0.0016080358
-0.0012898438 0.00079843134 -0.0016080359
-0.007739062 0.0047905887 -0.0012116074
-0.022225002 0.00079843146 -0.001608036
-0.022721093 0.00079843134 -0.001608036
-0.022224998 0.0012974512 -0.0015089288
-0.0254 0.0016966666 -0.0015089286
-0.024738543 0.0017632026 -0.0015089285
-0.025201561 0.0050899996 -0.0012116072
-0.02470547 0.001297451 -0.0015089287
-0.028277343 0.00029941183 -0.0015089288
-0.021232814 0.0012475491 -0.0015584822
-0.021232814 0.0017964706 -0.0015089288
