# .PCD v0.7 - Point Cloud Data file format
VERSION 0.7
FIELDS x y z
SIZE 4 4 4
TYPE F F F
COUNT 1 1 1
WIDTH 1153
HEIGHT 1
VIEWPOINT 0 0 0 1 0 0 0
POINTS 1153
DATA ascii
0.0040333332 0.00053333334 0.0016699424
0.003860784 0.00055294106 0.0016875388
0.0040333332 0.00011111112 0.0025562625
0.0038663538 0.0001900311 0.0022132257
0.0040666675 -0.0031000003 -0.00075635838
0.0040555559 -0.0030888889 -0.0002910404
0.0037566579 -0.003221089 -0.00075710309
0.003775107 -0.0031537747 -0.00028173416
0.0038666665 -0.00053333334 0.0015369942
0.0040574851 -0.00021159425 0.0017258199
0.0040407414 -0.00012839508 0.0021992726
0.0038659656 -0.00018368296 0.0021980153
0.0040333332 -0.0001 0.002534104
-0.0040644892 -0.0022579699 -0.0042354069
-0.0040333336 -0.0031282054 -0.004159315
-0.0040333332 -0.0027000001 -0.0045121387
-0.0040333313 -0.0027512822 -0.0042334613
-0.0037666634 -0.00076666666 -0.0045453771
-0.0032571857 -0.00027967477 -0.0045542908
-0.0032426096 -0.00077041943 -0.0045605609
0.0031886676 0.0032363341 -0.00030267402
0.0037886046 0.0027572035 -0.00028482289
0.0038146179 0.0032113041 -0.00030717347
0.0038870962 9.8924742e-05 0.002576991
0.0038952378 -0.00011904763 0.0025578453
0.0040333327 0.0027000005 -0.0002910404
0.0040333313 0.0022333332 -0.0002910404
0.0037601257 0.0022316533 -0.00026573893
0.0038576284 0.00023333324 0.001725147
0.0040521096 0.0001605634 0.0021970537
0.0040589711 0.00019487184 0.0017364169
0.0020808764 0.001221858 0.0017364174
0.0020762286 0.0012222225 0.0022254386
0.0020840187 0.0012292244 0.0012314876
0.0018948726 0.0012628206 0.0025737337
0.0020679997 0.001264 0.0025633522
-0.0037666629 0.0012333337 -0.0045453766
-0.0040666671 0.0017333332 -0.0045453757
-0.0037666645 0.0017333333 -0.0045453743
-0.0037626007 0.002721952 -0.0045332136
-0.0040614032 0.0027403508 -0.0045226347
-0.0040666671 0.0022333332 -0.0045453757
-0.0040619043 0.0031523812 -0.0045121387
-0.0040666629 0.0022333334 -0.0042462428
0.00030370371 0.001 -0.0083159264
0.00039999996 0.001 -0.0085005779
-5.7575751e-05 0.00069696974 -0.008500577
0.0037583327 -0.0032250006 -0.0045121387
0.0040555559 -0.0030888889 -0.0042130053
0.0037531976 -0.0031757569 -0.0042418824
0.0037541669 -0.0031875011 -0.0037476881
0.0040555559 -0.0030888889 -0.0037476867
0.0038666665 -0.00053333334 0.0014372836
0.0040526539 -0.00021159425 0.0012643551
0.0040666633 -0.0012666668 -0.00025780313
0.0037684261 -0.001765787 -0.0002876299
0.0040678973 -0.0017617285 -0.00026518921
0.0037593325 -0.002269042 -0.00027974718
-0.0037666636 0.00023333335 -0.0045453757
-0.0040575764 -0.00023030303 -0.0045453757
-0.0040666675 0.00023333335 -0.0045453766
-0.0040666671 0.00073333347 -0.0045453757
-0.0040666629 0.0022333341 -0.00075635861
-0.0040656528 0.0022282836 -0.00028398982
-0.0040666629 0.0017333332 -0.00075635838
-0.0040666629 0.0012333337 -0.00025780336
-0.0040666633 0.0027666676 -0.00029104017
-0.0027592606 -0.0032296283 -0.004544145
-0.0032649233 -0.0032276956 -0.0042519704
-0.0037300002 -0.0032116666 -0.0045171222
-0.0032666654 -0.0031999992 -0.0045342948
-0.0027666653 -0.0032333368 -0.0042462428
-0.0037449598 -0.0012635661 -0.0045407382
-0.0040377779 -0.00075555558 -0.0045387284
-0.0040666661 -0.0012666667 -0.0045121387
-0.0037666638 -0.0002666667 -0.0045453743
0.0040666629 -0.0027666655 -0.0017534697
0.0031782074 0.0027740374 -0.00033674203
0.0040333336 0.0031333335 -0.0012549132
0.0040333313 0.0027000008 -0.00075635815
0.0038715424 -0.00023048773 0.0017327685
0.0040333304 0.0022333337 -0.0007563578
0.0038611111 0.00054259249 0.0012637128
-0.0022666655 -0.0032333313 -0.0045453766
-0.0022666673 -0.0032333364 -0.00424624
-0.004066057 -0.0017703034 -0.0042426176
-0.0040666629 -0.0012666668 -0.0037476877
-0.0040666671 -0.0017666668 -0.0045121387
-0.0040666629 -0.001766667 -0.0037476895
-0.0040666629 -0.0012666667 -0.0032491344
-0.0037351628 -0.0017589746 -0.0045377053
0.0027771757 -0.0032309839 -0.0002933857
0.0023977773 -0.0031777779 -0.00044836197
0.0023529669 -0.0027278545 -0.0004098739
0.0027883439 -0.0027635251 -0.00027982774
0.0020761902 -0.001 0.0021827416
0.0018690474 -0.0009952382 0.0022088569
0.0021181814 -0.0011606059 0.0025643194
0.0018619049 -0.00099047634 0.0017269203
0.0018802441 0.0012395063 0.0017364146
0.0037734197 -0.0012655745 -0.0002819174
0.0038497313 0.00023010744 0.00074332696
0.0027122281 0.00024803483 -0.0003181824
0.002724489 0.00073605339 -0.00030175853
-0.0040666652 0.003133334 -0.00075635815
-0.0040655923 0.0012344085 -0.0045443042
-0.0040666629 0.0012333337 -0.0042462437
-0.0037666634 0.0022333334 -0.0045453762
-0.0037666673 0.0032000006 -0.0045121373
-0.0040666633 0.0017333335 -0.0042462442
0.00026666667 0.00073333335 -0.008500577
-0.0012507254 0.00022222224 -0.004555006
-0.0012223637 -0.00027426158 -0.0045840805
-0.00076666562 0.00023333325 -0.004611847
-0.00076666579 -0.00026666658 -0.0046118465
0.0040611117 -0.0026333332 -0.0045287572
0.0037564985 -0.0026564973 -0.0045346711
0.0037596948 -0.002765106 -0.00027373596
0.0032435739 -0.0017719807 -0.0002949913
0.0040670554 -0.0022643136 -0.00028830301
0.0040666638 -0.0027666665 -0.00075635861
-0.00325667 -0.001256667 -0.0045520212
-0.0040666629 -0.00076666661 -0.0042462447
0.0040660342 -0.0027578617 -0.0042349566
0.0040666629 -0.0027666658 -0.0012549146
0.0040666633 -0.0022666662 -0.0022520241
0.0040666629 -0.0027666669 -0.0022520244
0.0040666638 -0.0027666653 -0.0037476886
0.0040666629 -0.0022666664 -0.00374769
0.0040666629 -0.0027666667 -0.0032491335
0.0040666633 -0.0027666658 -0.0027505786
0.0037577942 0.0032239829 -0.0012534785
0.0032666659 0.0032333371 -0.001254912
0.0032666652 0.0032333361 -0.00075635919
0.0027666669 0.0032333366 -0.00075635966
0.0027577758 0.0032333359 -0.00027553062
0.00096666662 0.0034 -0.00045722537
0.0040333332 0.00053333334 0.0012378613
0.0040654326 -0.0030987656 -0.0012475271
0.0040555564 -0.0030888889 -0.0017534681
0.0040555559 -0.0030888889 -0.0022520232
0.0022666694 -0.0032333366 -0.00075635919
0.0027666655 -0.0032333371 -0.00075635966
0.0032617028 -0.0032297897 -0.0037476867
-0.0040575759 -0.0022303031 -0.0045121387
0.0021131246 -0.0011779531 0.0022331392
0.0019000017 -0.0011944912 0.0022259075
0.002090476 -0.001 0.0017316681
-0.00010505738 -0.0012473566 0.0007402231
0.0001213333 -0.0012613337 0.0012378618
-9.7368342e-05 -0.0012447375 0.0012299898
0.00012133335 -0.0012613334 0.00073930621
-0.0040666629 -0.0017666665 -0.0032491337
-0.0040666633 -0.0022666666 -0.0032491337
-0.0040666629 -0.0022666659 -0.00374769
-0.0037534882 -0.0032149889 -0.0042398018
-0.0027666639 -0.0032333364 -0.0027505788
-0.0032571412 -0.0032095264 -0.0037476886
-0.0032624265 -0.0027375764 -0.0045399363
-0.0027630313 -0.0027630299 -0.0045447703
0.0032031597 0.0022442141 -0.00036381278
0.0027637975 0.0022340498 -0.00026852591
0.001880243 0.0012395063 0.0022349698
0.0018629628 0.0032222224 -0.00045722537
0.0019400001 0.0026733335 -0.00042398833
0.0018802428 0.0012395059 0.0012378616
0.0040666629 -0.0017666667 -0.00075635861
0.0040666629 0.00073333335 -0.00075635849
0.0040657455 0.0002287462 -0.00026329188
0.0040640989 0.00073333341 -0.00027314341
0.0040666629 0.00023333333 -0.00075635861
0.0038552869 -0.00021077842 0.00073811226
-0.0040666629 0.001233334 -0.0037476877
-0.0040666629 0.0012333331 -0.0032491346
-0.0040666633 0.0017333335 -0.0032491337
-0.0040666633 -0.0002666667 -0.0032491349
-0.0040666629 0.00023333337 -0.0037476872
-0.0040666629 0.00023333337 -0.0032491342
-0.0040666629 0.00023333338 -0.0027505786
-0.0040666629 -0.00026666673 -0.0027505795
-0.0037666664 0.0032000004 -0.0042462419
-0.0040637664 0.0031449276 -0.0042549144
-0.0040666638 0.0012333338 -0.0027505793
-0.0040666629 0.0012333336 -0.0022520244
-0.0040666633 0.0017333335 -0.0022520241
-0.0040666633 0.0012333337 -0.0017534695
-0.0040666629 0.0017333335 -0.0027505797
-0.0040666629 0.00073333335 -0.0022520241
-0.0040666633 0.00073333335 -0.0012549143
-0.0027666676 0.00023333335 -0.0045453762
-0.0022666655 0.00023333337 -0.0045453734
-0.0022666666 0.00073333335 -0.0045453757
0.0013666666 0.001 -0.0085005779
0.0016333334 0.001 -0.0085005779
0.0020600001 -0.00058666669 -0.0085005779
0.0020333333 0.00053333334 -0.0085005779
-0.002266665 0.0027666658 -0.0045453752
-0.0027616364 0.002754088 -0.0045434944
-0.0022666655 0.0022333344 -0.0045453743
-0.0017666663 0.00073333341 -0.0045453743
-0.0012666679 0.00073333347 -0.0045453752
-0.0017666661 0.0012333335 -0.0045453748
-0.0012421845 -0.00077728549 -0.0046027317
-0.00076666614 -0.00076666608 -0.0046118461
-7.2549017e-05 0.00023921569 -0.008500577
-4.2222222e-05 -0.00022666667 -0.0084030814
-5.5974881e-05 0.00028553465 -0.0083137006
-4.1666666e-05 -0.00024166665 -0.008500577
-0.0037293332 -0.0022622221 -0.0045351805
0.0002666667 0.00023333338 -0.008500577
0.0032777775 -0.0033111111 -0.0045121387
-3.3333337e-05 0.0003666667 -0.0057419059
-4.2857137e-05 -0.0002095238 -0.0050439308
0.001754588 -0.00069492648 -0.0082221562
0.0020637675 -0.00061449286 -0.0082317945
0.0032309107 -0.0032169702 -0.00030614878
0.0032666645 -0.0032333368 -0.00075635849
0.0040666633 -0.0027666672 -0.00029104017
-0.0037666638 0.00073333335 -0.0045453748
-0.0040640989 -0.0012666667 -0.0042309058
0.0037666641 -0.0022666659 -0.0045453752
0.0040666633 -0.0022666662 -0.0042462451
0.0040666624 -0.0022666664 -0.0027505788
0.0037541671 -0.0031875011 -0.0027505781
0.0032595622 -0.0032185826 -0.0022546351
0.0037531969 -0.0031757569 -0.0022563869
0.0032617019 -0.003229789 -0.0027505779
0.0040666638 -0.0017666669 -0.0017534699
0.0040666633 -0.0012666667 -0.0022520241
0.0040666629 -0.0017666669 -0.0022520244
0.0040666629 -0.0012666666 -0.0017534699
0.0040647024 0.0012294119 -0.00027735438
0.0040666629 0.0012333338 -0.00075635861
0.0037578628 0.0032239028 -0.00075510552
0.0040333332 0.0031466666 -0.0017601154
0.0040333313 0.0027426672 -0.0012549128
0.0027666674 -0.0017666668 -0.0045453752
0.0032666691 -0.001266667 -0.0045453752
0.0032666698 -0.0017666669 -0.0045453743
0.0020333333 -0.00053333334 -0.0057419073
-0.0037666683 0.0032000013 -0.00075635954
-0.0040647057 0.0031294124 -0.00029886072
-0.0037813401 0.0031677117 -0.00028915936
-0.0037640517 0.0032078438 -0.0022559329
-0.0027666662 0.0032333368 -0.001254913
-0.0037666669 0.0032000004 -0.0012549137
-0.0037666683 0.0032000013 -0.0017534671
9.0833259e-05 0.0012095837 0.00024199765
0.0018321808 0.00072988449 -0.00028359145
0.0018764146 0.001240756 0.00023451028
0.00076666556 0.00073333317 -0.00075635838
9.3981362e-05 0.0012120369 0.00074022962
0.001880244 0.0012395065 0.00073930621
0.001825485 0.00023333322 -0.00028713117
0.0023176449 0.0032245074 -0.00035946979
0.0027572573 0.0012417146 -0.0002890022
0.0032768564 0.0012268516 -0.00040921709
0.0038666667 0.0005333334 0.00083901733
0.0040666633 -0.0002666667 -0.00025780336
0.0040666629 -0.0002666667 -0.00075635838
0.0040666633 -0.00076666672 -0.00075635849
0.0040333332 0.00053333334 0.00083901756
0.0040555564 -0.0030888889 -0.0027505783
0.0037500984 -0.0031381787 -0.0017718002
0.003253883 -0.0031888147 -0.0017630288
0.0027643661 -0.0032310372 -0.0022524798
0.0027666646 -0.0032333364 -0.0027505769
0.0040481449 0.0016962965 -0.00075635768
0.0040481454 0.0016962965 -0.0012549134
0.0021169712 -0.0011763636 0.0017364174
0.0021180804 -0.0011661019 0.0012378618
0.0018933949 -0.0011897899 0.0017292309
0.0038540328 0.00023586028 0.0012504584
0.0028090656 -0.0022739223 -0.00030008052
0.002829259 -0.0017708882 -0.00031556981
0.0021190483 -0.0011571426 0.00073930621
0.0032456468 -0.002266668 -0.00028807763
5.555556e-05 -0.001 0.00069499039
0.0018848483 -0.001 0.00072117709
8.9473673e-05 -0.001 0.0012501068
0.0020888888 -0.001 0.0012489404
-0.0017666667 0.0002333334 -0.0045453752
-0.0040333304 -0.0027666669 -0.0037476905
-0.0040333341 -0.003133334 -0.0037476867
-0.0040333336 -0.0031333338 -0.0032491318
-0.0037666676 -0.0032000002 -0.003249133
-0.0022666652 -0.0027666665 -0.0045453748
-0.0022666652 -0.0022666664 -0.0045453766
-0.0027666686 -0.0022666662 -0.0045453757
-0.0002666667 0.0032333366 -0.0012549122
0.00026666673 0.0032333371 -0.0012549118
-0.00026797911 0.0032320232 -0.0017516338
-0.00076666591 0.0032333359 -0.001753466
0.0017666647 0.0032333371 -0.00075635966
0.0012666702 0.0032333359 -0.00075635884
0.0019252892 0.002172414 -0.00031205197
7.7777702e-05 0.0012125609 0.0022436413
-0.0031906387 0.003216852 -0.00031755585
-0.0032247864 0.0027638883 -0.00029956363
0.00012064293 -0.0012582069 0.0022368254
-0.0040666633 0.0027666653 -0.00075635861
-0.0012666691 0.0032333364 -0.0012549114
-0.0017666654 0.0032333366 -0.00075635966
-0.0012666703 0.0032333366 -0.00075635896
-0.0012666699 0.0032333352 -0.0017534657
-0.00076666579 0.0032333366 -0.00075635966
0.0040666629 -0.0022666666 -0.00075635849
0.0040666624 -0.0012666669 -0.00075635849
0.00041111105 -0.00014444445 -0.00042398833
0.0018410685 -0.00026309513 -0.00027857721
0.0018895667 -0.0011715943 0.0012335265
0.0018878801 -0.0011683501 0.00073863473
0.0040666629 -0.00076666661 -0.0032491335
0.0040666633 -0.0012666667 -0.0032491344
0.0040666638 -0.00076666661 -0.0027505797
0.0040666629 -0.0002666667 -0.0017534692
0.0040666633 -0.0002666667 -0.0022520241
0.0040666633 0.00023333335 -0.001753469
0.0040666629 -0.0012666666 -0.0027505788
0.0022210025 0.00023198452 -0.00028181938
0.0032251005 -0.00027224427 -0.00031103636
0.002727862 -0.00025273632 -0.00038231863
0.0040666633 0.00073333341 -0.0012549143
-0.0040666661 0.0031333338 -0.0012549126
-0.0040666629 0.0012333336 -0.00075635861
-0.0040666633 0.00073333335 -0.00025780313
-0.0040666629 0.00073333335 -0.0037476895
-0.0040666629 0.00023333335 -0.0042462442
-0.0040666629 0.0017333332 -0.00374769
-0.0040666629 -0.0002666667 -0.0037476886
-0.0040666633 -0.00076666666 -0.0027505786
-0.0027666655 0.0032333359 -0.0037476872
-0.0027666639 0.0032205146 -0.004236015
-0.0032611119 0.0032055574 -0.0042434726
-0.0032666661 0.0032000006 -0.0045121363
-0.0040666633 0.0022333344 -0.0027505783
-0.0040666629 0.0022333332 -0.0032491337
-0.0040666629 0.00073333335 -0.0027505795
-5.4629672e-05 0.00070833345 -0.0082392972
-5.4385986e-05 0.00070175441 -0.0077378764
-5.5555582e-05 0.00068888901 -0.0072375722
0.00039999999 0.001 -0.0072375708
-0.0017666662 0.0027666665 -0.0045453757
-0.0017580641 0.0031892469 -0.0045389421
-0.00076666614 0.0027666665 -0.0045453752
-0.00026666644 0.0027666665 -0.0045453724
-0.00025042729 0.0022141051 -0.0045632692
-0.00076666678 0.0022333327 -0.0045453757
-0.0017666662 0.0022333334 -0.0045453752
-0.0017666662 0.0017333335 -0.0045453757
-0.0012666673 0.0017333336 -0.0045453748
-0.003746466 -0.0027464654 -0.0045222081
-0.0017557374 -0.0017530054 -0.0045535485
-0.0017666662 -0.0022666662 -0.0045453757
-0.0012666667 -0.0022666666 -0.0045453752
-0.0012609339 -0.0017422502 -0.0045659067
-0.0017666664 -0.0027666665 -0.0045453757
-0.0017830915 -0.0032106268 -0.0045381482
-0.0012666665 -0.0027666655 -0.0045453734
-0.0012598571 -0.0032286721 -0.0045443038
-0.0007666669 -0.003233332 -0.0045453748
-0.0027666644 -0.0032333378 -0.0037476872
0.0032595629 -0.0032185821 -0.0042436249
0.002266668 -0.0032333373 -0.0012549123
0.001766665 -0.0032333366 -0.00075635966
0.0017666664 -0.0032333366 -0.0022520197
0.0012666698 -0.0032333361 -0.0017534685
0.001766664 -0.0032333366 -0.0017534662
-3.3333323e-05 0.0003666667 -0.0067390162
0.00028461535 -0.00025897444 -0.0067390171
0.00028461547 -0.00025897438 -0.0062404661
0.00028461521 -0.00025897441 -0.0057419073
-0.0032666705 0.00023333335 -0.0045453715
-0.00406561 0.0017291227 -0.00026410073
0.0012666701 -0.0032333368 -0.0037476909
0.0012666696 -0.0032333364 -0.0032491344
0.00076666562 -0.0032333366 -0.0037476886
-0.0012666697 -0.0032333371 -0.0042462386
-0.00076666562 -0.0032333366 -0.0042462428
0.0040666671 -0.0017666668 -0.0045453748
0.0040666633 -0.0017666668 -0.0037476886
0.0040666629 -0.0012666668 -0.0037476886
0.0040666633 -0.0012666667 -0.0042462437
0.0040666629 -0.0022666659 -0.0032491344
0.0040666629 -0.0017666668 -0.0027505774
0.0037541669 -0.0031875002 -0.0032491318
0.0040599965 0.00018400006 0.00024606939
0.0037797128 0.0012376769 -0.00025997194
0.00026666705 0.0032333373 -0.0032491344
-0.0002666667 0.0032333371 -0.0032491351
-0.00026931227 0.003230691 -0.0037476858
0.0040450953 0.0022627448 -0.0012549135
0.0040666671 -0.00076666678 -0.0045453757
0.0040626675 -0.0012826668 -0.0045413873
0.0037666638 -0.0012666667 -0.0045453762
0.0040666629 -0.00076666672 -0.0042462428
0.0020666677 -0.0002666667 -0.0082346871
0.0020573332 -0.00059999997 -0.007806588
0.0020598576 -0.00024516133 -0.0077507836
-0.0022666664 0.0017333335 -0.0045453748
-0.0027666672 0.0032000004 -0.0045121373
-0.0017630795 0.0032243752 -0.0042390958
-0.0012634704 0.0032009121 -0.0045349021
-0.0032571421 0.003209526 -0.0012549121
-0.0027666658 0.0032333366 -0.00075635966
-0.0022666689 0.0032333368 -0.00075635908
0.00076666567 0.0022333318 -0.00075635815
-7.9487181e-05 0.0020205129 -0.00033450406
0.0018647059 -0.00099607836 0.0012495923
9.4871779e-05 -0.001 0.0017313026
0.00033000001 0.00020666668 -0.00041734078
-9.0476191e-05 -0.001 0.0002265072
0.0022666671 0.0032333371 -0.00075635908
0.0022666664 0.0032333366 -0.0012549121
0.0022820986 0.002754604 -0.00032350235
0.0040377784 -0.00018222221 0.00075924862
0.0040666629 -0.00076666672 -0.00025780313
0.0040589711 0.00019487181 0.00073930644
-0.0037666666 -0.0032000009 -0.0022520206
-0.0037593942 -0.0032218203 -0.0012512873
-0.0040333336 -0.0031333338 -0.0022520234
-0.0037666697 -0.0032000011 -0.0017534678
0.0027594175 -0.00322609 -0.0017549109
0.0032624854 -0.0032210108 -0.0012427296
0.0040555559 -0.0030888889 -0.0032491318
0.0027666646 -0.0032333371 -0.0037476891
0.0032617012 -0.0032297906 -0.0032491332
0.0040481458 0.0016962967 -0.0002910404
0.0032389192 -0.0027622355 -0.00029123342
0.0032288884 -0.0012708744 -0.00029955478
0.0032128037 -0.00076865254 -0.00030843029
0.0020555556 -0.001 0.00069499039
-7.3333322e-05 -0.001 0.00072601158
0.0038719296 -0.00023368411 0.0012441594
-3.3333337e-05 0.00036666673 -0.0062404615
-5.4871816e-05 0.00069641025 -0.0062394398
-5.5555582e-05 0.00068888889 -0.006739018
-0.0040666629 -0.0022666659 -0.0027505795
-0.0040333304 -0.0027666669 -0.0027505788
-0.0040333308 -0.0027666669 -0.0032491337
-0.0040666633 -0.0022666664 -0.00029104017
-0.0037746418 -0.0022653397 -0.00027635507
-0.0038016699 -0.0017729166 -0.00025905063
-0.0037666678 -0.0032000009 -0.0037476877
-0.0037583332 -0.0032250036 -0.00075635978
-0.0040333336 -0.0031333335 -0.00035751425
-0.0037846158 -0.0032208334 -0.00030414411
-0.0040333341 -0.003133334 -0.00075635826
-0.0040333336 -0.0031333338 -0.0012549129
-0.0040333304 -0.0027666676 -0.00075635768
-0.0040666633 -0.0022666659 -0.0012549143
-0.0040333308 -0.0027666667 -0.0012549129
-0.0027656101 -0.0012513229 -0.0045675319
-0.0032666705 -0.0017666669 -0.0045453724
0.0012666676 0.0027666676 -0.00075635745
0.0012666686 0.0022333313 -0.00075635733
0.0027700495 0.0017362966 -0.00027553062
0.0032353883 0.0017446155 -0.00040149014
0.0018898083 0.0017214436 -0.00027262256
0.0012666676 0.0017333346 -0.00075635815
8.1481441e-05 0.0012111114 0.0017364174
7.3333322e-05 0.0011955556 0.0025651255
-0.0001158192 0.0012531076 0.002587059
-0.00076666562 0.0032333364 -0.0012549128
-0.0024390479 0.0031847623 -0.00041544158
-0.0023594042 0.0027346544 -0.0003841701
-0.0039000001 0.0005333334 0.0016699419
-0.0040333332 0.00053333334 0.0016367054
-0.0040416662 7.5000011e-05 0.0025590323
-0.0040603573 0.00013063068 0.0022152099
-8.823524e-05 -0.0012386559 0.0017291554
0.00012027281 -0.0012565304 0.0017348621
-0.0037702259 0.0027651682 -0.00027348916
-0.0032497938 0.0022191363 -0.00029432401
-0.0037774432 0.0022345402 -0.00027169171
-0.0037632785 0.0032101716 -0.0027522636
0.0012666702 -0.0032333364 -0.0022520211
0.0017666633 -0.0032333364 -0.0027505753
0.0022457903 -0.0022361409 -0.00030439813
0.00076666533 -0.0017666664 -0.00075635721
0.00012133333 -0.0012613334 0.00024075084
0.0012666673 -0.0017666668 -0.00075635745
0.0040666633 -0.0002666667 -0.0012549143
0.0040666629 -0.00076666655 -0.0012549144
0.0040666633 -0.00076666661 -0.0017534697
0.0022318517 -0.00026666664 -0.00027700793
0.0040666629 0.00023333333 -0.0012549146
0.002765524 -0.003232195 -0.0012535471
-0.0040666633 -0.00026666673 -0.0022520241
-0.0040666633 0.0017333333 -0.0012549142
-0.0040666629 0.0017333335 -0.0017534692
-0.0040666629 0.0012333337 -0.0012549144
-0.0040666661 0.0031333335 -0.0022520223
-0.0040666652 0.003133334 -0.0027505774
-0.0040666638 -0.00076666672 -0.00075635861
-0.0040666629 0.0027666676 -0.0042462437
-0.0040666633 0.00073333352 -0.0042462451
-0.0040666629 0.0022333341 -0.0037476886
-0.0040666633 -0.00026666673 -0.0042462442
-0.0040666629 -0.00076666672 -0.0032491335
-0.0040666629 -0.0012666665 -0.0027505788
-0.0022666666 0.0032333371 -0.0012549121
-0.00076666591 0.0032333366 -0.002252022
-0.0032571412 0.0032095264 -0.0037476863
-0.0040666629 0.0022333327 -0.0022520244
-0.0040666629 0.0027666662 -0.0022520244
-0.0040666629 0.0027666655 -0.0017534702
-0.0040666633 0.00073333341 -0.0032491344
-0.0032645671 0.0027369373 -0.0045402832
-0.0032666705 0.0022333339 -0.0045453729
0.00076612493 -0.00075279246 -0.0062408284
0.0012629816 -0.00073122728 -0.0057415352
0.00076666509 -0.00073801161 -0.0057413201
0.00075698917 -0.0017333332 -0.0045979139
0.0012666665 -0.0022666664 -0.0045453757
0.00076666655 -0.0022666664 -0.0045453762
0.00039999999 0.001 -0.007769363
0.0012266666 0.001 -0.0073173405
0.0016333334 0.001 -0.0073040458
0.0012666667 0.001 -0.0077693625
-0.0012666675 0.0022333341 -0.0045453738
0.001344444 0.0002444445 -0.008500577
0.0013791664 -0.00025416669 -0.008500577
0.0017666665 0.00023333341 -0.008500577
0.0012999997 0.00073333335 -0.008500577
0.0017666671 -0.00026666673 -0.008500577
0.0020555558 0.00018888891 -0.008500577
-0.0022666662 0.0032205153 -0.0042360141
-0.00076666643 -0.0012666668 -0.004611847
0.00033194872 -0.0007390831 -0.0062404606
0.0007676087 -0.0007534597 -0.006739635
0.00028148139 -0.00073086424 -0.008500577
0.00031710893 -0.00074139499 -0.0082425214
0.00061111111 0.0002111111 -0.008500577
0.0003345946 -0.00074774737 -0.0077354233
-0.0022758744 -0.00077631557 -0.0045611151
-0.0017620043 -0.001262005 -0.0045767557
-0.0017706768 -0.00079047622 -0.0045611183
0.00033146035 -0.00073782698 -0.0067401393
-0.0027673347 -0.00027066673 -0.0045473687
0.0027643652 -0.0032310372 -0.0042457818
0.0022666678 -0.0032333366 -0.0037476867
0.0022666682 -0.0032333371 -0.0042462447
0.00012051283 -0.0021999998 -0.00042398833
0.002266668 -0.0032333361 -0.0017534667
0.0017666642 -0.0032333364 -0.001254913
0.0022666673 -0.0032333371 -0.0022520197
0.0037577965 -0.0032025762 -0.0012258134
-0.002119442 0.0011972224 0.0012378618
-0.0021187491 0.0011887506 0.0017281068
-0.0037816023 0.0017324678 -0.00027593365
-0.0032277771 0.0017382221 -0.00029148441
-0.0037818416 0.0012340788 -0.00027348916
-0.0040585152 0.00019407411 0.0017342013
-0.00026666673 -0.0032333371 -0.0042462442
-0.00027833329 -0.0032016658 -0.0045453757
-0.00076666573 -0.0032333366 -0.0037476872
-0.0002666667 -0.0032333359 -0.0037476839
0.00026666696 -0.0032333371 -0.0027505783
0.00026666661 -0.0032333373 -0.003249133
0.00076666579 -0.0032333364 -0.0027505793
0.00076666567 -0.0032333364 -0.0032491346
0.00026666682 -0.0032333361 -0.0037476895
0.0017666657 -0.0032333364 -0.0037476867
0.0017666642 -0.0032333366 -0.0042462433
0.0017666664 -0.0032333364 -0.0032491316
0.0027666665 -0.0033098042 -0.0045121387
0.0012666697 -0.0032333364 -0.0042462433
0.00076666556 -0.00075802405 -0.0072387992
0.0012630466 -0.0007354035 -0.0067392499
0.0012625356 -0.00073569606 -0.0072379056
0.00033291121 -0.0007415599 -0.0072382004
0.0017563791 -0.00071180798 -0.0077294819
-5.8730213e-05 -0.0016793651 -0.0002725753
8.8888875e-05 -0.001 0.0002075145
0.001933335 -0.0016833334 -0.00025780313
0.0007666655 -0.0022666671 -0.00075635815
0.0018736846 -0.00098596478 0.00019701873
0.0040611112 -0.0022499999 -0.0045398362
0.0040666624 -0.0017666668 -0.0032491332
0.0017666682 0.0032333364 -0.0017534662
0.0022666685 0.0032333359 -0.0017534674
0.00076666579 0.0032333373 -0.002750576
0.00076666602 0.0032333364 -0.0032491337
0.0040666624 0.0012333337 -0.0012549144
0.0040544681 0.0017089432 -0.0017696817
0.0027666672 -0.0012666668 -0.0045453748
0.0022666652 -0.0017666667 -0.0045453738
0.0022666662 -0.0012666668 -0.0045453752
0.001758332 -0.00069166505 -0.0057419064
0.0020333333 -0.00053333334 -0.006240462
0.0017625 0.00072916673 -0.008500577
0.0037583292 0.0032250024 -0.0042462405
0.0040333336 0.0031333338 -0.0042462423
0.0036666663 0.0032333334 -0.0045121387
0.0037070925 0.0027418444 -0.0045177937
-0.002246666 0.0031855549 -0.0045342958
-0.0021128198 0.0011636761 0.0022217608
-0.0032571438 0.0032095267 -0.0017534667
-0.0027762302 0.0032289629 -0.00029240339
-0.0032571431 0.003209526 -0.00075635966
0.00076666567 0.0017333344 -0.00075635849
0.0022404043 0.0022276773 -0.00029507
0.0027587898 0.0027646513 -0.00027314457
0.0040589706 0.0001948718 0.0012378618
-0.0040333341 -0.003133334 -0.0017534681
-0.0037666687 -0.0032000009 -0.0027505769
-0.0027666655 -0.0032333364 -0.0022520216
0.0022666666 -0.0032333361 -0.0027505774
0.0022666673 -0.0032333373 -0.0032491353
0.0037649053 0.0017321571 -0.00025956403
-0.0040666624 -0.0017666669 -0.0027505802
-0.002771731 -0.002266668 -0.00026629027
-0.0027739529 -0.0017672885 -0.00026684487
-0.0020953855 -0.0012599998 0.00073981774
-0.0031362905 -0.0022767957 -0.00031039398
-0.003156537 -0.0027751618 -0.00029788399
-0.0027657638 -0.0027653188 -0.00026909239
-0.0037752558 -0.0027621672 -0.00028839055
-0.0031873807 -0.0032349518 -0.00028845947
-0.0027651859 -0.0032333359 -0.00027553062
-0.0027666637 -0.0032333373 -0.00075635966
-0.0040333318 -0.0027484847 -0.00030312641
-0.0040578917 -0.00022719298 0.0017337929
-0.0040624384 -0.00018685446 0.0022195242
-0.0040499996 -0.00012500001 0.0025590323
-0.0027666644 -0.0032333373 -0.0012549129
-0.0022666673 -0.0032333366 -0.001254912
-0.0022666676 -0.0032333368 -0.00075635884
-0.0032666635 -0.0032333357 -0.00075635884
-0.0027701766 -0.00076666666 -0.0045716143
-0.0022518744 -0.0012582786 -0.0045711286
-0.0027666676 -0.0017666668 -0.0045453757
-0.0032666703 -0.0022666664 -0.0045453748
0.00026797884 0.0032320232 -0.0017516345
0.00076666573 0.0032333368 -0.0022520178
0.00076666556 0.0032333373 -0.0017534669
0.0007666655 0.0027666669 -0.00075635826
0.0020666667 0.00093333336 4.1329535e-05
8.7012893e-05 0.001212555 0.0012331137
-0.00011904752 0.0012333337 0.00073930621
-0.0027836186 0.0027670516 -0.0002797062
-0.0022501333 0.0022111142 -0.00030617346
-0.0012666676 0.0022333313 -0.00075635745
-0.0018749499 0.0011780349 0.00074045919
-0.0012666679 0.0027666681 -0.00075635803
-0.00076666538 0.0027666669 -0.00075635826
-0.00011904754 0.0012333337 0.0017364151
-9.5238087e-05 -0.001 0.0017269198
-0.0038450353 -0.00021063822 0.0021992563
-0.0038897435 -0.00013333333 0.0025826809
-0.0027666648 0.0032333364 -0.0032491342
-0.0027666651 0.0032333364 -0.002252022
-0.0032610146 0.0032192115 -0.0027522675
-0.002766663 0.0032333364 -0.0027505793
-0.0017666628 0.0027666672 -0.00075635826
0.0040666633 -0.0022666662 -0.0012549142
0.0040666629 -0.0017666669 -0.0012549144
-9.2307651e-05 0.00080192304 -0.00026739086
-0.00012083322 0.0012339281 0.00023600296
-0.0007666655 0.00023333334 -0.00075635815
0.0012666696 -0.0032333371 -0.0012549118
0.00033636359 0.001 -0.0062646344
-0.00024201389 0.0017288191 -0.004599039
0.0040666629 -0.00076666661 -0.0022520244
-0.0031611808 -0.0017584312 -0.00034578424
-0.0040666629 0.00023333335 -0.0022520244
-0.0040666629 -0.00076666655 -0.0022520244
-0.0040666629 0.00023333334 -0.0017534702
-0.0040666633 -0.00026666673 -0.0012549144
-0.0040666629 0.00023333337 -0.0012549144
-0.0040666629 -0.0002666667 -0.0017534692
-0.0040666638 0.0022333341 -0.0017534702
-0.0040666629 0.0022333327 -0.0012549144
-0.0040666657 0.0031333342 -0.0032491323
-0.0040666638 -0.00076666672 -0.0017534699
-0.0040666629 -0.00076666672 -0.0012549144
-0.0040666633 0.00023333333 -0.00075635873
-0.0040666624 0.00023333337 -0.00025780313
-0.0040656105 -0.00026245616 -0.00026410073
-0.0040666629 -0.0022666662 -0.00075635849
-0.0040640989 -0.00076666666 -0.00027314341
-0.0040581361 -0.00022480622 0.0002453893
-0.0027666674 0.0022333332 -0.0045453748
-0.0017666664 0.0032333364 -0.0012549132
-0.00026816814 0.0032318365 -0.0022538183
-0.0032586681 0.0032133358 -0.0032451416
-0.0040666633 0.002766666 -0.0027505779
-0.0040666629 0.0027666658 -0.0037476877
-0.00026666684 -0.0032333364 -0.003249133
0.0012497728 -0.0017424659 -0.0045617637
-0.0018810459 0.0011847727 0.00023383414
-0.0012666692 0.0017333345 -0.00075635803
-0.00076666573 0.001733334 -0.00075635896
0.00028461518 -0.00025897441 -0.0072375778
-0.0012666665 0.0027666658 -0.0045453743
-0.00076994521 0.0031956276 -0.0045382916
-0.0012666701 0.0032333373 -0.00424624
0.00028257564 0.0032196955 -0.0045446199
0.00077333342 0.0032258325 -0.0045437133
0.00076666713 0.0027666658 -0.0045453752
0.0012598571 0.0032286723 -0.0045443033
-0.00026666658 0.0031965799 -0.0045445231
0.0016333334 0.001 -0.0082845362
0.0012741935 0.001 -0.008279711
0.0020333333 0.00053333334 -0.0082346825
0.0012666701 0.0032333371 -0.0032491372
0.0017666658 0.0032333364 -0.0037476867
0.0017666671 0.0032333366 -0.0032491321
0.0022666676 0.0032333366 -0.0037476807
0.001766665 0.0032333366 -0.0042462396
0.0012851852 0.001 -0.0067476337
0.00078888878 0.001 -0.0067537902
-0.00076464616 0.0017340067 -0.0045463834
-0.00073760713 0.0012076925 -0.0045828684
-0.001266668 0.0012333336 -0.0045453743
-0.00075591396 0.0007297488 -0.0046082735
0.0020666667 -0.00026666667 -0.008500577
0.0017592593 -0.00062962965 -0.008500577
0.0013947368 -0.00067017548 -0.008500577
-0.0022666692 0.0032333368 -0.0037476895
-0.0012666695 0.0032333366 -0.0032491346
-0.00076666579 0.0032333364 -0.0027505772
-0.0012666703 0.0032333361 -0.0027505753
0.00032881828 -0.00073102664 -0.0057416237
-0.00026666676 -0.0012666659 -0.0046118465
0.0002666667 -0.00026666673 -0.008500577
0.00075884437 -0.00075884495 -0.0082174111
0.00067999988 -0.00073333335 -0.008500577
0.00056666665 0.00066666666 -0.0085005779
-0.0002656203 -0.001740508 -0.0045994786
-0.0012598776 -0.001261419 -0.0046084607
-0.00026666658 -0.0027666653 -0.0045453738
0.0002666667 -0.0027666651 -0.0045453701
0.00026344092 -0.0031634409 -0.0045453752
0.00076666579 -0.0032333371 -0.0017534667
0.00076666573 -0.0032333366 -0.001254913
-0.0022439794 -0.0022608815 -0.00029057963
-0.0022932014 -0.0027644439 -0.00031697913
-0.001907843 -0.001 0.00017623277
-0.0019207423 -0.0022259264 -0.00030802796
-0.0018758924 -0.0012681736 0.00073555065
-0.0018899977 -0.0017507406 -0.00026740553
0.0032570369 -0.0027000005 -0.0045372504
0.0027624124 -0.002732625 -0.0045390096
0.0027666669 -0.0022666664 -0.0045453743
0.0012624926 -0.00073333352 -0.0062411386
0.0017613247 -0.00071388745 -0.0072371517
0.0012626001 -0.00074418401 -0.0077327928
-0.0018795887 0.001180953 0.0012358269
-0.0018824987 0.0011704171 0.0017310153
-0.0027716707 0.0022414122 -0.00029047416
-0.0028119525 0.0017338957 -0.00030548591
-0.00211934 0.0011905356 0.00074053742
-0.0040333332 0.00053333334 0.0012821774
-0.0040589706 0.00019487186 0.0012378618
-0.0032164117 0.001237459 -0.00029214588
0.00076666661 -0.0027666672 -0.0045453762
0.0022719298 -0.0031754391 -0.0045121387
0.0017474075 -0.0031437043 -0.0045446358
0.0022604503 -0.0027485867 -0.0045425571
0.0017666668 -0.0027666665 -0.0045453771
0.00026666667 -0.0032333371 -0.0042462372
-0.00026666673 -0.0032333371 -0.0027505758
0.00026666673 -0.0032333364 -0.0022520225
-0.00076666585 -0.0032333368 -0.0032491349
-0.0012666695 -0.0032333359 -0.0032491351
-0.0012666702 -0.0032333359 -0.0037476886
-0.00026666693 -0.0032333371 -0.002252019
-0.002266668 -0.0032333368 -0.0037476905
-0.0022666669 -0.0032333371 -0.0032491339
-0.0027666648 -0.0032333366 -0.0032491351
-0.0032571426 -0.003209526 -0.0027505741
0.00076666573 -0.0027666669 -0.00075635803
0.0012666676 -0.0027666679 -0.00075635721
0.00011234565 -0.001716049 -0.00031196768
0.0018932833 -0.0011912148 0.00022812653
-0.0022666657 -0.0002666667 -0.0045453752
0.0040666629 -0.0017666667 -0.0042462428
0.0040333341 -0.00014358974 0.00022541126
0.002766663 0.0032333364 -0.0012549128
0.0017666653 0.0032333364 -0.0012549128
0.00076666591 0.0032333364 -0.0012549132
0.0032666663 0.0032333364 -0.0032491307
0.0037577937 0.0032239833 -0.0032505679
0.0032656107 0.0032306907 -0.0037482129
0.0037592633 0.0032222252 -0.0037482139
0.0040445854 0.0022268402 -0.0017720291
0.0037666629 -0.001766667 -0.0045453748
0.0032666686 -0.0022666666 -0.0045453748
0.0020333333 -0.00053333334 -0.0072375722
0.0020333333 -0.00053333334 -0.0067390171
0.002053333 -0.00022666673 -0.0072375732
0.0020533337 -0.00022666673 -0.006739019
0.002053333 -0.00022666673 -0.006240462
0.002055556 0.00018888895 -0.0072375722
0.0022666662 -0.0022666664 -0.0045453766
0.0017666664 -0.0017666668 -0.0045453748
0.0020333333 0.00053333334 -0.0077361274
0.0020333333 0.00053333334 -0.0072375722
-0.0032666696 0.0017333331 -0.0045453752
-0.0018989599 0.0011583334 0.0022167959
-0.0021102561 0.0011384615 0.0025698976
-0.001922222 0.0010962962 0.0025341045
-0.0032601315 0.0032169959 -0.002255932
-0.00026666676 0.0027666672 -0.00075635756
0.0020903386 0.0012386473 0.00073930644
-0.0032571419 -0.0032095262 -0.0022520223
-0.0040333341 -0.003133334 -0.0027505783
-0.0040333308 -0.0027666672 -0.0022520218
0.0027666639 -0.0032333361 -0.0032491337
0.0027666681 -0.00076666655 -0.0045453752
0.0020564108 -0.0006128205 -0.0052050021
-0.0040666633 -0.0017666668 -0.0017534697
-0.0040666629 -0.0022666662 -0.001753469
-0.0040666629 -0.0017666668 -0.0012549146
-0.0023047309 -0.0032236672 -0.00033489824
-0.0018629628 -0.0032222224 -0.00045722537
-0.0017666661 -0.0032333364 -0.00075635966
-0.0032654542 -0.0032303066 -0.0012512862
-0.0027666644 -0.0032333366 -0.0017534662
-0.0022648564 -0.0017648577 -0.0045461459
0.00026666679 0.0027666672 -0.00075635721
0.00010377356 -0.0012666667 0.0025817659
-0.00026797899 0.0032320251 -0.0007545267
-0.0038671738 0.00016751268 0.00221253
-0.0017666664 0.0032333366 -0.0017534662
-0.0022666689 0.0032333352 -0.0017534676
-0.0022666682 0.0032333366 -0.0022520199
-0.0017666664 0.0032333368 -0.0022520209
-0.0027666655 0.0032333371 -0.0017534681
-0.0022666678 0.0032333368 -0.0027505748
-0.001935088 0.0016543859 -0.00036276225
0.0040666633 -0.0012666667 -0.0012549143
0.0040666629 -0.0022666664 -0.0017534699
-0.0018833332 0.00093333336 0.00010780361
-0.0018719258 0.00023572559 -0.00025462313
0.0012666704 -0.0032333371 -0.00075635861
0.0010333334 -0.0034 -0.00045722537
0.0012666689 -0.0022666664 -0.0007563578
0.0017666647 -0.0027666667 -0.00075635815
-5.3333373e-05 0.00071333349 -0.0057419082
0.00039999996 0.001 -0.0057751443
0.00076666661 0.001 -0.0062736995
0.0012666667 0.001 -0.0062736999
0.00026666664 0.002766666 -0.0045453734
0.00026846843 0.0017315313 -0.0046109487
-0.0040666629 0.00073333335 -0.0017534697
-0.0040666652 0.0031333333 -0.0017534683
-0.0040666629 0.0027666672 -0.0012549146
-0.0040666629 0.00073333335 -0.00075635826
-0.0040666633 -0.0012666668 -0.0022520241
-0.0040666629 -0.00026666667 -0.00075635826
-0.0040666633 -0.0017666668 -0.00029104017
-0.0040666633 -0.0012666668 -0.0012549143
-0.0038297379 -0.0012766236 -0.0002437369
-0.0032227316 -0.0012606065 -0.00035600434
-0.00326667 0.00073333347 -0.0045453748
-0.00026666684 0.0032333366 -0.0027505776
-0.0012666695 0.0032333366 -0.0022520202
-0.0040666624 0.0027666667 -0.0032491344
-0.0040659849 0.0031360544 -0.0037483675
-0.00026666661 -0.00026666673 -0.00075635838
-0.00026666699 0.0002333334 -0.00075635745
4.9659866e-05 0.00167483 -0.00030528475
-0.00076666608 0.0032333364 -0.0042462428
-0.00026666641 0.0032333371 -0.0042462433
0.00078000006 0.001 -0.0082080914
0.00076666666 0.001 -0.0073372819
0.0032433977 0.0027440256 -0.004538476
0.0032274509 0.0032235282 -0.0045316881
0.0037232928 0.0022240959 -0.0045353621
0.0032666698 0.0022333348 -0.0045453738
0.0016238095 0.001 -0.0077883569
0.0012666701 0.0032333361 -0.0027505758
0.0027666658 0.0032333368 -0.0032491335
0.0027666651 0.0032333371 -0.0037476839
0.002266668 0.0032333366 -0.00424624
0.0022699621 0.0032241745 -0.0045435498
0.0017666668 0.0032153144 -0.0045408853
0.0027642576 0.0032313243 -0.0045449743
0.0016333332 0.001 -0.0067722537
0.0016333334 0.001 -0.0062736985
0.0020333333 0.00053333334 -0.0067390171
0.0022666655 0.0027666658 -0.0045453743
-0.0017666647 0.0032333371 -0.0037476853
-0.0012666705 0.0032333371 -0.0037476867
-0.0017666669 0.0032333366 -0.003249133
-0.00076666567 0.0032333371 -0.0032491351
0.00039999999 0.001 -0.0068054912
0.00064999983 -0.00028333333 -0.008500577
0.00076666579 -0.00076666678 -0.0077361343
0.0012700302 -0.00073187926 -0.0082174838
-3.333333e-05 0.00036666673 -0.007736125
0.00028461518 -0.00025897447 -0.0077361334
0.00026780643 -0.0017509972 -0.0046024765
-0.00076015346 -0.0017291188 -0.0045896904
-0.0007666669 -0.0022666664 -0.0045453757
-0.00026666644 -0.0022666664 -0.0045453748
-0.00076666655 -0.0027666665 -0.0045453757
0.00076666614 -0.0032333368 -0.002252022
-0.001954054 -0.0026846849 -0.0003063113
-0.00076666591 -0.0032333371 -0.00075635966
-0.00076666556 -0.0027666674 -0.00075635768
0.0017666671 -0.0022666664 -0.0045453743
0.0017583335 -0.00069166522 -0.0067390227
-0.00011904754 0.0012333329 0.0012378616
-0.0020924355 -0.0012534278 0.0012305544
-0.0020333333 -0.001 0.0022017341
-0.0020555558 -0.001351111 0.0025651255
-0.0020775881 -0.0012557468 0.0022326806
-0.0018717955 -0.0012730771 0.0025711772
-0.0020333333 -0.001 0.00073930644
-9.3939372e-05 -0.001 0.0012439047
-0.0040333332 0.00053333334 0.00093872845
-0.0040575722 -0.00023030308 0.0012378618
0.0012666674 -0.0027666665 -0.0045453729
0.00076666591 -0.0032333366 -0.0042462433
-0.0032571428 -0.003209526 -0.0032491344
-9.78354e-05 -0.0012471864 0.00024420465
-0.00076666591 -0.00026666664 -0.00075635908
-0.0017666668 -0.00026666673 -0.0045453757
0.0012666692 0.0032333371 -0.0012549118
0.0022666678 0.0032333366 -0.003249133
0.0022666685 0.0032333366 -0.0027505755
0.0027666637 0.0032333371 -0.0027505748
0.0022666689 0.0032333371 -0.0022520211
0.0017666661 0.0032333364 -0.0022520216
0.0032656107 0.0032306912 -0.0017497735
0.0032654542 0.0032303073 -0.0022556493
0.0037569029 0.0032222965 -0.0027499401
0.00076666573 0.0032333366 -0.00075635966
0.0002681684 0.0032318351 -0.0022538181
0.0040333341 0.003133334 -0.0037476872
0.0040333336 0.0031333338 -0.0032491323
0.0040666633 0.0022333339 -0.0037476886
0.0040333308 0.0027666674 -0.0032491337
0.0040666629 0.00073333329 -0.0017534697
0.0040666629 0.00023333337 -0.0022520244
0.0040666638 0.00023333337 -0.0027505795
0.0040666629 -0.0002666667 -0.0027505788
0.0040666633 -0.00026666673 -0.0042462461
0.0040333308 0.0027666674 -0.0042462451
0.0040666638 0.0012333337 -0.0017534702
0.0020555567 0.00018888894 -0.0067390166
0.0020555567 0.00018888892 -0.0077361264
-0.0032666712 0.0012333336 -0.0045453734
-0.00012046195 0.0012587458 0.0022349702
-0.00076666562 0.0022333316 -0.00075635838
9.0759073e-05 0.00079009897 -0.00026899204
-0.0040666633 -0.0022666666 -0.0022520241
-0.0040333304 -0.0027666672 -0.0017534688
-0.0018735209 -0.0012657095 0.00023804791
-0.0022666687 -0.0032333359 -0.0017534655
-0.0032571445 -0.003209526 -0.0017534676
6.6666667e-05 -0.001 0.0021684971
-8.666666e-05 -0.001 0.0022150292
3.333333e-05 -0.001 0.002534104
-6.6666667e-05 -0.001 0.002534104
-6.5217384e-05 -0.001231884 0.0025658957
0.00026797899 0.0032320239 -0.0007545267
-0.0038866664 9.3333329e-05 0.0025695572
-0.0022666673 0.0032333366 -0.0032491325
-0.0017666657 0.0032333366 -0.0027505776
0.0012666703 -0.0032333361 -0.0027505765
-9.1666596e-05 -0.00084999978 -0.00025780313
-0.0007666655 -0.00076666725 -0.00075635838
0.00026666661 -0.0032333371 -0.0012549114
0.00076666573 -0.0032333364 -0.00075635966
0.00026666673 -0.0032333366 -0.00075635931
-0.00076666608 -0.0032333366 -0.0027505774
-0.00076666608 -0.0032333366 -0.0022520216
-0.0017666664 -0.0032333364 -0.0012549129
-0.0017666651 -0.0032333373 -0.0037476853
0.00076666666 0.001 -0.0057751434
0.00076142908 0.0022047632 -0.0045662629
0.00026761918 0.0022087647 -0.0045736721
0.0012666674 0.002766666 -0.0045453734
0.0012625906 0.0022177473 -0.0045532621
-0.0018666621 -0.00076666614 -0.00025780383
-0.0022318524 0.00023333327 -0.00027700793
-0.0040647904 -0.0012629215 -0.00027796952
-0.0040666629 -0.0012666667 -0.0017534695
-0.0027660024 -0.0012712997 -0.00028355746
-0.0038372574 -0.00026078417 0.00073930621
-0.0027666676 0.0017333333 -0.0045453752
-0.0040666633 -0.00076666672 -0.0037476895
-9.9516874e-05 0.0017101445 -0.00027225446
0.00076666672 0.001 -0.0077693625
0.0007666662 0.0032333364 -0.00424624
0.0002666667 0.0032333359 -0.0042462433
0.001266669 0.0032333364 -0.0042462419
0.0017666643 0.0032333373 -0.0027505781
0.0027666641 0.0032333364 -0.0042462396
0.0027666681 0.0027666665 -0.0045453757
-0.00076666538 0.0032333378 -0.0037476881
0.00026753615 -0.0022614489 -0.004547976
0.0009333333 -0.0034 -0.00045722537
-0.00026666676 -0.0032333373 -0.0012549125
-0.0012666697 -0.0032333373 -0.0022520218
-0.00076666579 -0.0032333368 -0.0012549132
-0.0022666685 -0.0032333361 -0.0027505762
-0.0018809496 -0.0012596126 0.001240148
-0.0020333333 -0.001 0.0012378613
-0.0038666672 -0.00053333334 0.0013375725
-0.0018739804 -0.0012637394 0.0022374019
-0.0040604617 0.00017906982 0.00074317097
0.00077956985 -0.0031827954 -0.0045453757
-0.00076666556 -0.0017666668 -0.00075635849
-0.0012666665 -0.0017666664 -0.00075635745
-0.0040666629 -0.0017666667 -0.0022520244
0.0027666679 -0.00026666673 -0.0045453748
0.0020601628 -0.00024715453 -0.0052368655
0.0020533337 -0.00022666673 -0.0057419068
0.0027629347 0.00024640004 -0.004558404
0.0020555567 0.00018888894 -0.0057419068
0.0012666696 0.0032333361 -0.0017534667
0.0027666641 0.0032333366 -0.0022520204
0.0032666663 0.0032333371 -0.0027505753
0.0037515969 0.0032160939 -0.0022581331
0.0040333341 0.003133334 -0.0027505783
0.00026666667 0.0032333359 -0.0027505753
0.0040666633 0.00073333341 -0.0022520241
0.0040666629 0.00073333329 -0.0027505786
0.0040666633 -0.0002666667 -0.0032491337
0.0040666629 0.00023333335 -0.003249133
0.0040666633 0.00073333335 -0.0032491339
0.0040333332 0.0020000001 -0.0045121387
0.0037284326 0.001734314 -0.0045307111
0.0040666629 0.0012333336 -0.0022520244
0.0040606395 0.0017212852 -0.0022520237
0.0040638377 0.0022418078 -0.0027562114
0.0040575722 0.0022333334 -0.0022610882
0.0040333304 0.0027666669 -0.0037476905
0.0017583327 -0.00069166528 -0.0062404671
0.002055556 0.00018888895 -0.0082346816
-0.0027666672 0.0012333336 -0.0045453748
0.0040333313 0.0027106667 -0.0017547978
-0.00076666597 0.00073333341 -0.00075635931
0.0020333333 0.00053333334 -0.0057419073
0.0032666703 0.00023333337 -0.0045453734
0.00026666667 -0.0032333359 -0.0017534657
-0.0012666698 -0.0032333371 -0.0027505748
-0.0017666653 -0.0032333368 -0.0022520211
-0.0017666661 -0.0032333368 -0.003249133
-0.0017666648 -0.0032333364 -0.0042462423
0.001248148 0.001 -0.0057997638
0.00076523278 0.0017240138 -0.0046064872
0.001766667 0.0027666667 -0.0045453743
-0.0022024717 -0.0002643108 -0.00028011878
-0.0040666629 -0.0012666669 -0.00075635849
-0.0032414389 -0.00075686205 -0.00032636384
-0.0027594091 -0.0007732418 -0.00030912948
-0.0037653337 0.0032040006 -0.0032451453
-0.0037666692 0.0032000009 -0.0037476877
0.00076666544 0.0032333364 -0.0037476881
0.0012666699 0.0032333357 -0.0037476849
0.0032666666 0.0032333364 -0.0042462396
0.0022666652 0.0022333341 -0.0045453738
-3.333333e-05 0.00036666673 -0.0072375694
-0.0012666668 -0.0027666676 -0.00075635791
-0.00026666667 -0.0032333368 -0.0017534664
-0.00076666579 -0.0032333371 -0.0017534678
-0.00026666676 -0.0032333361 -0.00075635908
-0.0012666701 -0.0032333361 -0.00075635884
-0.0012666702 -0.0032333366 -0.0017534667
-0.0017666662 -0.0032333373 -0.001753466
-0.0022666671 -0.0032333371 -0.0022520211
-0.001874855 -0.0012617144 0.0017337566
-0.0038777778 0.00053333334 0.00085009634
-0.0027806675 0.00073599967 -0.00032494287
-0.003873334 0.00021999991 0.0012378606
-0.0038721387 0.0002089551 0.00074525923
-0.0040333332 -0.00053333334 0.0013375725
-0.0020333333 -0.001 0.0017231214
-0.0019533332 -0.001 0.0012777457
-0.0019583332 -0.001 0.00071437866
-7.5498545e-05 -0.0012415956 0.0022301432
-0.0040611085 0.00012407408 0.00024998398
-0.0040575727 -0.00023030308 0.00073930644
0.0012531531 -0.0031891887 -0.0045453752
-0.0018666635 -0.00026666655 -0.00025780359
-0.0012666682 -0.0022666664 -0.00075635815
0.0032666698 -0.00076666672 -0.0045453724
0.0020555563 0.00018888894 -0.0052433508
0.0012666697 0.0032333371 -0.0022520197
0.0027666646 0.0032333371 -0.0017534676
0.0037447535 0.0032111912 -0.0017520729
0.0040333336 0.0031333335 -0.002318497
0.0040333304 0.0027666676 -0.0027505788
0.0040666629 -0.00076666666 -0.0037476891
0.0040666629 0.0012333335 -0.0032491337
0.0040666629 0.0017333332 -0.0037476891
0.0040666629 0.0012333338 -0.0027505767
0.0040651052 0.0022380063 -0.0032584525
-0.0027666679 0.00073333341 -0.0045453748
-0.002266665 0.0012333333 -0.0045453734
0.0027535623 0.00073561253 -0.0045644059
0.0027504915 0.001216667 -0.0045629703
0.0032666684 0.0017333335 -0.0045453757
0.0027666679 0.0017333335 -0.0045453762
0.0040666638 0.00023333337 -0.0037476886
-0.0017666658 -0.0032333366 -0.0027505779
0.0012560365 0.0017282882 -0.0045933439
0.0017626783 0.0022250712 -0.004549637
-0.0027614939 0.00024022978 -0.00033115479
-0.0040666629 -0.0017666667 -0.00075635861
-0.0027450798 -0.00027555542 -0.00032776012
0.00026931227 0.003230691 -0.00374769
0.0022633818 0.0012272891 -0.0045799869
0.0022546444 0.0017224045 -0.0045535462
0.0027666676 0.0022333327 -0.0045453752
0.00026666699 -0.0027666672 -0.00075635652
-0.0012666698 -0.0032333366 -0.0012549119
-0.0039000001 0.00053333328 0.0012378616
-0.0038347803 -0.00026450047 0.0012396595
-0.0040333332 -0.00053333334 0.0015369942
-0.0020912588 -0.0012557379 0.0017222506
-0.0019466666 -0.001 0.0021884395
-0.0007666655 -0.0022666676 -0.00075635908
0.0037666634 -0.00076666666 -0.0045453734
0.0032666696 -0.0002666667 -0.0045453757
0.0040333313 0.002742667 -0.0022626577
0.0040333332 0.0017333332 -0.0045121387
0.0040666629 -0.0002666667 -0.0037476895
0.0040666629 0.00023333337 -0.0042462433
0.0020333333 0.00053333334 -0.006240462
0.0032666703 0.00073333335 -0.0045453766
0.0016333333 0.001 -0.0058194604
0.0040666629 0.00073333329 -0.0037476891
0.0017591479 0.0017187968 -0.0045716162
-0.00026666693 -0.0027666669 -0.00075635721
-0.003869232 0.00021057689 0.0017348174
-0.0018948716 -0.001 0.0016801688
-0.0038666672 -0.00053333334 0.0015702313
0.0040666671 -0.0002666667 -0.0045453757
0.0040536239 0.00019710147 -0.0045410404
0.0040640989 0.0022333334 -0.0042309025
0.002055556 0.00018888895 -0.0062404629
0.0040633949 0.0017267975 -0.0027570962
0.0037652892 0.00073127158 -0.004545032
0.0032666703 0.0012333337 -0.0045453729
0.0040407409 0.0012074073 -0.0045121387
-0.0038356439 -0.0002545453 0.0017297962
0.0037666636 -0.0002666667 -0.0045453762
0.0037666629 0.00023333337 -0.0045453743
0.0040333336 0.00071794871 -0.0045428192
0.0037341062 0.001227132 -0.0045353253
0.0040666633 0.0012333336 -0.0037476886
0.0040644407 0.0012311112 -0.0042329491
0.004064871 0.0017297494 -0.003259857
0.0040640989 0.0017333336 -0.0042309049
0.0040666633 0.00073333335 -0.0042462442
