# .PCD v0.7 - Point Cloud Data file format
VERSION 0.7
FIELDS x y z
SIZE 4 4 4
TYPE F F F
COUNT 1 1 1
WIDTH 1173
HEIGHT 1
VIEWPOINT 0 0 0 1 0 0 0
POINTS 1173
DATA ascii
5.9918697e-05 -0.003980625 7.9835969e-05
-0.0050930893 -0.0020506249 -0.00040161604
-0.0050930893 -0.0034981249 -0.00040161604
0.0068906504 0.001568125 -0.0072623072
-0.0052129268 -0.0020506249 -0.00040161604
-5.9918697e-05 0.003980625 7.9835969e-05
-0.0052129268 -0.0034981249 -0.00040161604
-5.9918697e-05 0.0036187498 7.9835969e-05
-0.0053327642 -0.0020506249 -0.00040161604
-0.0053327642 -0.0034981249 -0.00040161604
-0.0046137399 -0.0041012499 -0.00040161604
-0.0044939024 -0.0034981249 -0.00040161604
-0.0044939024 -0.0041012499 -0.00040161604
0.0068906504 0.0032568749 -0.0072623072
-0.0046137399 -0.0020506249 -0.00040161604
-0.0049732518 -0.0037393749 0.0015241919
-0.0046137399 -0.0034981249 -0.00040161604
-0.0022169917 -0.0041012499 -0.00040161604
-0.0047335774 -0.0020506249 -0.00040161604
-0.0049732518 0.0036187498 0.0015241919
0.0068906504 0.00313625 -0.0072623072
-0.0047335774 -0.0034981249 -0.00040161604
-0.0048534144 -0.0020506249 -0.00040161604
-0.0048534144 -0.0034981249 -0.00040161604
0.0004194309 -0.0041012499 -0.00040161604
0.00053926831 -0.0036187498 -0.00040161604
0.00053926831 -0.0041012499 -0.00040161604
0.0004194309 0.0041012499 -0.00040161604
-0.0068906504 -0.003980625 -0.0072623072
-0.0068906504 -0.0042218748 -0.0072623072
0.0004194309 -0.0020506249 -0.00040161604
0.0004194309 -0.0034981249 -0.00040161604
0.0004194309 -0.0036187498 -0.00040161604
0.00053926831 -0.0034981249 -0.00040161604
0.00029959349 0.0041012499 -0.00040161604
0.00029959349 -0.0020506249 -0.00040161604
0.00029959349 -0.0034981249 -0.00040161604
0.00029959349 -0.0036187498 -0.00040161604
0.00029959349 -0.0041012499 -0.00040161604
0.0001797561 0.0041012499 -0.00040161604
0.0001797561 -0.0020506249 -0.00040161604
0.0001797561 -0.0034981249 -0.00040161604
-0.0068906504 -0.0028949999 -0.0072623072
-0.0068906504 -0.0016887499 -0.0072623072
0.0001797561 -0.00084437494 -0.0075030331
5.9918697e-05 0.0033774998 -0.0075030331
-0.0068906504 -0.0020506249 -0.0072623072
-0.0068906504 -0.0021712498 -0.0072623072
-0.0068906504 -0.002291875 -0.0072623072
-0.0068906504 -0.0024124999 -0.0072623072
-0.0068906504 -0.002533125 -0.0072623072
0.0001797561 -0.0036187498 -0.00040161604
-0.0068906504 -0.0030156248 -0.0072623072
-0.0068906504 -0.00313625 -0.0072623072
-0.0068906504 -0.0032568749 -0.0072623072
-0.0068906504 -0.0033774998 -0.0072623072
-0.0068906504 -0.0034981249 -0.0072623072
-0.0068906504 -0.0036187498 -0.0072623072
-0.0068906504 -0.0038599998 -0.0072623072
-0.00029959349 -0.0034981249 -0.00040161604
-0.0001797561 -0.0034981249 -0.00040161604
-0.0001797561 -0.0036187498 -0.00040161604
-5.9918697e-05 0.003980625 0.0022463701
-0.0070104878 0.00313625 -0.0072623072
-0.0070104878 0.0030156248 -0.0072623072
-0.0001797561 -0.0041012499 -0.00040161604
-0.00029959349 0.0041012499 -0.00040161604
-0.00029959349 -0.0020506249 -0.00040161604
-0.0001797561 -0.0020506249 -0.00040161604
-0.0070104878 0.0028949999 -0.0072623072
-0.0070104878 0.0027743748 -0.0072623072
-0.0070104878 0.0026537499 -0.0072623072
-0.0070104878 0.002533125 -0.0072623072
-0.0070104878 0.0024124999 -0.0072623072
-0.0070104878 0.002291875 -0.0072623072
0.0070104878 -0.00096499996 -0.0072623072
-0.0070104878 0.0034981249 -0.0072623072
0.0001797561 -0.0041012499 -0.00040161604
5.9918697e-05 0.0041012499 -0.00040161604
-0.0070104878 0.0036187498 -0.0072623072
5.9918697e-05 -0.0020506249 -0.00040161604
5.9918697e-05 -0.0034981249 -0.00040161604
5.9918697e-05 -0.0036187498 -0.00040161604
5.9918697e-05 -0.0041012499 -0.00040161604
-5.9918697e-05 0.0041012499 -0.00040161604
-0.0068906504 -0.0014475 -0.0072623072
-0.0070104878 0.0033774998 -0.0072623072
-0.0070104878 0.0032568749 -0.0072623072
-5.9918697e-05 -0.0020506249 -0.00040161604
-5.9918697e-05 -0.0034981249 -0.00040161604
-5.9918697e-05 -0.0036187498 -0.00040161604
-5.9918697e-05 -0.0041012499 -0.00040161604
-0.0001797561 0.0041012499 -0.00040161604
0.0010186179 -0.0020506249 -0.00040161604
-0.00053926831 0.004463125 -0.0072623072
-0.00053926831 0.0045837499 -0.0072623072
-0.0004194309 -0.0042218748 -0.0072623072
-0.0068906504 0.0032568749 -0.0072623072
-0.0068906504 0.00313625 -0.0072623072
-0.0068906504 0.0030156248 -0.0072623072
0.0070104878 -0.00072374998 -0.0072623072
0.0070104878 -0.00084437494 -0.0072623072
-0.00053926831 0.0043424997 -0.0072623072
0.0010186179 -0.0034981249 -0.00040161604
0.0010186179 -0.0036187498 -0.00040161604
0.0010186179 -0.0041012499 -0.00040161604
0.00089878048 0.0041012499 -0.00040161604
0.00089878048 -0.0020506249 -0.00040161604
0.00089878048 -0.0034981249 -0.00040161604
0.00089878048 -0.0036187498 -0.00040161604
0.0070104878 0.00072374998 -0.0072623072
-0.0067708129 -0.003980625 -0.0072623072
-0.0067708129 -0.0042218748 -0.0072623072
-0.0067708129 -0.0043424997 -0.0072623072
-0.0067708129 -0.004463125 -0.0072623072
-0.0068906504 0.0036187498 -0.0072623072
0.0070104878 0.0010856249 -0.0072623072
0.0070104878 0.00096499996 -0.0072623072
0.0070104878 0.00084437494 -0.0072623072
0.00089878048 -0.0041012499 -0.00040161604
0.0070104878 0.00060312496 -0.0072623072
0.0070104878 0.00048249998 -0.0072623072
0.0070104878 -0.00024124999 -0.0072623072
0.0070104878 -0.00036187499 -0.0072623072
-0.0068906504 0.0034981249 -0.0072623072
-0.0068906504 0.0033774998 -0.0072623072
-0.00053926831 0.0042218748 -0.0072623072
-0.0068906504 0.00024124999 -0.0072623072
-0.0072501623 0.0047043748 -0.00088306802
-0.0071303253 -0.0045837499 -0.00088306802
-0.0068906504 0.00096499996 -0.0072623072
-0.0068906504 0.00084437494 -0.0072623072
-0.0068906504 0.00072374998 -0.0072623072
-0.0013781301 -0.0016887499 -0.00738267
-0.0068906504 0.00048249998 -0.0072623072
-0.0068906504 0.00036187499 -0.0072623072
-0.0013781301 -0.0018093749 -0.00738267
-0.0068906504 0 -0.0072623072
-0.0068906504 -0.00024124999 -0.0072623072
-0.0068906504 -0.00048249998 -0.0072623072
-0.0068906504 -0.00060312496 -0.0072623072
0.006171626 0.0048249997 -0.0012441571
-0.0068906504 -0.0012062499 -0.0072623072
-0.0068906504 -0.0013268749 -0.0072623072
0.00065910566 -0.0020506249 -0.00040161604
0.00077894307 0.0041012499 -0.00040161604
0.00077894307 -0.0020506249 -0.00040161604
0.00077894307 -0.0034981249 -0.00040161604
0.00077894307 -0.0036187498 -0.00040161604
0.0050930893 -0.0038599998 0.0029685481
0.00077894307 -0.0041012499 -0.00040161604
0.00065910566 0.0041012499 -0.00040161604
-0.0013781301 -0.0021712498 -0.00738267
-0.0070104878 0.0010856249 -0.0072623072
-0.0013781301 -0.0020506249 -0.00738267
0.00065910566 -0.0034981249 -0.00040161604
0.00065910566 -0.0036187498 -0.00040161604
0.00065910566 -0.0041012499 -0.00040161604
0.00053926831 0.0041012499 -0.00040161604
0.00053926831 -0.0020506249 -0.00040161604
0.0049732518 -0.0038599998 0.0029685481
-0.0014979674 0.0041012499 -0.00040161604
0.0070104878 -0.0032568749 -0.0072623072
-0.0050930893 -0.0037393749 0.001283466
0.0070104878 -0.0033774998 -0.0072623072
-0.0013781301 -0.0020506249 -0.00040161604
-0.0013781301 -0.0034981249 -0.00040161604
-0.0070104878 -0.0019299999 -0.0072623072
-0.0013781301 -0.0041012499 -0.00040161604
0.0070104878 -0.00313625 -0.0072623072
-0.0070104878 -0.0020506249 -0.0072623072
-0.0052129268 0.0036187498 0.001283466
-0.0014979674 -0.0020506249 -0.00040161604
-0.0014979674 -0.0034981249 -0.00040161604
-0.0014979674 -0.0041012499 -0.00040161604
-0.0016178049 0.0041012499 -0.00040161604
-0.0052129268 -0.0037393749 0.001283466
0.0070104878 -0.0021712498 -0.0072623072
-0.0013781301 0.0041012499 -0.00040161604
0.0070104878 -0.0014475 -0.0072623072
0.0070104878 -0.001568125 -0.0072623072
0.0070104878 -0.0016887499 -0.0072623072
0.0070104878 -0.0018093749 -0.0072623072
0.0070104878 -0.0019299999 -0.0072623072
-0.0071303253 0.0047043748 -0.00088306802
0.0070104878 -0.0020506249 -0.0072623072
-0.0070104878 -0.0021712498 -0.0072623072
0.0070104878 -0.002291875 -0.0072623072
0.0070104878 -0.0024124999 -0.0072623072
0.0070104878 -0.002533125 -0.0072623072
0.0070104878 -0.0026537499 -0.0072623072
0.0070104878 -0.0027743748 -0.0072623072
0.0070104878 -0.0028949999 -0.0072623072
0.0070104878 -0.0030156248 -0.0072623072
-0.0020971545 -0.0020506249 -0.00040161604
-0.0018574797 -0.0041012499 -0.00040161604
-0.001977317 0.0041012499 -0.00040161604
-0.001977317 -0.0020506249 -0.00040161604
-0.001977317 -0.0034981249 -0.00040161604
-0.001977317 -0.0041012499 -0.00040161604
-0.0020971545 0.0041012499 -0.00040161604
0.0026963414 0.0038599998 0.00032056199
-0.0020971545 -0.0034981249 -0.00040161604
-0.0020971545 -0.0041012499 -0.00040161604
-0.0022169917 0.0041012499 -0.00040161604
-0.0022169917 -0.0020506249 -0.00040161604
-0.0022169917 -0.0034981249 -0.00040161604
-0.0070104878 -0.0032568749 -0.0072623072
-0.0016178049 -0.0020506249 -0.00040161604
-0.0016178049 -0.0034981249 -0.00040161604
-0.0016178049 -0.0041012499 -0.00040161604
-0.0017376422 0.0041012499 -0.00040161604
-0.0017376422 -0.0020506249 -0.00040161604
-0.0017376422 -0.0034981249 -0.00040161604
-0.0012582927 -0.0041012499 -0.00040161604
-0.0070104878 -0.0033774998 -0.0072623072
-0.0070104878 -0.0034981249 -0.0072623072
-0.0017376422 -0.0041012499 -0.00040161604
-0.0018574797 0.0041012499 -0.00040161604
0.0024566667 -0.0038599998 0.0018852809
-0.0018574797 -0.0020506249 -0.00040161604
-0.0018574797 -0.0034981249 -0.00040161604
-0.00053926831 -0.0041012499 -0.00040161604
-0.0004194309 -0.0036187498 -0.00040161604
-0.0004194309 -0.0041012499 -0.00040161604
-0.00053926831 0.0041012499 -0.00040161604
-0.0070104878 0.00036187499 -0.0072623072
-0.00053926831 -0.0020506249 -0.00040161604
-0.0070104878 0.00024124999 -0.0072623072
-0.00053926831 -0.0034981249 -0.00040161604
-0.00053926831 -0.0036187498 -0.00040161604
-0.0004194309 -0.0034981249 -0.00040161604
-0.00065910566 0.0041012499 -0.00040161604
-0.00065910566 -0.0020506249 -0.00040161604
-0.00065910566 -0.0034981249 -0.00040161604
-0.00065910566 -0.0036187498 -0.00040161604
-0.00065910566 -0.0041012499 -0.00040161604
-0.00077894307 0.0041012499 -0.00040161604
-0.00077894307 -0.0020506249 -0.00040161604
-0.0004194309 0.004463125 -0.0072623072
-0.0070104878 0.00096499996 -0.0072623072
-0.0070104878 0.00084437494 -0.0072623072
0.0070104878 -0.0010856249 -0.0072623072
-0.0070104878 0.00060312496 -0.0072623072
0.0070104878 -0.0012062499 -0.0072623072
-0.0004194309 0.0042218748 -0.0072623072
-0.0004194309 0.0043424997 -0.0072623072
-0.00077894307 -0.0034981249 -0.00040161604
-0.0004194309 0.0045837499 -0.0072623072
-0.00029959349 -0.0043424997 -0.0072623072
-0.00029959349 -0.0042218748 -0.0072623072
-0.00029959349 -0.0036187498 -0.00040161604
-0.00029959349 -0.0041012499 -0.00040161604
-0.0004194309 0.0041012499 -0.00040161604
-0.0004194309 -0.0020506249 -0.00040161604
-0.0070104878 -0.00096499996 -0.0072623072
-0.0049732518 0.0036187498 0.001283466
-0.0011384552 -0.0020506249 -0.00040161604
-0.0049732518 -0.0037393749 0.001283466
-0.0070104878 -0.00084437494 -0.0072623072
-0.0011384552 -0.0034981249 -0.00040161604
-0.0011384552 -0.0041012499 -0.00040161604
-0.0012582927 0.0041012499 -0.00040161604
-0.0070104878 -0.00072374998 -0.0072623072
-0.0070104878 -0.0010856249 -0.0072623072
-0.0070104878 -0.0012062499 -0.0072623072
-0.0012582927 -0.0020506249 -0.00040161604
-0.0070104878 -0.0013268749 -0.0072623072
0.0070104878 -0.0013268749 -0.0072623072
-0.0012582927 -0.0034981249 -0.00040161604
-0.00089878048 -0.0041012499 -0.00040161604
-0.00077894307 -0.0036187498 -0.00040161604
-0.00077894307 -0.0041012499 -0.00040161604
-0.00089878048 0.0041012499 -0.00040161604
-0.0070104878 0 -0.0072623072
-5.9918697e-05 -0.0038599998 0.0022463701
-0.00089878048 -0.0020506249 -0.00040161604
-0.00089878048 -0.0034981249 -0.00040161604
-0.00089878048 -0.0036187498 -0.00040161604
-0.006171626 -0.00072374998 -0.0072623072
-0.0010186179 0.0041012499 -0.00040161604
-0.0010186179 -0.0020506249 -0.00040161604
-0.0010186179 -0.0034981249 -0.00040161604
-0.0010186179 -0.0036187498 -0.00040161604
-0.0070104878 -0.00036187499 -0.0072623072
-0.0010186179 -0.0041012499 -0.00040161604
-0.0011384552 0.0041012499 -0.00040161604
-0.0022169917 0.0038599998 -0.00738267
-0.0022169917 0.0037393749 -0.00738267
-0.0020971545 -0.0033774998 -0.00738267
-0.0071303253 0.0045837499 -0.0042532319
-0.0020971545 -0.0016887499 -0.00738267
0.0067708129 -0.0047043748 -0.0041328692
0.0066509754 0.0047043748 -0.0041328692
-0.0020971545 -0.0014475 -0.00738267
0.0025765041 0.003980625 0.00080201396
0.0026963414 -0.003980625 0.00080201396
-0.0024566667 -0.002533125 -4.0527029e-05
0.0055724392 -0.0043424997 -0.007141944
-0.0024566667 -0.003980625 -4.0527029e-05
-0.0020971545 -0.0013268749 -0.00738267
-0.0020971545 -0.0010856249 -0.00738267
-0.0020971545 -0.00096499996 -0.00738267
-0.0020971545 -0.00072374998 -0.00738267
-0.0024566667 -0.0036187498 -4.0527029e-05
-0.0022169917 -0.00072374998 -0.00738267
-0.0064113005 0.0014475 -0.00738267
-0.0064113005 0.0013268749 -0.00738267
-0.0022169917 -0.0013268749 -0.00738267
-0.0064113005 0.0012062499 -0.00738267
-0.0022169917 -0.0010856249 -0.00738267
-0.0064113005 0.00096499996 -0.00738267
-0.0024566667 -0.0041012499 -4.0527029e-05
-0.0022169917 -0.00096499996 -0.00738267
-0.0058121136 0.0037393749 -0.0072623072
-0.0071303253 0.00024124999 -0.0042532319
-0.0071303253 0.00036187499 -0.0042532319
-0.0071303253 0.00048249998 -0.0042532319
-0.0071303253 0.00060312496 -0.0042532319
-0.0071303253 0.00072374998 -0.0042532319
-0.0071303253 0.00084437494 -0.0042532319
-0.0071303253 -0.0010856249 -0.0042532319
-0.0071303253 -0.0016887499 -0.0042532319
-0.0071303253 -0.001568125 -0.0042532319
-0.0071303253 -0.0014475 -0.0042532319
-0.0071303253 -0.0013268749 -0.0042532319
-0.0071303253 -0.0012062499 -0.0042532319
-0.0071303253 -0.00096499996 -0.0042532319
-0.0022169917 -0.001568125 -0.00738267
-0.0022169917 -0.0014475 -0.00738267
-0.0056922762 -0.0047043748 -0.0072623072
-0.0056922762 -0.0048249997 -0.0072623072
-0.0058121136 0.003980625 -0.0072623072
-0.0058121136 0.0038599998 -0.0072623072
0.0056922762 -0.0048249997 -0.007141944
0.0056922762 -0.0047043748 -0.007141944
0.0055724392 -0.004463125 -0.007141944
0.0056922762 -0.0043424997 -0.007141944
0.0056922762 -0.004463125 -0.007141944
0.0056922762 -0.0045837499 -0.007141944
0.0054526017 -0.0047043748 -0.007141944
-0.0023368292 -0.0028949999 -4.0527029e-05
-0.0023368292 0.0024124999 -4.0527029e-05
-0.0023368292 0.002533125 -4.0527029e-05
-0.0023368292 0.0026537499 -4.0527029e-05
0.0054526017 -0.004463125 -0.007141944
0.0054526017 -0.0045837499 -0.007141944
0.0054526017 -0.0048249997 -0.007141944
-0.0070104878 0.0047043748 -0.0042532319
-0.0024566667 0.0028949999 -4.0527029e-05
-0.0024566667 0.0036187498 -4.0527029e-05
-0.0023368292 -0.0041012499 -4.0527029e-05
-0.0023368292 -0.003980625 -4.0527029e-05
-0.0023368292 -0.0036187498 -4.0527029e-05
0.0026963414 0.0037393749 0.00080201396
0.006531138 -0.0047043748 -0.0041328692
-0.001977317 0.0038599998 -0.00738267
-0.0018574797 -0.0034981249 -0.00738267
-0.0018574797 -0.0033774998 -0.00738267
-0.0018574797 -0.0032568749 -0.00738267
-0.001977317 0.0037393749 -0.00738267
-0.0024566667 0.0027743748 -4.0527029e-05
-0.0070104878 0 -0.0042532319
-0.0070104878 -0.00012062499 -0.0042532319
-0.0070104878 0.00012062499 -0.0042532319
-0.0020971545 0.0037393749 -0.00738267
-0.0020971545 0.0038599998 -0.00738267
0.0055724392 -0.0045837499 -0.007141944
0.0055724392 -0.0047043748 -0.007141944
0.0055724392 -0.0048249997 -0.007141944
0.0066509754 -0.0047043748 -0.0041328692
-0.0070104878 -0.00084437494 -0.0042532319
-0.0070104878 -0.00072374998 -0.0042532319
-0.001977317 -0.0014475 -0.00738267
-0.001977317 -0.0013268749 -0.00738267
-0.001977317 -0.0010856249 -0.00738267
-0.001977317 -0.00096499996 -0.00738267
-0.001977317 -0.00072374998 -0.00738267
-0.0024566667 0.0024124999 -4.0527029e-05
-0.0024566667 0.002533125 -4.0527029e-05
-0.0024566667 0.0026537499 -4.0527029e-05
-0.001977317 -0.0033774998 -0.00738267
-0.0066509754 0.0047043748 -0.007141944
-0.001977317 -0.0016887499 -0.00738267
-0.0073699998 -0.0036187498 -0.0042532319
-0.0026963414 -0.00060312496 -0.00738267
-0.0073699998 -0.004463125 -0.0042532319
-0.0073699998 -0.0043424997 -0.0042532319
-0.0073699998 -0.0042218748 -0.0042532319
-0.0073699998 -0.0041012499 -0.0042532319
-0.0073699998 -0.003980625 -0.0042532319
-0.0073699998 -0.0038599998 -0.0042532319
-0.0073699998 -0.0037393749 -0.0042532319
-0.0026963414 -0.00084437494 -0.00738267
-0.0073699998 -0.0034981249 -0.0042532319
-0.0073699998 -0.0033774998 -0.0042532319
-0.0073699998 -0.0032568749 -0.0042532319
-0.0073699998 -0.00313625 -0.0042532319
-0.0073699998 -0.0030156248 -0.0042532319
-0.0073699998 -0.0024124999 -0.0042532319
-0.0073699998 -0.002291875 -0.0042532319
-0.0073699998 -0.0021712498 -0.0042532319
0.0073699998 0.0038599998 -0.0043735951
-0.0026963414 -0.0032568749 -0.00738267
-0.0026963414 -0.00313625 -0.00738267
0.0073699998 0.00313625 -0.0043735951
0.0073699998 0.0032568749 -0.0043735951
0.0073699998 0.0033774998 -0.0043735951
0.0073699998 0.0034981249 -0.0043735951
0.0073699998 0.0036187498 -0.0043735951
0.0073699998 0.0037393749 -0.0043735951
0.0073699998 0.003980625 -0.0043735951
0.0073699998 0.0041012499 -0.0043735951
0.0073699998 0.0042218748 -0.0043735951
-0.0026963414 -0.0014475 -0.00738267
-0.0026963414 -0.0013268749 -0.00738267
-0.0026963414 -0.0012062499 -0.00738267
-0.0026963414 -0.00096499996 -0.00738267
0.0058121136 -0.0045837499 -0.007141944
0.0058121136 -0.0043424997 -0.007141944
0.0058121136 -0.004463125 -0.007141944
0.0058121136 -0.0047043748 -0.007141944
0.0058121136 -0.0048249997 -0.007141944
-0.0056922762 -0.00012062499 -0.0072623072
-0.0056922762 -0.00036187499 -0.0072623072
-0.0056922762 -0.00048249998 -0.0072623072
0.0017376422 -0.0034981249 -0.00040161604
-0.0073699998 -0.0014475 -0.0042532319
-0.0073699998 -0.0020506249 -0.0042532319
-0.0073699998 -0.0019299999 -0.0042532319
-0.0073699998 -0.0018093749 -0.0042532319
-0.0073699998 -0.0016887499 -0.0042532319
-0.0073699998 -0.001568125 -0.0042532319
0.0073699998 0.0030156248 -0.0043735951
-0.0026963414 0.0037393749 -0.00738267
-0.0025765041 -0.0033774998 -0.00738267
0.0073699998 -0.001568125 -0.0043735951
-0.0028161788 -0.00096499996 -0.00738267
-0.0028161788 -0.00084437494 -0.00738267
0.0073699998 -0.0014475 -0.0043735951
-0.0028161788 -0.00060312496 -0.00738267
0.0073699998 -0.0013268749 -0.0043735951
0.0073699998 -0.0012062499 -0.0043735951
0.0073699998 -0.0010856249 -0.0043735951
-0.0028161788 -0.0012062499 -0.00738267
0.0073699998 -0.0024124999 -0.0043735951
0.0073699998 -0.0033774998 -0.0043735951
0.0073699998 -0.0032568749 -0.0043735951
0.0073699998 -0.00313625 -0.0043735951
0.0073699998 -0.0030156248 -0.0043735951
0.0073699998 -0.0028949999 -0.0043735951
0.0073699998 -0.0027743748 -0.0043735951
0.0073699998 -0.0026537499 -0.0043735951
0.0073699998 -0.002533125 -0.0043735951
0.0073699998 -0.002291875 -0.0043735951
0.0073699998 -0.0021712498 -0.0043735951
0.0073699998 -0.0020506249 -0.0043735951
0.0073699998 -0.0019299999 -0.0043735951
0.0073699998 -0.0018093749 -0.0043735951
0.0073699998 -0.0016887499 -0.0043735951
-0.0028161788 -0.0014475 -0.00738267
0.0073699998 0.0016887499 -0.0043735951
0.0073699998 0.0014475 -0.0043735951
0.0073699998 0.001568125 -0.0043735951
0.0017376422 -0.0020506249 -0.00040161604
0.0073699998 0.0018093749 -0.0043735951
0.0073699998 0.0019299999 -0.0043735951
0.0073699998 0.0020506249 -0.0043735951
0.0073699998 0.0021712498 -0.0043735951
0.0073699998 0.002291875 -0.0043735951
0.0073699998 0.0024124999 -0.0043735951
-0.0028161788 0.0037393749 -0.00738267
0.0073699998 -0.00060312496 -0.0043735951
0.0073699998 -0.00096499996 -0.0043735951
-0.0055724392 -0.0047043748 -0.0072623072
-0.0056922762 0.003980625 -0.0072623072
-0.0056922762 0.0038599998 -0.0072623072
-0.0056922762 0.0037393749 -0.0072623072
0.0073699998 -0.00084437494 -0.0043735951
0.0073699998 -0.00072374998 -0.0043735951
-0.0025765041 -0.0032568749 -0.00738267
0.0073699998 -0.00048249998 -0.0043735951
0.0073699998 -0.00036187499 -0.0043735951
0.0073699998 -0.00024124999 -0.0043735951
-0.0062914635 0.00072374998 -0.00738267
-0.0062914635 0.00060312496 -0.00738267
-0.0064113005 0.0016887499 -0.00738267
-0.0023368292 -0.0032568749 -0.00738267
-0.0023368292 -0.00313625 -0.00738267
-0.0072501623 0.001568125 -0.0042532319
-0.0072501623 0.0016887499 -0.0042532319
-0.0023368292 -0.0033774998 -0.00738267
-0.0072501623 0.0010856249 -0.0042532319
-0.0024566667 -0.0013268749 -0.00738267
-0.0024566667 -0.0010856249 -0.00738267
-0.0024566667 -0.00096499996 -0.00738267
-0.0024566667 -0.00072374998 -0.00738267
-0.0072501623 -0.0018093749 -0.0042532319
-0.0072501623 0.00096499996 -0.0042532319
-0.0023368292 -0.001568125 -0.00738267
-0.0072501623 0.0012062499 -0.0042532319
-0.0072501623 0.0013268749 -0.0042532319
-0.0072501623 0.0014475 -0.0042532319
-0.0024566667 0.0037393749 -0.00738267
-0.0024566667 0.0038599998 -0.00738267
-0.0023368292 -0.0036187498 -0.00738267
-0.0023368292 -0.0034981249 -0.00738267
-0.0072501623 0.0045837499 -0.0042532319
-0.0071303253 -0.0045837499 -0.0042532319
-0.006531138 0.0047043748 -0.007141944
-0.0023368292 0.0037393749 -0.00738267
-0.0023368292 0.0038599998 -0.00738267
-0.0022169917 -0.0036187498 -0.00738267
-0.0022169917 -0.0034981249 -0.00738267
-0.0022169917 -0.0033774998 -0.00738267
-0.0022169917 -0.0032568749 -0.00738267
-0.0023368292 -0.0014475 -0.00738267
-0.0023368292 -0.0013268749 -0.00738267
-0.0023368292 -0.0010856249 -0.00738267
-0.0023368292 -0.00096499996 -0.00738267
-0.0023368292 -0.00072374998 -0.00738267
-0.0024566667 -0.0014475 -0.00738267
-0.0073699998 0.0038599998 -0.0042532319
-0.0073699998 0.0028949999 -0.0042532319
-0.0073699998 0.0030156248 -0.0042532319
-0.0073699998 0.00313625 -0.0042532319
-0.0073699998 0.0032568749 -0.0042532319
-0.0073699998 0.0033774998 -0.0042532319
-0.0073699998 0.0034981249 -0.0042532319
-0.0073699998 0.0036187498 -0.0042532319
-0.0073699998 0.0037393749 -0.0042532319
-0.0073699998 0.0027743748 -0.0042532319
-0.0073699998 0.003980625 -0.0042532319
-0.0073699998 0.0041012499 -0.0042532319
-0.0073699998 0.0042218748 -0.0042532319
-0.0073699998 0.0043424997 -0.0042532319
-0.0073699998 0.004463125 -0.0042532319
-0.0072501623 -0.0045837499 -0.0042532319
-0.0073699998 0.0018093749 -0.0042532319
-0.0025765041 -0.00313625 -0.00738267
-0.0025765041 -0.0030156248 -0.00738267
-0.0025765041 -0.0014475 -0.00738267
-0.0062914635 0.00084437494 -0.00738267
-0.0025765041 -0.0013268749 -0.00738267
-0.0025765041 -0.0012062499 -0.00738267
-0.0025765041 -0.00096499996 -0.00738267
-0.0025765041 -0.00072374998 -0.00738267
-0.0073699998 0.0019299999 -0.0042532319
-0.0073699998 0.0020506249 -0.0042532319
-0.0073699998 0.0021712498 -0.0042532319
-0.0073699998 0.002291875 -0.0042532319
-0.0073699998 0.0024124999 -0.0042532319
-0.0073699998 0.002533125 -0.0042532319
-0.0073699998 0.0026537499 -0.0042532319
0.0068906504 -0.0047043748 -0.0041328692
0.0067708129 0.0047043748 -0.0041328692
-0.0024566667 -0.001568125 -0.00738267
0.0071303253 -0.0045837499 -0.0012441571
-0.0025765041 0.0037393749 -0.00738267
-0.0024566667 -0.0036187498 -0.00738267
-0.0024566667 -0.0034981249 -0.00738267
-0.0024566667 -0.0033774998 -0.00738267
-0.0024566667 -0.0032568749 -0.00738267
-0.0024566667 -0.00313625 -0.00738267
-0.0024566667 -0.0030156248 -0.00738267
-0.0024566667 -0.0028949999 -0.00738267
0.0032955285 0.00060312496 -0.0075030331
-0.0067708129 0.0047043748 -0.0042532319
-0.0066509754 -0.0047043748 -0.0042532319
-0.0014979674 0.00096499996 -0.00738267
-0.0014979674 0.0010856249 -0.00738267
-0.0014979674 0.0012062499 -0.00738267
-0.0014979674 0.0013268749 -0.00738267
0.003175691 0.00060312496 -0.0075030331
0.003175691 0.00048249998 -0.0075030331
-0.0014979674 0.0036187498 -4.0527029e-05
-0.0058121136 -0.0047043748 -0.0072623072
-0.0058121136 -0.0048249997 -0.0072623072
-0.0059319511 0.003980625 -0.0072623072
-0.0071303253 0.0047043748 -0.007141944
0.0034153657 0.0014475 -0.0075030331
0.0034153657 0.0013268749 -0.0075030331
-0.0014979674 0.0024124999 -4.0527029e-05
-0.0014979674 0.002533125 -4.0527029e-05
0.0032955285 0.0026537499 -0.0075030331
-0.0070104878 -0.0045837499 -0.007141944
-0.0070104878 -0.0047043748 -0.007141944
-0.0059319511 0.0038599998 -0.0072623072
-0.0071303253 0.0045837499 -0.007141944
0.0047335774 -0.0045837499 -0.007141944
0.0047335774 -0.0047043748 -0.007141944
0.0047335774 -0.0048249997 -0.007141944
-0.0071303253 -0.0037393749 -0.007141944
0.0029360163 0.00060312496 -0.0075030331
0.0029360163 0.00048249998 -0.0075030331
0.0028161788 0.0032568749 -0.0075030331
0.0028161788 0.00313625 -0.0075030331
0.0028161788 0.0030156248 -0.0075030331
0.0028161788 0.0028949999 -0.0075030331
-0.0071303253 -0.0033774998 -0.007141944
-0.0071303253 -0.0041012499 -0.007141944
-0.0071303253 -0.0043424997 -0.007141944
-0.0071303253 -0.004463125 -0.007141944
-0.0071303253 -0.0045837499 -0.007141944
0.0029360163 0.0030156248 -0.0075030331
-0.0059319511 0.0037393749 -0.0072623072
0.0030558535 0.0030156248 -0.0075030331
0.0030558535 0.0028949999 -0.0075030331
0.0030558535 0.00060312496 -0.0075030331
0.0030558535 0.00048249998 -0.0075030331
-0.0014979674 0.0041012499 -4.0527029e-05
0.0029360163 0.0032568749 -0.0075030331
0.0029360163 0.00313625 -0.0075030331
0.0034153657 0.001568125 -0.0075030331
0.0029360163 0.0028949999 -0.0075030331
0.0046137399 -0.0045837499 -0.007141944
0.0046137399 -0.0047043748 -0.007141944
0.0046137399 -0.0048249997 -0.007141944
-0.0071303253 -0.0030156248 -0.007141944
-0.0071303253 -0.00313625 -0.007141944
-0.0071303253 -0.0032568749 -0.007141944
0.004374065 0.0012062499 -0.0075030331
0.0048534144 -0.0047043748 -0.007141944
0.0048534144 -0.0048249997 -0.007141944
0.0047335774 0.0048249997 -0.007141944
0.0044939024 0.00096499996 -0.0075030331
-0.0016178049 0.0041012499 -4.0527029e-05
0.004374065 0.0030156248 -0.0075030331
0.004374065 0.0028949999 -0.0075030331
0.004374065 0.0027743748 -0.0075030331
0.0048534144 -0.0045837499 -0.007141944
0.004374065 0.0010856249 -0.0075030331
-0.0014979674 -0.003980625 -4.0527029e-05
-0.0014979674 -0.0036187498 -4.0527029e-05
0.0042542275 0.0027743748 -0.0075030331
-0.0014979674 -0.001568125 -0.00738267
-0.0058121136 -0.00012062499 -0.0072623072
-0.0058121136 -0.00036187499 -0.0072623072
-0.0058121136 -0.00048249998 -0.0072623072
-0.0058121136 -0.00072374998 -0.0072623072
-0.0058121136 -0.00084437494 -0.0072623072
-0.0014979674 -0.0014475 -0.00738267
-0.0014979674 -0.0019299999 -0.00738267
-0.0016178049 0.002533125 -4.0527029e-05
-0.0016178049 0.0036187498 -4.0527029e-05
0.0044939024 0.0030156248 -0.0075030331
0.0044939024 0.0028949999 -0.0075030331
0.0044939024 0.0027743748 -0.0075030331
0.0048534144 -0.004463125 -0.007141944
0.00413439 0.0014475 -0.0075030331
0.00413439 0.0024124999 -0.0075030331
0.00413439 0.002291875 -0.0075030331
0.00413439 0.0021712498 -0.0075030331
-0.0070104878 -0.0041012499 -0.007141944
0.00413439 0.0016887499 -0.0075030331
0.00413439 0.001568125 -0.0075030331
0.00413439 0.002533125 -0.0075030331
0.00413439 0.0013268749 -0.0075030331
-0.0070104878 -0.0042218748 -0.007141944
-0.0070104878 -0.0043424997 -0.007141944
0.0034153657 0.0020506249 -0.0075030331
0.0034153657 0.0019299999 -0.0075030331
0.0034153657 0.0018093749 -0.0075030331
0.0034153657 0.0016887499 -0.0075030331
0.0042542275 0.0013268749 -0.0075030331
-0.0014979674 -0.0012062499 -0.00738267
-0.0014979674 -0.0010856249 -0.00738267
-0.0014979674 -0.00084437494 -0.00738267
0.0042542275 0.0014475 -0.0075030331
-0.0014979674 0.0014475 -0.00738267
0.0042542275 0.0012062499 -0.0075030331
0.0042542275 0.00096499996 -0.0075030331
-0.0014979674 -0.0030156248 -4.0527029e-05
-0.0014979674 -0.0028949999 -4.0527029e-05
0.0059319511 -0.0048249997 -0.0041328692
-0.0014979674 -0.0027743748 -4.0527029e-05
0.00413439 0.0026537499 -0.0075030331
0.0020971545 0.0032568749 -0.0075030331
-0.0073699998 0.0041012499 -0.007141944
-0.0073699998 0.003980625 -0.007141944
-0.0073699998 0.0038599998 -0.007141944
0.004374065 -0.0045837499 -0.007141944
0.004374065 -0.0047043748 -0.007141944
0.004374065 -0.0048249997 -0.007141944
0.0022169917 0.00048249998 -0.0075030331
0.0020971545 0.0033774998 -0.0075030331
-0.0073699998 0.0042218748 -0.007141944
0.0020971545 0.00313625 -0.0075030331
0.0020971545 0.0030156248 -0.0075030331
0.0020971545 0.0028949999 -0.0075030331
0.0020971545 0.00048249998 -0.0075030331
0.001977317 0.0033774998 -0.0075030331
0.001977317 0.0032568749 -0.0075030331
0.001977317 0.00313625 -0.0075030331
-0.0072501623 -0.003980625 -0.007141944
-0.0060517886 -0.00060312496 -0.0072623072
-0.0060517886 -0.00072374998 -0.0072623072
0.0023368292 0.00048249998 -0.0075030331
0.0022169917 0.0033774998 -0.0075030331
0.0022169917 0.0032568749 -0.0075030331
0.0022169917 0.00313625 -0.0075030331
0.0022169917 0.0030156248 -0.0075030331
0.0022169917 0.0028949999 -0.0075030331
0.001977317 0.0030156248 -0.0075030331
-0.0072501623 -0.0041012499 -0.007141944
-0.0072501623 -0.0042218748 -0.007141944
-0.0072501623 -0.0043424997 -0.007141944
-0.0072501623 -0.004463125 -0.007141944
-0.0072501623 -0.0045837499 -0.007141944
-0.0073699998 0.004463125 -0.007141944
-0.0073699998 0.0043424997 -0.007141944
0.0018574797 0.0028949999 -0.0075030331
0.0018574797 0.0032568749 -0.0075030331
0.0018574797 0.00313625 -0.0075030331
0.0018574797 0.0030156248 -0.0075030331
0.0018574797 0.0033774998 -0.0075030331
-0.006171626 0 -0.0072623072
-0.006171626 -0.00012062499 -0.0072623072
-0.006171626 -0.00024124999 -0.0072623072
-0.006171626 -0.00036187499 -0.0072623072
-0.006171626 -0.00060312496 -0.0072623072
-0.0059319511 0.0048249997 -0.0041328692
0.001977317 0.0028949999 -0.0075030331
-0.0060517886 -0.0047043748 -0.0072623072
-0.006171626 0.003980625 -0.0072623072
-0.006171626 0.0038599998 -0.0072623072
-0.006171626 0.0037393749 -0.0072623072
-0.0014979674 0.0037393749 -0.00738267
-0.0014979674 0.0038599998 -0.00738267
-0.0014979674 0.003980625 -0.00738267
-0.0013781301 -0.0026537499 -0.00738267
-0.0013781301 -0.002533125 -0.00738267
-0.0013781301 -0.0024124999 -0.00738267
-0.0013781301 -0.002291875 -0.00738267
0.001977317 0.00048249998 -0.0075030331
-0.0014979674 0.002533125 -0.00738267
-0.0014979674 0.0026537499 -0.00738267
-0.0014979674 0.0027743748 -0.00738267
-0.0014979674 0.0028949999 -0.00738267
-0.0014979674 0.0030156248 -0.00738267
-0.0014979674 0.00313625 -0.00738267
-0.0014979674 0.0021712498 -0.00738267
0.0026963414 0.00048249998 -0.0075030331
0.0025765041 0.0032568749 -0.0075030331
0.0025765041 0.00313625 -0.0075030331
0.0025765041 0.0030156248 -0.0075030331
0.0025765041 0.0028949999 -0.0075030331
-0.0059319511 -0.0047043748 -0.0072623072
0.0025765041 0.00048249998 -0.0075030331
-0.0059319511 -0.00072374998 -0.0072623072
-0.0014979674 0.001568125 -0.00738267
0.0028161788 0.00060312496 -0.0075030331
0.0028161788 0.00048249998 -0.0075030331
-0.0059319511 -0.00012062499 -0.0072623072
0.0026963414 0.0032568749 -0.0075030331
-0.0059319511 -0.00036187499 -0.0072623072
0.0026963414 0.00313625 -0.0075030331
-0.0059319511 -0.00060312496 -0.0072623072
0.0044939024 -0.0045837499 -0.007141944
0.0026963414 0.0030156248 -0.0075030331
0.0026963414 0.0028949999 -0.0075030331
-0.0014979674 0.0016887499 -0.00738267
-0.0014979674 0.0018093749 -0.00738267
-0.0059319511 0.0048249997 -0.001003431
-0.0014979674 0.0019299999 -0.00738267
-0.0014979674 0.0020506249 -0.00738267
-0.0072501623 -0.0032568749 -0.007141944
-0.0072501623 -0.002291875 -0.007141944
-0.0072501623 -0.0024124999 -0.007141944
-0.0072501623 -0.002533125 -0.007141944
-0.0072501623 -0.0026537499 -0.007141944
-0.0072501623 -0.0027743748 -0.007141944
-0.0072501623 -0.0028949999 -0.007141944
-0.0072501623 -0.0030156248 -0.007141944
-0.0072501623 -0.00313625 -0.007141944
-0.0072501623 -0.0021712498 -0.007141944
-0.0072501623 -0.0033774998 -0.007141944
-0.0072501623 -0.0034981249 -0.007141944
-0.0072501623 -0.0036187498 -0.007141944
-0.0072501623 -0.0037393749 -0.007141944
-0.0060517886 0 -0.0072623072
-0.0060517886 -0.00012062499 -0.0072623072
-0.0060517886 -0.00036187499 -0.0072623072
-0.0060517886 0.0038599998 -0.0072623072
0.0044939024 -0.0047043748 -0.007141944
0.0044939024 -0.0048249997 -0.007141944
0.0024566667 0.0033774998 -0.0075030331
0.0024566667 0.0032568749 -0.0075030331
0.0024566667 0.00313625 -0.0075030331
0.0024566667 0.0030156248 -0.0075030331
0.0024566667 0.0028949999 -0.0075030331
-0.0060517886 0.003980625 -0.0072623072
-0.0060517886 0.0037393749 -0.0072623072
0.0024566667 0.00048249998 -0.0075030331
0.0023368292 0.0033774998 -0.0075030331
0.0023368292 0.0032568749 -0.0075030331
0.0023368292 0.00313625 -0.0075030331
0.0023368292 0.0030156248 -0.0075030331
0.0023368292 0.0028949999 -0.0075030331
-0.0017376422 -0.00084437494 -0.00738267
-0.0020971545 0.0041012499 -4.0527029e-05
-0.001977317 -0.003980625 -4.0527029e-05
-0.0068906504 0.0047043748 -0.0042532319
-0.0067708129 -0.0047043748 -0.0042532319
-0.001977317 -0.0036187498 -4.0527029e-05
-0.001977317 -0.0030156248 -4.0527029e-05
-0.0017376422 -0.0010856249 -0.00738267
-0.001977317 0.0024124999 -4.0527029e-05
-0.001977317 0.002533125 -4.0527029e-05
-0.001977317 0.0026537499 -4.0527029e-05
-0.001977317 0.0027743748 -4.0527029e-05
-0.001977317 0.0036187498 -4.0527029e-05
-0.001977317 0.0041012499 -4.0527029e-05
0.0052129268 -0.004463125 -0.007141944
0.0052129268 -0.0045837499 -0.007141944
0.0052129268 -0.0047043748 -0.007141944
-0.0017376422 -0.0018093749 -0.00738267
-0.0017376422 -0.001568125 -0.00738267
-0.0017376422 -0.0014475 -0.00738267
-0.0017376422 -0.0012062499 -0.00738267
0.0058121136 0.0024124999 -0.0075030331
-0.0017376422 -0.003980625 -4.0527029e-05
-0.0017376422 -0.0036187498 -4.0527029e-05
-0.0017376422 -0.0030156248 -4.0527029e-05
-0.0017376422 -0.0028949999 -4.0527029e-05
0.0058121136 0.0026537499 -0.0075030331
0.0058121136 0.002533125 -0.0075030331
0.0059319511 0.0019299999 -0.0075030331
0.0058121136 0.002291875 -0.0075030331
0.0058121136 0.0021712498 -0.0075030331
0.0058121136 0.0020506249 -0.0075030331
0.0062914635 -0.0047043748 -0.0041328692
0.006171626 0.0048249997 -0.0041328692
-0.0018574797 0.0036187498 -4.0527029e-05
0.0052129268 -0.0048249997 -0.007141944
-0.0018574797 -0.003980625 -4.0527029e-05
-0.0018574797 -0.0036187498 -4.0527029e-05
-0.0018574797 -0.0030156248 -4.0527029e-05
-0.0018574797 0.0024124999 -4.0527029e-05
-0.0018574797 0.002533125 -4.0527029e-05
-0.0018574797 0.0026537499 -4.0527029e-05
-0.0018574797 0.0027743748 -4.0527029e-05
-0.0017376422 -0.00313625 -0.00738267
0.0060517886 -0.0048249997 -0.0043735951
0.0059319511 0.0048249997 -0.0043735951
-0.0018574797 0.0041012499 -4.0527029e-05
0.0059319511 0.0024124999 -0.0075030331
0.0059319511 0.002291875 -0.0075030331
-0.0020971545 -0.0030156248 -4.0527029e-05
-0.0022169917 0.0024124999 -4.0527029e-05
-0.0022169917 0.002533125 -4.0527029e-05
-0.0022169917 0.0026537499 -4.0527029e-05
-0.0022169917 0.0036187498 -4.0527029e-05
-0.0022169917 0.0041012499 -4.0527029e-05
-0.0020971545 -0.003980625 -4.0527029e-05
-0.0020971545 -0.0036187498 -4.0527029e-05
-0.0022169917 -0.0028949999 -4.0527029e-05
-0.0020971545 0.0024124999 -4.0527029e-05
-0.0020971545 0.002533125 -4.0527029e-05
0.0053327642 -0.004463125 -0.007141944
0.0053327642 -0.0045837499 -0.007141944
0.0053327642 -0.0047043748 -0.007141944
0.0053327642 -0.0048249997 -0.007141944
-0.0018574797 -0.0010856249 -0.00738267
-0.0018574797 -0.0016887499 -0.00738267
-0.0018574797 -0.001568125 -0.00738267
-0.0018574797 -0.0014475 -0.00738267
-0.0018574797 -0.0012062499 -0.00738267
-0.0020971545 0.0026537499 -4.0527029e-05
-0.0018574797 -0.00084437494 -0.00738267
-0.0023368292 0.0036187498 -4.0527029e-05
-0.0022169917 -0.0041012499 -4.0527029e-05
-0.0022169917 -0.003980625 -4.0527029e-05
-0.0067708129 0.0047043748 -0.007141944
-0.0022169917 -0.0036187498 -4.0527029e-05
-0.0018574797 0.0037393749 -0.00738267
0.0064113005 -0.0047043748 -0.0041328692
-0.0018574797 0.0038599998 -0.00738267
-0.0017376422 -0.0034981249 -0.00738267
-0.0017376422 -0.0033774998 -0.00738267
-0.0017376422 -0.0032568749 -0.00738267
-0.0020971545 0.0027743748 -4.0527029e-05
-0.0020971545 0.0036187498 -4.0527029e-05
0.0058121136 0.0018093749 -0.0075030331
0.0049732518 -0.0045837499 -0.007141944
0.0048534144 0.0028949999 -0.0075030331
0.0048534144 0.0027743748 -0.0075030331
-0.0016178049 0.00096499996 -0.00738267
-0.0016178049 0.0010856249 -0.00738267
-0.0016178049 0.0012062499 -0.00738267
-0.0016178049 0.0013268749 -0.00738267
-0.0016178049 0.0014475 -0.00738267
0.0049732518 -0.004463125 -0.007141944
0.0048534144 0.0030156248 -0.0075030331
0.0049732518 -0.0047043748 -0.007141944
0.0049732518 -0.0048249997 -0.007141944
-0.0016178049 0.001568125 -0.00738267
0.0048534144 0.001568125 -0.0075030331
0.0048534144 0.0014475 -0.0075030331
0.0048534144 0.0013268749 -0.0075030331
0.0048534144 0.0012062499 -0.0075030331
0.0047335774 0.0030156248 -0.0075030331
-0.0016178049 -0.0027743748 -4.0527029e-05
-0.0016178049 -0.0028949999 -4.0527029e-05
0.0050930893 0.0028949999 -0.0075030331
0.0050930893 0.001568125 -0.0075030331
0.0050930893 0.0014475 -0.0075030331
0.0050930893 0.0013268749 -0.0075030331
0.0047335774 0.0028949999 -0.0075030331
0.0049732518 0.0028949999 -0.0075030331
0.0049732518 0.0016887499 -0.0075030331
0.0049732518 0.001568125 -0.0075030331
0.0049732518 0.0014475 -0.0075030331
0.0049732518 0.0013268749 -0.0075030331
-0.0016178049 0.003980625 -0.00738267
-0.0014979674 -0.0033774998 -0.00738267
-0.0014979674 -0.0032568749 -0.00738267
-0.0014979674 -0.00313625 -0.00738267
0.0059319511 -0.0048249997 -0.0043735951
-0.0014979674 -0.0030156248 -0.00738267
-0.0014979674 -0.0028949999 -0.00738267
-0.0014979674 -0.0027743748 -0.00738267
-0.0016178049 0.0036187498 -0.00738267
0.0047335774 0.00096499996 -0.0075030331
-0.0016178049 0.0024124999 -4.0527029e-05
0.0046137399 0.0030156248 -0.0075030331
0.0046137399 0.0028949999 -0.0075030331
0.0046137399 0.0027743748 -0.0075030331
0.0060517886 -0.0048249997 -0.0041328692
0.0059319511 0.0048249997 -0.0041328692
0.0047335774 0.0027743748 -0.0075030331
-0.0068906504 -0.0045837499 -0.007141944
-0.0068906504 -0.0047043748 -0.007141944
-0.0070104878 0.0047043748 -0.007141944
-0.0016178049 -0.0030156248 -4.0527029e-05
-0.0016178049 0.0032568749 -0.00738267
-0.0016178049 0.0033774998 -0.00738267
-0.0016178049 0.0034981249 -0.00738267
0.0055724392 0.0010856249 -0.0075030331
0.0056922762 0.0018093749 -0.0075030331
0.0056922762 0.0016887499 -0.0075030331
0.0056922762 0.0012062499 -0.0075030331
0.0056922762 0.0010856249 -0.0075030331
0.0055724392 0.0026537499 -0.0075030331
0.0055724392 0.0016887499 -0.0075030331
0.0055724392 0.00096499996 -0.0075030331
0.0054526017 0.0027743748 -0.0075030331
0.0050930893 -0.004463125 -0.007141944
0.0050930893 -0.0045837499 -0.007141944
0.0050930893 -0.0047043748 -0.007141944
0.0050930893 -0.0048249997 -0.007141944
0.0058121136 0.0016887499 -0.0075030331
0.0058121136 0.001568125 -0.0075030331
0.0058121136 0.0014475 -0.0075030331
0.0058121136 0.0013268749 -0.0075030331
-0.0017376422 0.0037393749 -0.00738267
-0.0068906504 0.0047043748 -0.007141944
-0.0017376422 0.0027743748 -4.0527029e-05
-0.0017376422 0.0036187498 -4.0527029e-05
0.0053327642 0.0027743748 -0.0075030331
0.0053327642 0.0016887499 -0.0075030331
-0.0017376422 0.0041012499 -4.0527029e-05
0.0052129268 0.0028949999 -0.0075030331
-0.0017376422 0.0026537499 -4.0527029e-05
0.006171626 -0.0048249997 -0.0041328692
0.0060517886 0.0048249997 -0.0041328692
0.0052129268 0.0016887499 -0.0075030331
0.0052129268 0.001568125 -0.0075030331
0.0052129268 0.0014475 -0.0075030331
-0.0016178049 -0.003980625 -4.0527029e-05
-0.0016178049 -0.0036187498 -4.0527029e-05
-0.0016178049 -0.0020506249 -0.00738267
-0.0017376422 0.0038599998 -0.00738267
-0.0016178049 -0.0028949999 -0.00738267
-0.0016178049 -0.0027743748 -0.00738267
-0.0016178049 -0.0026537499 -0.00738267
-0.0016178049 -0.002533125 -0.00738267
-0.0016178049 -0.0024124999 -0.00738267
-0.0016178049 -0.002291875 -0.00738267
-0.0016178049 -0.0021712498 -0.00738267
0.0073699998 -0.00313625 -0.00052197906
-0.0016178049 -0.0019299999 -0.00738267
-0.0016178049 -0.0016887499 -0.00738267
-0.0016178049 -0.0013268749 -0.00738267
-0.0016178049 -0.00096499996 -0.00738267
-0.0016178049 -0.00072374998 -0.00738267
-0.0017376422 0.0024124999 -4.0527029e-05
-0.0017376422 0.002533125 -4.0527029e-05
0.004374065 0.0019299999 -0.0076233959
0.0026963414 0.0045837499 -0.00052197906
-0.0011384552 0.0016887499 -0.00738267
-0.0011384552 0.0018093749 -0.00738267
0.0044939024 0.0021712498 -0.0076233959
0.0001797561 -0.0026537499 -4.0527029e-05
0.0050930893 -0.0038599998 0.001764918
0.004374065 0.0026537499 -0.0076233959
0.004374065 0.0021712498 -0.0076233959
0.0026963414 0.0047043748 -0.00052197906
0.004374065 0.0018093749 -0.0076233959
0.0049732518 0.0037393749 0.001764918
0.0049732518 -0.0038599998 0.001764918
0.0042542275 0.002291875 -0.0076233959
0.0001797561 0.0026537499 -4.0527029e-05
-0.0011384552 0.0019299999 -0.00738267
-0.0011384552 0.0020506249 -0.00738267
-0.0011384552 0.0021712498 -0.00738267
0.0028161788 0.004463125 -0.00052197906
0.0029360163 -0.0013268749 -0.00052197906
0.0029360163 -0.0016887499 -0.00052197906
0.0046137399 0.0020506249 -0.0076233959
-0.0011384552 0.0010856249 -0.00738267
5.9918697e-05 -0.003980625 0.002366733
0.0029360163 -0.004463125 -0.00052197906
0.0028161788 0.0047043748 -0.00052197906
0.0028161788 0.0045837499 -0.00052197906
-0.0011384552 0.002291875 -0.00738267
-0.006171626 -0.0048249997 -0.001003431
0.0001797561 -0.00313625 -4.0527029e-05
-0.0066509754 0.0047043748 -0.0042532319
0.0028161788 -0.00096499996 -0.00052197906
0.0028161788 -0.0013268749 -0.00052197906
0.0028161788 -0.0016887499 -0.00052197906
-0.006531138 -0.0047043748 -0.0042532319
0.0025765041 -0.00096499996 -0.00052197906
0.0026963414 -0.0013268749 -0.00052197906
0.0026963414 -0.0016887499 -0.00052197906
0.0025765041 0.0047043748 -0.00052197906
0.0025765041 0.0045837499 -0.00052197906
0.0025765041 0.004463125 -0.00052197906
-0.0024566667 0.0036187498 0.00080201396
0.0026963414 -0.00096499996 -0.00052197906
0.0025765041 -0.0013268749 -0.00052197906
0.0025765041 -0.0016887499 -0.00052197906
-0.0024566667 0.0038599998 0.00080201396
0.0024566667 0.0047043748 -0.00052197906
0.0024566667 0.0045837499 -0.00052197906
-0.0025765041 0.0038599998 0.003209274
0.0024566667 -0.00096499996 -0.00052197906
-0.0011384552 0.0033774998 -0.00738267
-0.0011384552 0.0024124999 -0.00738267
-0.0011384552 0.002533125 -0.00738267
-0.0011384552 0.0026537499 -0.00738267
-0.0011384552 0.0027743748 -0.00738267
-0.0011384552 0.0028949999 -0.00738267
-0.0011384552 0.0030156248 -0.00738267
-0.0011384552 0.00313625 -0.00738267
-0.0011384552 0.0032568749 -0.00738267
0.0029360163 -0.00096499996 -0.00052197906
-0.0011384552 0.0034981249 -0.00738267
-0.0011384552 0.0036187498 -0.00738267
0.0026963414 0.004463125 -0.00052197906
-5.9918697e-05 -0.0037393749 0.00032056199
-5.9918697e-05 -0.0038599998 0.00032056199
-0.0010186179 -0.0030156248 -0.00738267
0.0049732518 0.0018093749 -0.0076233959
0.0049732518 0.0021712498 -0.0076233959
-0.0011384552 -0.0016887499 -0.00738267
-0.0011384552 -0.001568125 -0.00738267
0.0049732518 0.0020506249 -0.0076233959
0.0049732518 0.0019299999 -0.0076233959
5.9918697e-05 0.002533125 -4.0527029e-05
-0.0011384552 -0.0013268749 -0.00738267
-0.0011384552 -0.0012062499 -0.00738267
-0.0011384552 -0.00096499996 -0.00738267
0.0050930893 0.0021712498 -0.0076233959
0.0030558535 0.0045837499 -0.00052197906
0.0030558535 0.004463125 -0.00052197906
0.0050930893 0.0027743748 -0.0076233959
0.0050930893 0.0026537499 -0.0076233959
0.0050930893 0.002291875 -0.0076233959
0.0050930893 0.0020506249 -0.0076233959
0.0050930893 0.0019299999 -0.0076233959
0.0050930893 0.0018093749 -0.0076233959
0.0050930893 0.0016887499 -0.0076233959
0.0049732518 0.0027743748 -0.0076233959
0.0049732518 0.0026537499 -0.0076233959
-0.0011384552 0.00084437494 -0.00738267
-5.9918697e-05 0.003980625 0.0015241919
0.0001797561 -0.0037393749 -4.0527029e-05
0.0046137399 0.0026537499 -0.0076233959
-0.0011384552 0.00072374998 -0.00738267
0.0030558535 -0.00096499996 -0.00052197906
0.0030558535 -0.0013268749 -0.00052197906
0.0030558535 -0.0016887499 -0.00052197906
5.9918697e-05 -0.0037393749 0.00032056199
-0.0011384552 0.00060312496 -0.00738267
5.9918697e-05 -0.003980625 0.00032056199
0.0030558535 -0.004463125 -0.00052197906
0.0029360163 0.0047043748 -0.00052197906
0.0029360163 0.0045837499 -0.00052197906
0.0029360163 0.004463125 -0.00052197906
-0.0011384552 0.00096499996 -0.00738267
0.0046137399 0.0021712498 -0.0076233959
0.0048534144 0.0021712498 -0.0076233959
0.0048534144 0.0020506249 -0.0076233959
0.0048534144 0.0019299999 -0.0076233959
0.0024566667 -0.0013268749 -0.00052197906
5.9918697e-05 0.0041012499 -4.0527029e-05
0.0047335774 0.0026537499 -0.0076233959
-0.0011384552 0.00048249998 -0.00738267
0.0047335774 0.0021712498 -0.0076233959
0.0047335774 0.0020506249 -0.0076233959
-0.0010186179 0.0027743748 -0.00738267
0.0014979674 -0.0016887499 -0.00052197906
0.0001797561 0.0037393749 0.001163103
-0.0010186179 0.002291875 -0.00738267
-0.0010186179 0.0024124999 -0.00738267
0.0013781301 0.0047043748 -0.00052197906
-0.0024566667 -0.0036187498 7.9835969e-05
-0.0010186179 0.002533125 -0.00738267
-0.0010186179 0.0026537499 -0.00738267
0.0014979674 -0.0013268749 -0.00052197906
-0.0010186179 0.0028949999 -0.00738267
0.0013781301 -0.00096499996 -0.00052197906
0.0013781301 -0.0013268749 -0.00052197906
0.0013781301 -0.0016887499 -0.00052197906
5.9918697e-05 0.0038599998 0.001163103
-0.0010186179 0.0030156248 -0.00738267
-0.0010186179 0.00313625 -0.00738267
0.0012582927 0.0048249997 -0.00052197906
0.0017376422 -0.00096499996 -0.00052197906
0.0017376422 -0.0013268749 -0.00052197906
0.0017376422 -0.0016887499 -0.00052197906
-0.0023368292 -0.0037393749 7.9835969e-05
0.0016178049 0.0047043748 -0.00052197906
0.0004194309 -0.0026537499 -4.0527029e-05
-0.0024566667 0.003980625 7.9835969e-05
0.0029360163 0.0027743748 -0.0076233959
0.0012582927 0.0047043748 -0.00052197906
-0.0024566667 0.0036187498 7.9835969e-05
0.0016178049 -0.00096499996 -0.00052197906
0.0016178049 -0.0013268749 -0.00052197906
0.0016178049 -0.0016887499 -0.00052197906
0.0016178049 -0.0047043748 -0.00052197906
0.0014979674 0.0047043748 -0.00052197906
0.0014979674 -0.00096499996 -0.00052197906
0.0028161788 0.0013268749 -0.0076233959
-0.0001797561 -0.0037393749 0.001163103
0.0010186179 -0.00096499996 -0.00052197906
0.0010186179 -0.0013268749 -0.00052197906
0.0010186179 -0.0016887499 -0.00052197906
-0.0025765041 -0.003980625 7.9835969e-05
0.00089878048 0.0048249997 -0.00052197906
0.00089878048 0.0047043748 -0.00052197906
-0.0024566667 0.0038599998 0.0022463701
0.0010186179 0.0048249997 -0.00052197906
0.00089878048 -0.00096499996 -0.00052197906
0.00089878048 -0.0013268749 -0.00052197906
0.00089878048 -0.0016887499 -0.00052197906
0.00077894307 0.0048249997 -0.00052197906
0.00077894307 0.0047043748 -0.00052197906
0.0049732518 -0.0038599998 0.00044092498
0.0049732518 -0.0037393749 0.00044092498
-0.00089878048 -0.0030156248 -0.00738267
-0.0010186179 0.0032568749 -0.00738267
-0.0010186179 0.0033774998 -0.00738267
-0.0010186179 0.0034981249 -0.00738267
0.0028161788 0.0027743748 -0.0076233959
0.0012582927 -0.00096499996 -0.00052197906
0.0012582927 -0.0013268749 -0.00052197906
0.0012582927 -0.0016887499 -0.00052197906
-0.0010186179 0.0036187498 -0.00738267
-0.0064113005 0.0047043748 -0.001003431
-5.9918697e-05 0.0036187498 0.001163103
-0.00089878048 -0.0028949999 -0.00738267
0.0011384552 0.0048249997 -0.00052197906
-5.9918697e-05 -0.0038599998 0.001163103
0.0011384552 -0.00096499996 -0.00052197906
0.0011384552 -0.0013268749 -0.00052197906
0.0011384552 -0.0016887499 -0.00052197906
0.00029959349 -0.0026537499 -4.0527029e-05
0.0020971545 0.0047043748 -0.00052197906
0.0020971545 0.0045837499 -0.00052197906
