# .PCD v0.7 - Point Cloud Data file format
VERSION 0.7
FIELDS x y z
SIZE 4 4 4
TYPE F F F
COUNT 1 1 1
WIDTH 1169
HEIGHT 1
VIEWPOINT 0 0 0 1 0 0 0
POINTS 1169
DATA ascii
-0.0097884182 0.0047419355 -0.0037437493
-0.0097884182 0.004741936 -0.0032177088
-0.0097884182 0.0047419355 -0.0042697913
-0.0082180863 0.0047419355 -0.0037437507
-0.0082180891 0.004741936 -0.0042697918
-0.0082180873 0.004741936 -0.0032177097
-0.0092649749 0.0047419355 -0.0032177086
0.010259522 0.0042677419 -0.00085052103
-0.0097884182 0.004741936 -0.0022708329
-0.0092649767 0.0047419355 -0.0017447924
-0.009264973 0.0047419355 -0.0022708329
-0.007746987 0.0047419355 -0.0027442714
-0.0077469861 0.0047419346 -0.0032177083
-0.0082180826 0.0047419355 -0.0027442712
-0.0081831887 0.0040745526 -0.00048229168
-0.0077469852 0.0041096774 -0.00048229168
-0.0082180845 0.0047419351 -0.00079791644
0.010245245 0.0046796673 -0.0037437505
0.0092649786 0.0047419355 -0.0037437493
0.010245246 0.0046796673 -0.0032177083
0.0092649758 0.004741936 -0.0042697899
0.010245249 0.0046796673 -0.0042697913
0.0087415334 0.0047419351 -0.002744271
0.0082180854 0.004741936 -0.0022708336
0.0087415334 0.0047419355 -0.0022708329
0.0082180854 0.0047419355 -0.002744271
-0.0092649758 0.0047419355 -0.0052166665
0.0097838696 0.0046938281 -0.0056352136
-0.0082180854 0.0047419355 -0.0047432273
-0.010259522 0.0042677424 -0.0055848956
0.0087356064 0.004723046 -0.0056255893
0.0092649767 0.0047103227 -0.0056269788
0.0087415315 0.0042677429 -0.0056375
0.0082180845 0.0042677438 -0.0056374986
-0.0090555977 0.0038462367 0.00078020827
-0.0092649767 0.0032139784 -0.00048229191
-0.0085321525 0.0040569892 -0.00048229168
-0.010730621 -0.00073763437 -0.00074531278
-0.0087415306 0.0027397852 -0.00048229191
-0.0062279389 0.002225145 -0.00029525463
-0.0065430622 0.0038462367 4.3750042e-05
-0.0067524393 0.0032139784 -0.00048229191
-0.0072758854 0.0032139784 -0.00048229191
-0.0067524388 0.0027397852 -0.00048229191
-0.005277277 0.0041623656 -0.00045838067
-0.0042399056 0.0047419355 -0.0012187505
-0.0047633462 0.004741936 -0.0012187504
-0.0042399042 0.0047419355 -0.0017447923
-0.0047633485 0.0047419355 -0.0017447926
0.009788421 -0.0027397848 -0.005637499
0.007746988 -0.0022655923 -0.0056901043
0.0083489474 -0.0017123655 -0.0065843756
0.0082180854 -0.0027370825 -0.0056860591
0.009264973 -0.0047419355 -0.0042697904
0.0082180863 -0.0037408611 -0.0056374981
0.0082180873 -0.0042677429 -0.0056374995
0.007746987 -0.0037408611 -0.0056374995
0.0077469856 -0.0042677429 -0.005637499
0.0077469866 -0.0047275652 -0.0056279362
0.0082028201 -0.0047265678 -0.005611198
0.0072809914 -0.0047380798 -0.0055887448
0.0072899475 -0.0042535877 -0.0056249374
0.0070665069 -0.0016122581 -0.0066264584
0.0097753312 0.004702419 -0.0052166656
0.0096171116 -0.00072326494 -0.0066130687
-0.010259522 0.0027397852 -0.0056375
-0.010259523 0.0017387096 -0.0056374986
0.010707359 0.0046307039 -0.0047432301
0.010704874 -0.001208373 -0.0056133536
0.010660831 0.0022831552 -0.0012187504
0.010692781 0.0012194455 -0.00076242466
0.010718371 0.0017364672 -0.00075538573
0.010567768 0.0017621267 -0.0027442705
0.010630292 0.0022875457 -0.0017184892
0.010599758 0.0022919357 -0.0027442712
0.010670014 0.0032250707 -0.0027442724
0.010599761 0.002291936 -0.00374375
0.010715664 0.0017443548 -0.0056018047
0.010573585 -0.0002634408 -0.0027442712
0.010538694 0.00022831543 -0.0027442707
0.010730624 0.0042677433 -0.0017447915
0.010625932 0.0027397852 -0.0027442698
0.010599759 0.002291936 -0.0042697913
0.010652107 0.0022844095 -0.0052316943
0.010599758 0.0022919362 -0.0047432296
0.010625932 0.0027397848 -0.0042697908
0.010721899 0.0022655921 -0.0056111971
0.010259524 0.0022655921 -0.0056374995
0.010618348 0.0017417639 -0.0052349656
0.010259522 0.0017387099 -0.005637499
0.010521244 0.001211828 -0.0042697918
0.010521244 0.00073763425 -0.0042697922
0.010707154 0.001211828 -0.0056066629
0.010685901 -0.0022686617 -0.0032146433
0.010616413 -0.00075200381 -0.0012187499
0.010639018 -0.0012250002 -0.0012187504
0.010680264 -0.0012224989 -0.00075530051
0.010699214 -0.004176416 -0.0037244621
0.010652948 -0.0046178638 -0.003747144
0.010688747 -0.0041553401 -0.0027442707
0.0087415306 5.2688178e-05 -0.0066895834
0.0047633485 0.0042677429 -0.0056374986
0.0077469866 0.0047419351 -0.0047432287
0.0097884201 0.0012118279 -0.0056375009
0.0097884163 0.0017387096 -0.0056374981
0.009264973 0.0042677433 -0.005637499
0.010259523 0.0027397852 -0.005637499
0.0097884173 0.0022655923 -0.005637499
0.0092649749 0.0037408606 -0.0056374995
0.0087415352 0.0032139781 -0.0056374986
0.0087256702 0.002736592 -0.0056566293
0.0058625834 -0.0020548387 -0.0066369795
0.004763349 0.00073953881 -0.0056996113
0.0072694207 -0.0037278514 -0.0056530847
0.0067469873 -0.0037331777 -0.005683532
0.0067524402 -0.0032139784 -0.0056901057
0.0062289955 -0.001272043 -0.0004372024
0.0017273682 -0.0022011956 -0.00030109938
0.0017273683 -0.0027397852 -0.00048229191
0.0017273682 0.00026344089 -0.00048229191
0.0022508134 0.00073763425 -0.00048229191
0.0022508136 0.00026344089 -0.00048229191
0.004763349 0.0012469534 -0.00046475697
0.0042399052 0.0017387095 -0.00032447907
0.0052867956 -0.0047419355 -0.0012187504
0.0057578934 -0.0047419355 -0.0012187501
0.0052867951 -0.0047419351 -0.00074531254
0.005747424 -0.0047419346 -0.00075583323
0.0062289946 -0.0047419355 -0.0012187505
0.006228995 -0.0047419346 -0.00079791644
0.0052867951 -0.0027397852 -0.00048229191
0.0047633494 -0.002739785 -0.00048229191
0.006228995 -0.00073763437 -0.0066369781
0.0058311764 -0.001211828 -0.0066264588
0.0082180863 -0.004741936 -0.0022708329
0.0082180854 -0.0047419351 -0.002744271
0.0082180863 -0.0047419355 -0.0032177088
0.0077469861 -0.0047419355 -0.003217709
0.0077469833 -0.0047419355 -0.003743751
0.0052867951 -0.0047419355 -0.0047432259
0.0057578948 -0.0047419351 -0.0047432287
0.005286796 -0.0047419355 -0.0042697899
0.005757893 -0.0047419346 -0.0042697904
0.0092649749 -0.0047419355 -0.0052166665
0.0092649739 -0.0047419351 -0.0047432301
0.0077469847 -0.0047419351 -0.0047432287
0.0072758812 -0.0047419355 -0.0052166665
0.0072758868 -0.0047419355 -0.0047432277
0.0077469847 -0.0047419351 -0.0052166674
0.0082180863 -0.0047419355 -0.0052166665
0.0067524402 -0.0047419351 -0.0055848961
0.0087228352 -0.0042658607 -0.0056018042
0.0092231017 -0.0016965593 -0.0066124317
0.010259522 -0.0042677419 -0.0055848956
0.0057578934 -0.001757036 -0.00028559775
0.005748658 -0.0012986084 -0.00038017775
0.0042399042 -0.00026344086 -0.00048229191
0.0042399033 0.00026344089 -0.00048229191
0.0037164595 -0.00026344086 -0.00048229191
0.004763349 0.00026344089 -0.00048229191
0.0063598561 -0.0038198926 4.3750042e-05
0.0065430622 -0.0037408604 4.3750042e-05
0.0072287745 -0.0036723663 -0.00045072939
0.0067524388 -0.0027397855 -0.00048229191
0.0072758854 -0.002739785 -0.00048229191
0.0067524398 -0.0012720429 -0.0004372024
0.006228995 -0.00073763425 -0.00048229191
0.0092649758 0.0032139786 -0.00048229191
0.010551153 0.0012118279 -0.0016997027
0.010556138 0.00077275967 -0.0012187498
0.0032453588 0.0027397852 -0.00048229191
0.0032453586 0.0032139786 -0.00048229191
0.0027742586 0.002739785 -0.00048229191
0.0027790163 0.0037803764 -0.00031730579
0.0038211485 0.0037803771 0.00023663184
0.0037164595 0.002739785 -0.00048229191
0.0032378808 0.0042577065 -0.00047728186
0.0032304029 0.0047344086 -0.00048229168
0.0052867951 0.002739785 -0.00048229191
0.0052867937 0.0032139791 -0.00048229191
-0.010730625 0.0017387095 -0.0032177083
-0.01073062 0.0017387092 -0.0027442712
-0.010730622 0.0017387096 -0.0022708348
-0.01073062 0.0027397848 -0.0022708336
-0.0038021144 0.0037983386 0.0017207069
-0.0040305262 0.0038462367 0.0012711803
-0.0040305262 0.0038462367 0.0017796876
-0.0037164569 0.004741936 -0.0012187506
-0.0037164574 0.0047419355 -0.0017447915
-0.009264973 -0.002222202 -0.00032757339
-0.009788421 0.00073763425 -0.00048229191
-0.0092649739 0.00073763425 -0.00048229191
-0.0092649758 0.00026344089 -0.00048229191
-0.0087512694 0.0013000499 -0.00037708343
-0.0087415306 0.00073763425 -0.00048229191
-0.007275885 0.00026344089 -0.00048229191
-0.0097524365 -0.0017299281 -0.00030584843
-0.0087415306 -0.001211828 -0.00048229191
-0.0087415306 -0.00073763425 -0.00048229191
-0.0052867923 0.0047419355 -0.0012187505
-0.0072758854 0.002739785 -0.00048229191
-0.0077469852 0.002739785 -0.00048229191
-0.007278021 0.0022279578 -0.00029764022
-0.0072287754 0.0036565594 -0.00045072939
0.0087415334 0.0047419355 -0.0047432291
0.0087415325 0.004741936 -0.00374375
0.0077469861 0.0017387097 -0.00032447907
0.0082180854 0.00073763425 -0.00048229191
0.0087434519 0.0017251743 -0.00030276179
0.010102488 0.0020548387 -0.00048229168
0.010119936 0.0017035842 -0.00048229168
0.0042399047 0.0047419355 -0.0027442714
0.0047633471 0.0047419351 -0.0027442717
0.0047633485 0.0047419355 -0.0032177088
0.004763349 0.0047419355 -0.0022708329
0.0047606975 0.0047412687 -0.00074731023
0.0067714746 0.0046509285 -0.00048229168
0.0072336434 0.0037149787 -0.00034385966
0.0065430622 0.0038462367 0.00072760414
0.0082025761 0.0042521302 -0.00047060195
0.0077469889 0.0047313971 -0.00075583346
0.0082180854 0.0047419355 -0.0012187504
0.0087415325 0.0047419351 -0.0012187503
0.0077469856 0.0047419355 -0.0012187504
0.0077469847 0.004741936 -0.0017447916
0.0072758817 0.0047419355 -0.0022708331
0.007275885 0.0047419355 -0.0017447924
0.0072758836 0.0047419355 -0.0012187504
0.0052867942 0.0047419351 -0.0027442717
0.0052867956 0.0047419355 -0.0022708329
0.0067524426 0.0047419355 -0.001744792
0.0022508139 -0.0022156774 -0.00030509871
0.0052731396 -0.0042494158 -0.00048229191
0.005761384 -0.0042185658 -0.00048229191
0.0052867946 -0.003764278 -0.00041215285
0.0072758845 0.0012469534 -0.00046475697
0.009788421 0.0012469533 -0.00046475697
0.0092730289 0.0012199339 -0.00047824532
0.01019107 0.0011875102 -0.00048229168
0.010207176 0.00073763443 -0.00048229168
0.0097884219 0.00073763425 -0.00048229191
-0.0027742584 0.00073763425 -0.00048229191
-0.0027742595 0.0013054957 -0.00036539347
-0.0017273687 0.0017387093 -0.00027187495
-0.0012413124 0.0047193551 -0.00048229168
-0.00026172237 0.0047419355 -0.00074531254
0.0022508136 0.0047419355 -0.0027442719
0.0027742577 0.004741936 -0.0032177081
0.0017273672 0.0047419355 -0.0017447917
0.0007851675 0.0047419355 -0.0027442712
0.00026172239 0.0047419355 -0.0022708327
0.00026172245 0.0047419355 -0.0037437489
-0.00026172237 0.0047419355 -0.0037437493
-0.00026172234 0.004741936 -0.0032177086
0.00026172242 0.0047419355 -0.003217709
0.0012562681 0.0047419346 -0.0042697899
0.0047633462 0.0047419355 -0.0037437498
0.0077469833 0.0047419355 -0.0042697908
0.007275885 0.0047419355 -0.0037437507
0.0072758822 0.0047419355 -0.0042697927
0.0077469833 0.0047419355 -0.0037437496
0.007275884 0.0047419355 -0.0032177097
0.0057578948 0.0047419346 -0.0056375009
0.007275884 0.0047419351 -0.0047432282
0.0067524393 0.004741936 -0.0042697918
0.0067524421 0.0047419355 -0.0037437514
0.0062289936 0.0047419355 -0.0042697908
0.0062289969 0.0047419351 -0.0047432287
0.003716459 0.0047419346 -0.0056375
0.0037130441 0.0031990879 -0.0056763836
0.0042361217 0.0031974739 -0.0056577804
0.0037164581 0.0027397845 -0.0056901048
0.004763348 0.0047419351 -0.0047432287
0.0042399052 0.0047419355 -0.0042697918
0.00324536 0.0047419355 -0.0042697908
0.0032453591 0.0047419346 -0.0047432287
0.0022508141 0.0047419355 -0.005216666
0.00324536 0.004741936 -0.0052166642
0.0022508141 0.0047419346 -0.00074531254
0.0027742577 0.0047419355 -0.00074531254
0.0022508132 0.004741936 -0.00048229191
0.0017404546 0.0047287634 -0.00048229191
0.0037164583 0.0047419355 -0.0017447919
0.0062289946 0.002739785 -0.00048229191
0.0052718394 0.0047118282 -0.00048229168
0.0047601094 0.0037930047 -0.00029682135
0.0057578939 0.0037876943 -0.00031278934
0.009167267 0.0042396416 -0.00048229191
0.0052867942 0.00026344089 -0.00048229191
0.00026172251 0.0047419355 -0.00048229191
0.0012441885 0.0047297771 -0.00048229168
0.0007851675 0.0042326166 -0.00046475697
0.0017273683 0.0032139791 -0.00048229191
0.0012562679 0.0027397852 -0.00048229191
0.001727368 0.002191209 -0.00029662973
0.0037164572 0.0017387095 -0.00032447907
0.003716459 0.00073763425 -0.00048229191
-0.00047110047 -0.001527957 -0.0065843752
-0.00079696364 -0.00027382988 -0.0066880984
0.00084017363 -0.00025986857 -0.0066877976
0.00083751191 5.2688178e-05 -0.0066369791
-0.00047110047 -0.00079032261 -0.0066369791
-0.003716459 5.2688178e-05 -0.0065843752
-0.003716459 -0.00026344071 -0.0066369786
-0.0037164588 0.0047243722 -0.0056024306
-0.00079451484 0.0047325259 -0.0056299856
-0.0012536938 0.0042642872 -0.0056409496
-0.00078516745 0.0042545712 -0.0056506512
-0.0032453598 0.0047419351 -0.005216667
-0.0027742586 0.0047419351 -0.0055848965
-0.0037164583 0.0047419365 -0.0052166665
-0.0012562678 0.00073763431 -0.0060583344
0.0087240823 -0.003143728 -0.00048229191
0.0077469852 -0.0027397852 -0.00048229191
0.0067973067 -0.0020548387 -0.006614435
0.006228995 -0.0047419346 -0.0055848956
0.006225823 -0.0042453906 -0.0056231525
0.0057524759 -0.00424049 -0.0056393137
0.0057578953 -0.0047419351 -0.0055848956
0.0087415315 -0.0047419351 -0.0055848951
0.0032453593 -0.0047419355 -0.0012187501
0.0027742574 -0.0047419351 -0.00074531254
0.0032453588 -0.0047419351 -0.00074531254
0.0027742586 -0.004741936 -0.00048229191
0.0017273687 -0.004741936 -0.0012187504
0.0012413124 -0.0047193551 -0.00048229168
0.0027742577 -0.0047419355 -0.0012187506
0.00078516768 -0.004741936 -0.0042697899
0.00078516733 -0.0047419346 -0.0047432268
0.00026172242 -0.0047419355 -0.0047432282
0.00078516779 -0.0047419355 -0.0037437489
0.00026172251 -0.0032139791 -0.00048229191
0.00078516745 -0.0032139791 -0.00048229191
-0.00026172251 -0.0032139784 -0.00048229191
-0.00026172254 -0.0027397852 -0.00048229191
-0.0077469856 -0.0047419351 -0.0022708324
-0.0047633485 -0.0047419355 -0.0042697922
-0.0047633471 -0.0047419355 -0.0047432287
-0.0052867951 -0.0047419355 -0.0047432282
-0.0062289955 -0.004741936 -0.0047432273
-0.0012562681 -0.0047419355 -0.0042697913
-0.00026172245 -0.0047419355 -0.0047432287
-0.0072758822 -0.0047419351 -0.0047432291
-0.010699049 0.0046725203 -0.0037487599
-0.01073062 0.0027397848 -0.0052166642
-0.01073062 -0.0032139786 -0.0017447921
-0.010730627 -0.0037408599 -0.0012187507
-0.010259525 -0.0047419355 -0.0052166656
-0.0092649749 -0.0047419355 -0.0052166651
-0.0097884182 -0.0032139784 -0.0056374981
-0.0092649767 -0.0027397848 -0.0056374995
-0.010657338 -0.0046681715 -0.002744271
0.007746988 -0.0047419355 -0.0012187503
0.0066128545 -0.0041623656 -0.00048229168
-0.0037164581 -0.0047419351 -0.0027442719
-0.003716459 0.00073763425 -0.00048229191
-0.0047643078 -0.0017377427 -0.00030276179
-0.0042399047 -0.00073763425 -0.00048229191
-0.0042399038 -0.001211828 -0.00048229191
-0.0067524398 -0.002739785 -0.00048229191
-0.005755459 -0.0017387093 -0.00030612876
-0.004763348 -0.0047419355 -0.0052166651
-0.0082180882 -0.0047419355 -0.0047432282
-0.0082180873 -0.0042677424 -0.005637499
-0.0082008447 -0.0037371414 -0.0056622559
-0.0087415334 -0.0042677429 -0.0056374981
-0.0087415315 -0.0037408611 -0.0056374986
-0.0087415334 -0.001211828 -0.0066369777
-0.0092364233 -0.0012166179 -0.0066321967
-0.0067371204 -0.00028400199 -0.0066254311
-0.0083227744 -0.00075366982 -0.006630118
-0.0052867951 -0.0027397845 -0.0056901043
-0.0037164595 -0.0017387095 -0.0066369786
-0.0032977024 -0.0017387099 -0.0066369786
-0.0042399047 -0.0047419355 -0.0047432268
-0.0042399033 -0.0047419355 -0.0042697918
-0.002772206 -0.0047367699 -0.0056189336
-0.0027742567 -0.0047419355 -0.0052166665
-0.00324536 -0.0047419355 -0.0052166656
-0.0027742577 -0.0047419351 -0.0027442717
-0.0027742579 -0.0047419355 -0.0037437477
-0.0087415306 -0.0047419355 -0.0037437486
-0.0022508134 -0.0027397845 -0.0056901048
-0.00026172251 0.00026344089 -0.00048229191
-0.00078516745 -0.00073763425 -0.00048229191
-0.0012562678 -0.00026344086 -0.00048229191
-0.0022508136 0.00026344089 -0.00048229191
0.0012562679 0.0012720431 -0.0004372024
-0.00078516739 0.00026344089 -0.00048229191
-0.00078516756 0.0017387093 -0.00027187495
-0.00078516762 0.0021912092 -0.00029662997
-0.00026172242 0.0021912088 -0.00029662973
-0.0022508134 0.0046892473 -0.00048229168
-0.0027742579 0.0042326166 -0.00046475721
-0.0022508139 0.0047419355 -0.00074531231
-0.0027742584 0.0047419355 -0.00074531278
-0.0017273681 -0.0032139786 -0.00048229191
-0.0022508134 -0.0027397852 -0.00048229191
-0.0032453588 -0.00073763431 -0.00048229191
-0.0037009502 -0.0012274393 -0.00047060195
-0.0022508143 -0.0017524543 -0.00029017194
-0.0037862519 -0.0038462365 0.00078605325
-0.0037164595 -0.0027397852 -0.00048229191
-0.0042399047 -0.002739785 -0.00048229191
-0.0027742579 -0.002201196 -0.00030109938
-0.0027742584 -0.002739785 -0.00048229191
-0.00026172242 -0.0047419355 -0.0032177093
0.00026172234 -0.0047419355 -0.0032177079
0.0007851675 -0.004741936 -0.0017447917
0.00026172242 -0.0047419355 -0.0017447912
-0.00026172245 -0.0047419355 -0.0012187505
-0.00078516745 -0.0032139791 -0.00048229191
-0.0017273684 -0.0047419355 -0.0027442703
-0.00026172251 -0.0042677419 -0.00048229191
0.00026172239 -0.0037810027 -0.00028189481
0.00026172237 -0.0047419355 -0.0022708324
0.00078516727 -0.0047419355 -0.0022708324
0.00027146094 -0.0013000499 -0.00037708343
-0.001570335 0.0011854839 -0.0060583334
-0.00078261411 -0.0032105509 -0.0057392903
0.001256268 -0.0020548387 -0.0066369786
0.0017273683 -0.0020548387 -0.0066369786
0.0012605789 -0.0037284638 -0.0057068146
0.0017221769 -0.0032087534 -0.0057357512
0.0017192375 -0.003729607 -0.0056998082
0.00078516826 -0.0047419355 -0.003217709
-0.0012562682 -0.0047419355 -0.0052166656
-0.0017273676 -0.004741936 -0.0037437496
-0.0017273682 -0.0047419355 -0.0042697922
-0.0017273681 -0.004741936 -0.0047432273
0.0067524421 -0.0047419355 -0.0052166646
0.0052867951 -0.004741936 -0.0052166651
0.006228996 -0.0047419355 -0.0047432268
0.0057578911 -0.004741936 -0.0037437498
0.0017273683 0.004741936 -0.0052166642
0.0022420899 0.0017387093 -0.0057339445
0.0034023921 0.0010010753 -0.0061109373
0.0015441626 0.0010801075 -0.0060583334
0.001256268 0.001527957 -0.0060583334
0.0017273683 0.0017387092 -0.0057427119
0.0032453595 0.0027397845 -0.0056901039
0.0027654511 0.0022646077 -0.0057073124
0.0032453598 0.0022655923 -0.0056901053
0.0012562679 5.2688178e-05 -0.0066369791
0.0067524398 5.2688178e-05 -0.0066895834
0.0077469866 0.00073763449 -0.0056901053
0.0061940993 0.00059713266 -0.0061109383
-0.010252047 -0.0017336915 -0.0056475196
-0.010730621 -0.0022655921 -0.005637499
-0.010730623 -0.001211828 -0.0047432268
-0.010730621 0.00026344077 -0.0027442714
-0.01073062 -0.00026344083 -0.002744271
-0.010730619 0.00026344083 -0.0047432282
-0.01073062 0.00026344077 -0.0052166642
-0.010730624 0.00073763437 -0.0047432273
-0.010730619 0.00026344083 -0.0042697913
-0.010730617 0.0012118279 -0.005637499
-0.010730619 0.00073763437 -0.005637499
-0.0027767208 0.00073949399 -0.0057055755
-0.00078516756 0.0037408611 -0.0056901062
-0.0092622219 0.0012104415 -0.0056402669
-0.0062289941 -0.0047419355 -0.0022708336
-0.0062289964 -0.0047419355 -0.0027442705
-0.004763348 -0.0047419355 -0.001744792
-0.0052867937 -0.0047419355 -0.0017447929
-0.007275884 -0.0047419355 -0.0017447919
-0.0087415315 -0.004741936 -0.0032177086
-0.0087415306 -0.0047419355 -0.0027442719
-0.0082180835 -0.0047419355 -0.0012187505
-0.0062289946 -0.001211828 -0.00048229191
-0.010521243 -0.001211828 -0.00048229168
-0.0087415297 -0.002739785 -0.00048229191
-0.0082180854 -0.0032139791 -0.00048229191
-0.0067416094 -0.002734334 -0.0057112691
-0.0067524416 -0.0032139784 -0.0056901043
-0.0077469894 -0.0032139786 -0.0056901048
-0.0077469861 -0.0027397848 -0.0056901053
-0.0017259909 -0.0042649698 -0.0056402669
-0.0017176754 -0.003200318 -0.0057115373
-0.0017235379 -0.0037254398 -0.0056554629
-0.0016017416 -0.0020548387 -0.0066264584
-0.00079306861 -0.0017287683 -0.0066459104
-0.00124913 -0.0017243404 -0.0066513252
-0.0032977024 -0.0012118279 -0.0066369791
-0.001714003 -0.0012051018 -0.0066336202
-0.0097884173 0.0042677433 -0.00079791667
-0.010730624 0.0037408595 -0.0012187501
0.0012522417 0.0047243722 -0.0056132218
-0.0033051802 -0.00027849461 -0.00663698
-0.001727368 -0.00073763437 -0.0066369795
-0.0032977031 -0.00073763425 -0.0066369795
-0.0042399047 0.0037408599 -0.0056374986
-0.0042331945 0.0032072235 -0.0056455927
-0.0047633485 0.0047419355 -0.0047432287
-0.0052867942 0.0047419355 -0.0042697894
-0.0037164581 0.0047419346 -0.0047432305
-0.0047633485 0.0047419355 -0.0032177093
-0.0017273694 0.004741936 -0.0037437496
-0.0012562682 0.0047419355 -0.0047432282
-0.00078516779 0.0047419355 -0.0042697899
-0.00078516762 0.0047419355 -0.0047432268
-0.00078516745 0.0047419365 -0.005216666
-0.0022508139 0.004741936 -0.0052166642
-0.0017273694 0.0047419355 -0.0052166642
-0.0017273681 0.0047419351 -0.0055848961
-0.0067524412 0.004741936 -0.0047432277
-0.0062289946 0.0047419355 -0.00374375
-0.0057578934 0.0047419355 -0.0032177088
-0.0057578925 0.0047419355 -0.0037437505
-0.0062289946 0.0047419355 -0.0042697908
-0.0057578925 0.0047419346 -0.0047432301
-0.0067470265 0.0047364845 -0.0056338715
-0.0067524393 0.0042677429 -0.0056374986
-0.0057656141 0.0027371936 -0.0056823427
-0.0062289936 0.0027397848 -0.0056901053
-0.010687 0.004671684 -0.0022708329
-0.010259525 0.0047419355 -0.0037437486
-0.0077469824 0.0047419355 -0.0037437498
-0.0087415315 0.004741936 -0.0032177088
0.0097884182 0.0042677433 -0.00074531254
0.010245244 0.0046796668 -0.0022708329
-0.0072758859 0.0047419355 -0.0032177093
-0.0072758845 0.0047419355 -0.0027442714
-0.0067524407 0.0047419355 -0.0032177099
-0.0047633471 0.0047419355 -0.0022708324
-0.0097884173 0.0047419355 -0.002744271
-0.009264973 0.0047419355 -0.0012187505
-0.0082180835 0.004741936 -0.0022708327
-0.0082180854 0.0047419365 -0.001744792
-0.007746988 0.0047419351 -0.0022708331
-0.0067524402 0.0047419355 -0.00074531254
-0.0072758817 0.0047419355 -0.0012187505
-0.0072712651 0.0047279876 -0.00077316188
-0.006228996 0.0047419355 -0.00074531278
-0.0077469847 0.0047419351 -0.0017447916
0.0092649758 0.0047419355 -0.0032177088
0.0092649758 0.004741936 -0.0047432282
-0.0092649758 0.0047419346 -0.0047432277
-0.0097884182 0.0042677429 -0.0055848961
-0.0097884163 0.0032139786 -0.005637499
-0.010259523 0.0037408606 -0.0055848947
-0.0097774025 0.002731466 -0.00048229191
-0.010102488 0.0032666668 -0.00048229168
-0.010730623 0.0032139781 -0.0017447922
-0.010730621 0.0032139779 -0.0012187506
-0.0082180854 0.0032139791 -0.00048229191
-0.0057612914 0.0022163254 -0.00029920181
-0.0052867937 0.002739785 -0.00048229191
-0.0052867942 0.0022101309 -0.0002995613
-0.003716459 0.004583871 -0.00048229168
-0.0037912372 0.0037980655 0.0002511607
-0.0034023921 0.004583871 -0.00048229168
-0.003796516 0.003799747 0.0007740194
-0.0042452458 0.0022279578 -0.00029764022
-0.0037232854 0.0022186311 -0.00030618208
-0.0037978846 0.0037994029 0.0012516975
-0.0042324266 0.0012971325 -0.00037207338
-0.0032453581 0.0013054957 -0.0003653937
-0.0047704843 0.0037480446 -0.00029578595
-0.0057578925 0.0017387097 -0.00028064218
0.0083227744 -0.0012118279 -0.0065843756
0.0097604031 -0.0047174459 -0.0042831283
0.0097481534 -0.0047297766 -0.0037437496
0.010521244 0.0012118279 -0.0047432291
0.009775335 0.0047024186 -0.0042697908
0.0097753359 0.0047024186 -0.0047432277
0.010684489 -0.00025272439 -0.0056232344
0.010616412 -0.00075200392 -0.0047432301
-0.0097884201 0.0027397848 -0.0056375
-0.0092649739 0.0032139781 -0.005637499
-0.0097884182 0.0022655921 -0.0056374981
-0.0097884182 0.0017387096 -0.0056375004
-0.0092649749 0.0017387094 -0.0056374981
0.010640887 -0.0007501794 -0.0052233459
0.010521244 0.001211828 -0.0032177086
0.010567768 0.0017621269 -0.0032177083
0.010599758 0.002291936 -0.0022708334
0.010702066 0.0037552302 -0.0027442721
0.010678277 0.0046365592 -0.0027442707
0.010245246 0.0046796673 -0.0027442705
0.010714379 0.0037490358 -0.0017366291
0.010730621 0.0042677447 -0.0042697904
0.010672156 0.0027418372 -0.0052248626
0.010639018 -0.001225 -0.0017447913
0.0087415325 -0.0047419355 -0.0032177079
0.0082180826 0.001738709 -0.0056901039
0.0087284464 0.0017387096 -0.0056506512
0.0082180863 0.001211828 -0.0056901071
0.0062289969 0.0017387094 -0.0056901057
0.0062289941 0.0022655926 -0.0056901067
0.0052867951 0.0032139784 -0.0056901071
0.0087415334 0.0012118281 -0.0056374981
0.0092649758 0.0012118279 -0.0056374986
0.0092649749 0.0017387096 -0.0056374995
0.0092649749 0.0022655921 -0.0056374981
0.0097884191 0.0027397845 -0.005637499
0.008724086 0.0022681016 -0.0056600431
0.0082202004 0.0022634638 -0.0056885136
0.0087415343 0.0037408601 -0.0056374986
0.0092649749 0.0027397843 -0.0056374995
0.0062279277 -0.0037365595 -0.0056868838
0.0058421008 -0.0017249651 -0.0066301175
0.0082264598 0.0027390819 -0.0056795841
0.0077436105 0.0027346855 -0.005685016
0.0077469856 0.0022655923 -0.0056901062
0.004763348 -0.0022368534 -0.0002862215
0.0047633494 -0.0017387099 -0.00027187495
0.0042399038 -0.0017387092 -0.00027187518
0.0047633494 -0.0013054957 -0.0003653937
0.004763349 -0.00073763425 -0.00048229191
0.0052816011 -0.001745676 -0.00027709198
0.0012562682 -0.0022011951 -0.00030109962
0.0032453581 0.00026344089 -0.00048229191
0.0032453584 0.00073763431 -0.00048229191
0.0027742588 0.00026344089 -0.00048229191
0.0027742586 -0.00026344086 -0.00048229191
0.0042366995 0.0022354848 -0.00029764022
0.0042399047 0.00073763425 -0.00048229191
0.0087415352 -0.0047419355 -0.0047432296
0.0082180845 -0.0047419355 -0.0047432282
0.0092516132 -0.0012051018 -0.0066336202
0.01069074 -0.0027397845 -0.0022658228
0.0097884201 -0.0042677424 -0.0055848961
0.0042399047 -0.0013054957 -0.0003653937
0.0037164586 -0.0013054957 -0.0003653937
0.003716459 -0.00073763425 -0.00048229191
0.0057523847 -0.0037685912 -0.00039923261
0.010254109 0.003697257 -0.00078521925
0.010573584 0.001211828 -0.0012187496
0.010538691 0.00022831543 -0.0017447917
0.0047633494 0.0032139786 -0.00048229191
0.0042399038 0.0032139791 -0.00048229191
0.0052821431 0.0037912065 -0.0003116203
0.0047633494 0.002739785 -0.00048229191
-0.0022508143 0.002191209 -0.00029662973
-0.0037147284 0.0017456767 -0.00027187495
-0.0032453595 0.0047419355 -0.00074531254
-0.0032453598 0.004741936 -0.0012187503
-0.0082180854 0.00073763425 -0.00048229191
-0.0082180854 0.001272043 -0.00043720263
-0.0077469861 0.001272043 -0.00043720263
-0.0077450913 0.0022236954 -0.00028455071
-0.008218959 0.0017343187 -0.00028064242
-0.0077469856 0.0017482896 -0.00029578595
-0.0077469847 0.00073763431 -0.00048229191
-0.009788421 -0.001211828 -0.00048229191
-0.0082180854 -0.001211828 -0.00048229191
-0.0082180873 -0.00073763425 -0.00048229191
-0.0052867932 0.0047419355 -0.00074531254
0.0082180854 0.0047419355 -0.0037437498
0.0082180854 0.0047419355 -0.0032177081
0.0082100322 0.0012199337 -0.00047824532
0.0097244438 0.0031905619 -0.00048229191
0.004763348 0.004741936 -0.0017447922
0.0072758845 0.0046892473 -0.00048229191
0.0077528008 0.0037350059 -0.00048229191
0.0082137231 0.0047243726 -0.00075846352
0.0072758873 0.0047313976 -0.00075583323
0.0087415343 0.0047419355 -0.0017447917
0.005286796 0.0047419355 -0.003217709
0.0077469843 0.0047419355 -0.0022708331
0.007746987 0.0047419346 -0.0027442703
0.0072758868 0.0047419355 -0.0027442707
0.010538692 0.00022831543 -0.0022708336
0.010538692 0.00022831543 -0.0042697922
0.010538691 0.00022831543 -0.0037437496
0.0042399047 -0.0022234418 -0.00030343747
0.0037185724 -0.0022219515 -0.00030375621
0.0032453588 -0.0027397855 -0.00048229191
0.0037164588 -0.0027397848 -0.00048229191
0.0087415306 0.001211828 -0.00048229191
-0.0022508148 0.0017387094 -0.00027187495
-0.0027742565 0.0017387094 -0.00027187495
-0.0017032095 0.0046892473 -0.00048229168
-0.0017354211 0.0042596357 -0.00047824532
-0.00078516774 0.0047419355 -0.0012187501
-0.001256268 0.0047419351 -0.00074531231
0.0007851675 0.0047419351 -0.0032177079
0.00026172242 0.0047419355 -0.0027442719
-0.00026172242 0.0047419351 -0.0027442714
0.0007851675 0.004741936 -0.0037437493
0.0042399042 0.0047419355 -0.0032177086
0.0077469884 0.0042677424 -0.0056374995
0.0067524412 0.0047419351 -0.005637499
0.0072758859 0.0047419351 -0.0056374995
0.0077469894 0.0047419355 -0.0052166656
0.003716459 5.268817e-05 -0.0066369786
0.0042399038 -0.00026344071 -0.0066369777
0.0037164583 -0.00026344066 -0.0066369786
0.0042399047 0.0037408611 -0.0056374981
0.0042399052 0.0047419355 -0.00374375
0.0037164579 0.0047419355 -0.0042697904
0.0032453584 0.0047419346 -0.0056375009
0.0032453593 0.0047419346 -0.0027442712
0.0027742577 0.0047419355 -0.002744271
0.0027742574 0.0047419355 -0.0022708334
0.0027742586 0.0042326166 -0.00046475721
0.0032453598 0.0047419355 -0.0017447916
0.0037164579 0.0047419355 -0.0012187506
0.0057578939 0.0047103227 -0.00048229168
0.0047783046 0.0047118282 -0.00048229168
0.0042399042 0.004741936 -0.00074531254
0.00078315416 0.0037824013 -0.00028401427
0.00026894247 0.0042350385 -0.00046415254
0.0012562681 0.0047419351 -0.00074531254
0.0037218002 0.002224732 -0.00029119896
0.0032453595 0.0021912085 -0.00029662973
0.0032453581 0.0012720429 -0.00043720263
-0.00026574885 0.0042596366 -0.0056455918
0.00088566885 -0.0017134196 -0.0066138338
-0.00047110047 -0.0011884109 -0.0066311345
0.0022438338 -0.0027362718 -0.005720499
0.0027742577 -0.0027397845 -0.0056901043
0.0022445952 -0.0032098049 -0.0056968755
0.002774257 -0.0032139784 -0.0056901067
-0.00080210262 -0.0012040797 -0.0066787517
-0.0012373349 -0.0012185541 -0.0066604824
-0.0032453591 0.0042677433 -0.005637499
-0.00324536 0.0032097064 -0.0056773094
-0.0027716076 0.0037328575 -0.0056481538
-0.0022508134 0.0047419351 -0.0055848956
-0.00025050569 0.0047344076 -0.0056299842
-0.0017260596 0.0037303232 -0.0056506502
-0.0022519033 0.0032128806 -0.0056835315
-0.0017347705 0.0032065273 -0.0056906361
-0.00095964904 0.00070250896 -0.0060583334
0.0082180854 -0.002739785 -0.00048229191
0.004763348 -0.0047419351 -0.00074531278
0.0047633476 -0.0047419355 -0.0012187505
0.0045539713 -0.0016634408 -0.0066294638
0.0042399042 -0.0020548387 -0.0066369786
0.0067473738 -0.0042422479 -0.0056154402
0.0045781299 -0.0011875102 -0.0066248402
0.003716459 -0.0046892473 -0.00048229191
0.0042137322 -0.0046629035 -0.00048229168
0.0038002103 -0.0038040862 0.0012536459
0.0032453584 -0.0047419355 -0.00048229191
0.0022508134 -0.0027397852 -0.00048229191
0.0022508134 -0.0032139786 -0.00048229191
0.0017273684 -0.0047419355 -0.00074531254
0.0022638994 -0.0047024195 -0.00048229191
0.0012562682 -0.0047419355 -0.0037437505
0.0042399038 -0.004741936 -0.0027442714
-0.00025550323 -0.0037867655 -0.00028854166
0.00026172254 -0.002739785 -0.00048229191
-0.0047633476 -0.0047419355 -0.0037437496
-0.0052867937 -0.0047419355 -0.0037437505
-0.0067524379 -0.0047419355 -0.002744271
-0.0067524402 -0.0047419351 -0.003217709
-0.0052867942 -0.0047419355 -0.0042697899
-0.0057578944 -0.0047419351 -0.0037437484
-0.0057578944 -0.0047419355 -0.0032177083
-0.0052867942 -0.0047419355 -0.0032177081
-0.0047633471 -0.0047419355 -0.003217709
-0.0037164569 -0.004741936 -0.003217709
-0.004763348 -0.0047419355 -0.0027442719
-0.0042399047 -0.0047419351 -0.0027442721
-0.0062289941 -0.0047419355 -0.0042697913
-0.00026172242 -0.0047419355 -0.0052166651
-0.00078516727 -0.0047419355 -0.0042697918
-0.0062289946 -0.0047419355 -0.003217709
-0.0067524426 -0.004741936 -0.0042697894
-0.0072758812 -0.0047419355 -0.0042697913
-0.009788421 -0.0027397848 -0.0056375
-0.0077469866 -0.0047419351 -0.002744271
-0.010259521 -0.0046892469 -0.0027442707
0.0077469856 -0.0047419355 -0.0017447922
0.007275885 -0.0047419355 -0.0012187505
0.0061990833 -0.0042225807 -0.00048229168
-0.0047633485 -0.001211828 -0.00048229191
-0.0067548747 -0.0022165801 -0.00032447907
-0.0082180873 -0.0047419355 -0.0052166665
-0.0087415297 -0.00073763431 -0.0066369786
-0.0083227754 -0.0017387099 -0.0066369786
-0.0083925677 -0.00032198324 -0.0065960656
-0.0067197243 0.00014818549 -0.0061668302
-0.006750328 0.00073603797 -0.0057405853
-0.0067503718 0.0012097412 -0.0056927102
-0.0062309522 0.0012009948 -0.0057073128
-0.0067497906 0.0027377838 -0.0056881048
-0.0067430311 0.0032068742 -0.0056705996
-0.0059149279 -0.0025817205 -0.0060583334
-0.0037164583 -0.0047419355 -0.0042697918
-0.0037164581 -0.004741936 -0.0047432277
-0.0032453593 -0.0047419351 -0.0047432277
-0.0012562677 -0.001272043 -0.0004372024
-0.0017273682 -0.00026344086 -0.00048229191
-0.0012562679 -0.00073763431 -0.00048229191
-0.0017273683 -0.0007376342 -0.00048229191
0.00026172239 0.0037810027 -0.00028189481
-0.00026172239 0.0037810036 -0.00028189481
-0.00026172254 0.0032139791 -0.00048229191
0.00078516762 0.002191209 -0.00029662973
0.00026172248 0.0017387092 -0.00027187495
0.0012562682 0.0047419355 -0.0012187501
-0.0012562679 0.0027397855 -0.00048229191
-0.00078516745 0.0027397852 -0.00048229191
-0.00026172251 0.002739785 -0.00048229191
0.00026172254 0.0027397855 -0.00048229191
-0.0012039234 0.0037408604 0.00081527769
-0.0022508132 0.002739785 -0.00048229191
-0.0027742586 0.0027397852 -0.00048229191
-0.0022508134 0.0032139791 -0.00048229191
-0.0017126041 0.0037314035 -0.00030559557
-0.0022301511 0.0037727493 -0.0003120203
0.0017273681 -0.0032139784 -0.00048229191
-0.0032453586 -0.0012720431 -0.0004372024
-0.0017256093 -0.0017484504 -0.00028248411
-0.0022508134 -0.0012720429 -0.00043720263
-0.0032453588 -0.0027397852 -0.00048229191
-0.0027742588 -0.0032139786 -0.00048229191
-0.0022508132 -0.0022011956 -0.00030109938
0.00026172245 -0.004741936 -0.0027442719
-0.00026172242 -0.0047419355 -0.0017447914
0.00026172242 -0.0047419355 -0.0012187507
-0.00027451775 -0.0027362721 -0.0057193297
-0.0012562681 -0.0032139786 -0.0057427115
-0.00027169281 -0.0032139786 -0.0057026306
0.0012562681 -0.0017387097 -0.0066369781
0.0012562681 -0.001211828 -0.0066369786
0.00078654481 -0.0042649703 -0.0056402674
0.0012596451 -0.0042609442 -0.0056442865
0.00078516756 -0.0047419355 -0.0052166642
0.0012562682 -0.0047419355 -0.005216667
-0.0027742567 -0.004741936 -0.0042697908
-0.0022508146 -0.0047419355 -0.0052166651
-0.0022508136 -0.0047419351 -0.0047432277
0.004763349 -0.0047419351 -0.0055848956
0.0062289983 -0.0047419355 -0.0052166651
0.0067524421 -0.004741936 -0.0042697918
0.006228996 -0.0047419355 -0.0037437507
0.0017220679 -0.0042584054 -0.0056481543
0.005757892 -0.0037408608 -0.0056901034
0.0033575248 0.0007150537 -0.0061109387
0.0022420895 0.00073763449 -0.0057339421
0.00324536 0.0017387096 -0.0056901039
0.0037164567 0.0022655926 -0.005690109
0.0037164579 0.0017387096 -0.0056901048
0.0022508143 0.0032139784 -0.0056901039
0.0017252538 0.002738188 -0.0057405834
0.0012549915 0.0032088379 -0.0056965193
0.0012562677 0.0012118279 -0.0060583344
0.0045539713 -0.00073763443 -0.0066369795
0.0062289927 -0.00026344068 -0.0066369786
0.0077469847 0.0012118279 -0.0056901039
-0.0087311929 -0.0032035713 -0.0056530852
-0.010730622 -0.00073763437 -0.0047432268
-0.01073062 -0.0007376346 -0.0042697908
-0.010730618 -0.0017387095 -0.0052166656
-0.010730623 -0.0017387096 -0.0056375004
-0.010730623 -0.00026344083 -0.0042697904
-0.01073062 -0.00073763437 -0.005637499
-0.010259521 0.00026344071 -0.0056374995
-0.010259522 -0.00026344063 -0.0056374995
-0.010730621 -0.00026344074 -0.0056374995
-0.0095790429 -0.00079032261 -0.0061810762
-0.01073062 -0.001211828 -0.0056374986
-0.01073062 -0.00026344083 -0.0052166646
-0.0012469466 0.0037321995 -0.0056749703
-0.0012460714 0.0032085043 -0.0056866882
-0.00078136101 0.0032015245 -0.0057140179
-0.0052867956 0.00073763443 -0.0056901043
-0.0047633476 0.00073763443 -0.0056901067
-0.007746987 0.00073763443 -0.0056901067
-0.0077469847 0.001211828 -0.0056901048
-0.0092649758 0.00073763449 -0.0056374986
-0.0072758868 -0.0027397843 -0.0056901048
-0.0077469847 -0.0032139786 -0.00048229191
-0.0016361877 -0.0017183146 -0.0066284942
-0.0012562679 -0.0020548387 -0.0066369795
-0.0017186445 -0.0027397845 -0.0057339426
-0.0012468086 -0.0037218167 -0.0057046814
-0.0037534083 0.0007283364 -0.0060583344
-0.0096488362 0.0036706096 -0.00048229168
-0.00026172248 0.0047419355 -0.0052166674
-0.00078516727 0.0047419355 -0.0037437498
-0.0012562681 0.0047419355 -0.0037437498
-0.00078516756 0.0047419355 -0.0032177086
-0.00026172237 0.0047419355 -0.0042697908
-0.0012457991 -0.00073880539 -0.0066825696
-0.0037164581 0.0037408611 -0.0056374976
-0.005757892 0.0047419355 -0.0042697922
-0.0042399042 0.0047419355 -0.0052166665
-0.0042399038 0.0047419355 -0.0047432296
-0.0052867956 0.0047419355 -0.0037437507
-0.0042399047 0.0047419355 -0.0022708334
-0.0042399052 0.0047419355 -0.0032177093
-0.0032453605 0.0047419355 -0.0017447919
-0.0027742579 0.0047419355 -0.0042697908
-0.0022508132 0.0047419355 -0.0037437514
-0.0027742577 0.0047419355 -0.0037437493
-0.0022508139 0.0047419355 -0.003217709
-0.0017273681 0.0047419351 -0.0047432259
-0.0012562682 0.0047419355 -0.0042697927
-0.0012562682 0.0047419355 -0.0052166656
-0.0067524402 0.004741936 -0.0042697908
-0.0077395062 0.0042548389 -0.0056138816
-0.0082250675 0.0042712549 -0.0056111971
-0.0077469861 0.0037408608 -0.0056374995
-0.0082151368 0.0037319555 -0.0056315716
-0.0062289964 0.0047419355 -0.0047432273
-0.0062289936 0.0047419351 -0.003217709
-0.0072707781 0.0047380798 -0.0055887452
-0.003716459 0.0022655926 -0.0056901062
-0.0042399052 0.0022655923 -0.0056901067
-0.0037164583 0.0027397848 -0.0056901062
-0.0032403746 0.0022630834 -0.0057026278
-0.0037306058 0.0017368107 -0.0057161716
-0.0087415334 0.004741936 -0.0027442717
-0.0052867932 0.0047419355 -0.0022708331
-0.0092649776 0.004741936 -0.0027442712
-0.0087415343 0.0047419355 -0.0012187506
-0.0077437824 0.004738709 -0.00079362234
-0.0077469861 0.0047419351 -0.0012187501
0.009264973 0.0047419351 -0.0017447919
0.0097753331 0.0047024186 -0.0032177079
0.0087415343 0.0047419351 -0.003217709
0.010245246 0.0046796682 -0.0047432291
-0.0097884182 0.0047419355 -0.0047432268
-0.009782494 0.0037289315 -0.0055938284
-0.008236561 0.0037284633 -0.00046372553
-0.0022508134 0.0042326166 -0.00046475721
-0.00371646 0.0027397852 -0.00048229191
-0.0032561889 0.0038280685 -0.00031540939
-0.0047684554 0.0012940728 -0.0003745174
-0.0057578944 0.0027397852 -0.00048229191
-0.0062289955 0.002739785 -0.00048229191
-0.0027716735 0.0021875359 -0.00030824332
-0.0047633494 0.0027397848 -0.00048229191
-0.0042399047 0.0027397852 -0.00048229191
-0.0047633494 0.0032139786 -0.00048229191
-0.0052867937 0.0032139786 -0.00048229191
0.0092649786 -0.0027397848 -0.0056374981
0.0087245973 -0.0027382348 -0.0056622545
0.0071188528 -0.00073763431 -0.00663698
0.0070964172 -0.00030860212 -0.00663698
0.0087504396 -0.0012006178 -0.0066336202
0.010670345 -0.0046158032 -0.0042761681
0.010250284 -0.0046582543 -0.0047494178
0.010259522 -0.004662903 -0.0032177088
0.010521243 0.00073763431 -0.0047432287
0.009788421 0.00073763437 -0.0056374995
0.010684709 0.00025789457 -0.0056135049
0.010259521 0.00026344071 -0.0056374976
0.010567768 0.0017621269 -0.0047432291
-0.009264973 0.0022655921 -0.0056374995
-0.0087322546 0.0022615907 -0.0056481524
-0.0087361615 0.00074033637 -0.0056860587
-0.0087284492 0.0012010507 -0.0056685847
0.010625934 0.0017387096 -0.0012187503
0.010599763 0.002291936 -0.0032177088
0.010573586 -0.00026344066 -0.0032177081
0.010538691 0.00022831543 -0.0032177086
0.010573584 -0.00026344068 -0.0037437496
0.010730616 0.0042677438 -0.0022708343
0.010684659 0.0046352735 -0.0032177081
0.010696535 0.0046328828 -0.0037388566
0.01073062 0.0042677429 -0.0027442721
0.010678278 0.0046365582 -0.0022708338
0.010702075 0.0037552286 -0.00374375
0.010730623 0.0042677433 -0.0047432273
0.010702075 0.0037552298 -0.0047432259
0.010730619 0.0042677433 -0.0032177074
0.010696537 0.0046328823 -0.0042697922
0.010521244 0.001211828 -0.002744271
0.0062289946 0.001211828 -0.0056901057
0.0047633485 0.0037408606 -0.0056375004
0.0067524398 -0.00026344071 -0.0066369777
0.0077399542 0.0037267061 -0.0056594834
0.0082180854 0.0037408613 -0.0056374981
0.0083424039 -0.00071787625 -0.006610678
0.0062289955 -0.0032139784 -0.0056901048
0.0012517165 -0.0047350628 -0.0056329258
0.0017234908 -0.0047263238 -0.0056258105
0.0042399038 -0.0017387099 -0.0066369786
0.0047633471 0.001211828 -0.0056901071
0.0052867951 0.001211828 -0.0056901039
0.0027742574 -0.0022156772 -0.00030509848
0.0032453581 -0.00026344086 -0.00048229191
0.0027742588 -0.0013054957 -0.00036539347
0.0032453581 -0.0013054957 -0.0003653937
0.0032453584 -0.00073763431 -0.00048229191
0.0027742584 0.00073763425 -0.00048229191
0.0027742581 -0.00073763425 -0.00048229191
0.004763349 0.00073763425 -0.00048229191
0.004763349 -0.0032139791 -0.00048229191
0.0047448738 -0.0037573907 -0.00038739783
0.0042399038 -0.0032139791 -0.00048229191
0.0042399042 -0.0027397852 -0.00048229191
0.0052867937 -0.0032139791 -0.00048229191
0.0047633494 -0.004267741 -0.00048229191
0.0027742577 -0.004741936 -0.0047432273
0.002774257 -0.0047419351 -0.0052166651
0.0032453593 -0.0047419355 -0.0052166651
0.0022508136 -0.0047419355 -0.0052166646
0.0017273683 -0.0047419355 -0.0042697922
0.0017273684 -0.0047419355 -0.0047432268
0.0022508132 -0.0047419355 -0.0047432263
0.007275884 -0.004741936 -0.0017447919
0.007746988 -0.0047419351 -0.002744271
0.007275884 -0.0047419351 -0.0027442714
0.0016017416 0.00071655918 -0.0060583339
0.0087415315 -0.0047419355 -0.0052166651
0.0082180863 -0.0047419355 -0.0042697922
0.0097755631 -0.0037223741 -0.0056042764
0.0042399047 -0.00073763425 -0.00048229191
0.0077469847 -0.0032139786 -0.00048229191
0.010521244 0.00073763425 -0.0022708336
0.010538693 0.00075519708 -0.0017184896
0.0042399042 0.0027397852 -0.00048229191
0.0057448074 0.0041887104 -0.00039681001
0.0052867937 0.0047384221 -0.00075583323
0.0022508139 0.0047419355 -0.0022708329
-0.0042399033 0.0017404658 -0.00027538184
-0.0032453611 0.0017387092 -0.00027187495
-0.0047633485 0.0022181729 -0.00029291655
-0.004763349 0.0047419351 -0.0027442707
-0.0082180854 -0.0047419355 -0.0022708334
-0.0082180845 -0.0047419351 -0.0027442719
-0.0077469856 0.00026344089 -0.00048229191
-0.0072749648 0.0017562724 -0.00028756401
0.007746987 0.0047419355 -0.0032177083
0.0092213536 0.0037071994 -0.00033324654
0.0042399047 0.0047419351 -0.0017447909
0.0052867937 0.004741936 -0.0012187506
0.0057578944 0.0047419355 -0.0017447912
0.007275885 0.0042677419 -0.00048229191
0.0082584927 0.0038222037 -0.0003567799
0.0087415352 0.0047193547 -0.00076034246
0.0067553897 0.0047278353 -0.00076531665
0.0082180863 0.0047419355 -0.0017447919
0.0067524407 0.0047419355 -0.0032177088
0.0067524416 0.0047419355 -0.0022708327
0.010521243 0.00073763431 -0.002744271
0.010616413 -0.00075200398 -0.0042697918
0.010573585 -0.00026344066 -0.0042697913
0.0038002105 -0.0038040862 0.00078020827
0.0022370084 -0.0037813887 -0.00030887127
-0.0022508132 0.00073763425 -0.00048229191
-0.0017273681 0.0047419355 -0.00074531254
-0.00078516762 0.0047419351 -0.00074531254
0.0062289955 0.0047419346 -0.0056374995
0.0072758836 0.0032139784 -0.0056901057
0.006752444 0.0032139786 -0.005690109
0.0072758854 0.0037408618 -0.0056901043
0.0077365162 0.0032139784 -0.005679585
0.0037164574 0.0042677419 -0.0056374981
0.0032453588 0.0042677424 -0.0056374986
0.0032453591 0.0037408611 -0.0056374986
0.0022508132 0.0042326162 -0.00046475721
0.0037164581 0.0047419351 -0.00074531254
0.0027742579 0.0047419355 -0.0017447917
0.0032453593 0.0047419351 -0.0012187505
0.0037015032 0.0047118282 -0.00048229168
0.0037097055 0.0012526186 -0.00045853504
0.00025481984 0.0027380474 -0.0057218992
0.00085906562 -0.00072213775 -0.0066586398
0.00025717067 0.001211828 -0.0057244156
-0.00027044659 0.0017387095 -0.0057339468
0.00024946145 0.0017368107 -0.0057161725
0.00097360759 0.0011275269 -0.0060583334
0.00025717076 0.0022655923 -0.0057244119
-0.00027044659 0.001211828 -0.005733944
-0.0022551764 0.0022655923 -0.0057339445
-0.0032501169 0.0047371457 -0.0055896784
-0.0027785606 0.0042619691 -0.0056346171
-0.0012428079 0.0047374191 -0.0055984226
-0.0012477798 0.0027412083 -0.0057270704
-0.0016226793 0.00073763443 -0.0060583339
-0.00027196371 0.00074107078 -0.0057244119
0.0047633485 -0.0047419355 -0.0017447919
0.0042399047 -0.0047419355 -0.0012187504
0.0037164576 -0.0047419355 -0.00074531231
0.0037164579 -0.0047419355 -0.0012187501
0.0032453588 -0.0042677419 -0.00048229191
0.0022508134 -0.0047419355 -0.0017447915
0.0022508141 -0.0047419351 -0.0012187504
0.0042399033 -0.0047419355 -0.0017447919
0.0037164581 -0.0047419355 -0.0017447913
0.0017273683 -0.0046892473 -0.00048229191
0.0027742581 -0.0042677415 -0.00048229191
0.0022508132 -0.0042677419 -0.00048229191
0.0022508132 -0.0047419355 -0.00074531254
0.0012562681 -0.0047419346 -0.0047432291
0.0032453593 -0.0047419355 -0.0017447922
0.0052867951 -0.0047419355 -0.0022708334
0.0052867951 -0.0047419355 -0.0017447914
-0.0042399047 -0.0047419355 -0.00374375
-0.0052867951 -0.0047419355 -0.0027442714
-0.0057578925 -0.0047419351 -0.0042697918
-0.0042399052 -0.0047419355 -0.0022708338
-0.0012562681 -0.0047419346 -0.0047432287
-0.00026172245 -0.0047419355 -0.0042697918
-0.00078516762 -0.0047419355 -0.0047432287
-0.0067524398 -0.0047419355 -0.0037437507
-0.0062289941 -0.0047419355 -0.0037437496
-0.0077469894 -0.0047419355 -0.0042697908
-0.0077469889 -0.0047419346 -0.0047432287
-0.0067524426 -0.0047419355 -0.0047432287
0.0077469861 -0.0047419351 -0.0022708327
-0.0047633485 -0.004741936 -0.0022708324
-0.0057578916 -0.0047419355 -0.0022708331
-0.0077469856 -0.0047419351 -0.0052166656
-0.0082180854 -0.0047419355 -0.00374375
-0.0083160205 -0.0012050295 -0.0066352827
-0.0091939373 -0.00074516115 -0.0066294638
-0.0087358719 -0.00026913683 -0.0066184965
-0.0087347766 0.003717066 -0.0056154397
-0.0087415334 0.0032139784 -0.0056374995
-0.007275884 0.0012118281 -0.0056901057
-0.0041352152 0.00073763443 -0.0060583339
-0.0047633471 0.001211828 -0.0056901067
-0.0042257565 0.0012099292 -0.0057161716
-0.0047633476 0.0017387094 -0.0056901081
-0.0037234358 0.0012065592 -0.0057339459
-0.004763348 0.0022655921 -0.0056901057
-0.0022508136 -0.0047419355 -0.0042697908
-0.0022508132 -0.00026344086 -0.00048229191
0.00026172251 0.0032139791 -0.00048229191
0.00078516745 0.0027397852 -0.00048229191
0.00026172248 0.002191209 -0.00029662997
-0.0012562678 0.00073763431 -0.00048229191
0.00078516791 0.0047419355 -0.0012187501
-0.0017273683 0.0027397852 -0.00048229191
-0.0027742591 -0.001272043 -0.0004372024
-0.0017273683 -0.0012720431 -0.00043720263
0.0012562684 -0.0047419355 -0.0027442714
0.0012562681 -0.0047419355 -0.0022708331
0.001727369 -0.0047419355 -0.0022708327
0.0012562682 -0.0047419351 -0.0017447921
0.0007851675 -0.0013054957 -0.0003653937
0.00078624685 -0.0037343425 -0.0056852233
0.00026172239 -0.0042677433 -0.0056374995
-0.0022508132 -0.004741936 -0.0032177074
-0.0022508143 -0.004741936 -0.0037437498
-0.0027742584 -0.0047419351 -0.0047432287
0.00371646 -0.0047419351 -0.0055848956
0.0052867946 -0.0047419351 -0.0055848956
0.0017273683 -0.0047419355 -0.0052166665
0.005757892 -0.0047419355 -0.0052166665
0.0067524426 -0.0047419351 -0.0047432287
0.0072758817 -0.0047419355 -0.0042697908
0.0062289964 -0.0047419355 -0.0042697908
0.004763349 -0.0047419355 -0.0047432273
0.004763348 -0.0047419355 -0.0042697913
0.0042399056 -0.004741936 -0.0047432277
0.0022420906 0.0012118279 -0.0057339421
0.002759981 0.0012118281 -0.005714017
0.0045539713 -0.00033870968 -0.0066294647
0.0027599817 0.00073763443 -0.005714017
0.0027599812 0.0017387096 -0.0057140184
0.0022439859 0.0027329118 -0.0057244119
0.0017273691 0.0032139779 -0.0056901043
0.00078516779 0.0032037476 -0.0056987852
0.0058102389 5.2688178e-05 -0.0066895834
0.0062312968 0.0042515313 -0.0056744972
0.0077469861 0.0017387096 -0.0056901034
-0.010730624 0.00073763455 -0.005216666
-0.0072712656 0.0027366853 -0.0056622536
-0.0072726761 0.0022612913 -0.0056868857
-0.0072729387 0.0042558685 -0.0056315726
-0.0067510637 0.0037380881 -0.0056402679
-0.0062289941 0.0037315234 -0.0056481534
-0.010259523 -0.001211828 -0.0056374981
-0.010730617 -0.0007376346 -0.005216666
-0.0037117531 0.003197402 -0.0056705992
-0.00821809 0.0012118281 -0.0056901062
-0.0077463198 0.0017360416 -0.005688108
-0.0082148463 0.0017321911 -0.0056852219
