# .PCD v0.7 - Point Cloud Data file format
VERSION 0.7
FIELDS x y z
SIZE 4 4 4
TYPE F F F
COUNT 1 1 1
WIDTH 1180
HEIGHT 1
VIEWPOINT 0 0 0 1 0 0 0
POINTS 1180
DATA ascii
-0.018246096 0.0025149998 -0.0037424264
-0.01773724 0.0025149998 -0.0027222792
-0.017228385 0.0025150001 -0.0032323527
0.0092320861 0.0025150001 -0.0042524999
0.015265655 0.0025149998 -0.0037424264
0.015774511 0.0025150001 -0.0032323527
0.015774511 0.0025149998 -0.0037424266
0.015774511 0.0025150001 -0.0042524994
-0.019772662 0.0022191179 -0.0062199249
-0.019263802 0.0022191182 -0.0062199254
-0.019263804 0.0025150001 -0.0052726469
-0.020136127 0.0025150001 -0.0047625736
0.0017446465 0.0025149998 -0.005709853
-0.016719528 0.0025149998 -0.0062199258
-0.016210673 0.0025149998 -0.0062199268
-0.017228382 0.0025149998 -0.0062199258
-0.018754948 0.0025149998 -0.0062199263
-0.018225325 0.0011412605 -0.0065842648
-0.018246094 0.0025149998 -0.0062199258
-0.018246092 0.0025150001 -0.0057098526
-0.01875495 0.0011095589 -0.0065842648
-0.018754944 0.0017752944 -0.006219924
-0.017851472 0.00071857154 -0.0065842648
-0.0177857 0.0011342157 -0.0065842648
0.0092320871 0.0022191175 -0.0065842648
0.0087232329 0.0022191179 -0.0065842648
0.010249797 0.0025150001 -0.0057098526
0.0092320871 0.0025149998 -0.0062199258
0.0087232329 0.0025149998 -0.0062199263
0.019263804 0.0025150001 -0.005709853
0.019772658 0.0025149998 -0.005709853
0.0087232338 -0.0022191175 -0.006219924
0.0092320871 -0.0022191182 -0.0062199249
0.0022535017 0.0012575 -0.0065842648
0.0017446465 0.0012575001 -0.0065842648
0.0022535017 0.0022191177 -0.0065842648
0.0026896633 0.0025150001 -0.0065842648
0.0022535017 0.0025150001 -0.0065842648
-0.015265658 0.0025149998 -0.0032323531
-0.0077782162 0.0025149998 -0.0062199258
-0.0082143769 0.0025150001 -0.0057098535
-0.008723232 0.0025149998 -0.0062199263
-0.0082143769 0.0025149998 -0.0062199268
-0.010249798 0.0012575 -0.0065842648
-0.013261391 0.0012363655 -0.0065842648
-0.013230236 0.0025149998 -0.0062199258
-0.010249797 0.0025150001 -0.0057098526
-0.0097409422 0.0025149998 -0.005709853
-0.015265657 0.0025149998 -0.0047625732
-0.014756801 0.0025150001 -0.0032323527
-0.011267508 0.001627353 -0.0065842648
-0.011267508 0.0025149998 -0.0062199272
-0.01090404 0.001627353 -0.0065842648
-0.011267508 0.0012575 -0.0065842648
-0.011267508 0.0025150001 -0.0022122059
-0.0092320871 0.0025150001 -0.0032323527
-0.010249797 0.0025150001 -0.0042524994
-0.010249797 0.0025150001 -0.0032323527
-0.0097409431 0.0025149998 -0.0037424264
-0.0067605046 0.0025150001 -0.0022122059
-0.0077782162 0.0025150001 -0.0022122059
-0.0077782162 0.0025150001 -0.0017749999
-0.0082143769 0.0025150001 -0.0022122059
-0.0082143778 0.0025150001 -0.00075485278
-0.010758653 0.0025149998 -0.0027222792
-0.010249798 0.0025149998 -0.0027222792
-0.010249797 0.0025150001 -0.0022122059
-0.0097409422 0.0025149998 -0.00075485278
-0.0097409422 0.0025149998 -0.0012649265
0.0022535017 0.0025150001 -0.0052726469
0.0032712121 0.0025150001 -0.0065842648
0.0032712123 0.0025150001 -0.0057098535
-0.0012357912 0.0025150001 -0.0032323527
-0.0012357912 0.0025150001 -0.0022122059
0.00021808082 0.0025150001 -0.0022122059
-0.0022535014 0.0025150001 -0.0017749999
0.00021808079 0.0025150001 -0.0052726474
-0.00021808081 0.0025150001 -0.0052726469
0.00021808082 0.0025149998 -0.0047625736
0.00072693598 0.0025149998 -0.0047625736
0.00072693598 0.0025149998 -0.0052726469
-0.00065424241 0.0025150001 -0.0065842648
-0.0011630976 0.0025150001 -0.0065842648
-0.00072693598 0.0022191177 -0.0065842648
0.00072693604 0.0025150001 -0.0065842648
0.00072693609 0.0022191179 -0.0065842648
0.00021808082 0.0025150001 -0.0065842648
-0.0002362542 0.0022006251 -0.0065842648
-0.0012357912 0.0012575 -0.0065842648
-0.00072693598 0.0012575001 -0.0065842648
-0.00021808081 0.0012575 -0.0065842648
-0.0017446465 0.00073970598 -0.0065842648
-0.0017446465 0.00022191179 -0.0065842648
-0.0062516495 -0.0022191177 -0.0065842648
-0.0057427944 -0.0025150001 -0.0065842648
-0.0052339393 -0.0025150001 -0.0065842648
-0.0042889225 -0.0022191177 -0.0065842648
-0.0042889225 -0.0025150001 -0.0065842648
-0.0062516504 0.0025149998 -0.005709853
-0.019263804 0.0025149998 -0.0047625736
-0.010249797 -0.00073970598 -0.0065842648
-0.0097409431 -0.00073970598 -0.0065842648
-0.010249797 -0.0002958824 -0.0065842648
-0.010249798 -0.0012575 -0.0065842648
-0.013230235 -0.00073970598 -0.0065842648
-0.01272138 -0.00073970592 -0.0065842648
-0.014756802 0.00073970592 -0.00046338211
-0.014756802 0.0025149998 -0.0012649263
-0.014247946 0.0025149998 -0.0012649265
-0.014756802 0.0025150001 -0.0022122059
-0.014247946 0.0025149998 -0.0022122059
-0.013739093 -0.0025149998 -0.0062199258
-0.013230236 -0.0025149998 -0.0047625732
-0.013230234 -0.0025149998 -0.0042524999
-0.012721379 -0.0025149998 -0.0047625736
-0.013230235 -0.0025149998 -0.0052726469
-0.013739091 -0.0025149998 -0.0047625732
-0.014756801 -0.0022191177 -0.0065842648
-0.015265658 -0.0025149998 -0.0062199263
-0.014756802 -0.0025149998 -0.0062199272
-0.014247946 -0.0025149998 -0.0047625732
-0.013230235 -0.0025149998 -0.0037424264
-0.013230235 -0.0025149998 -0.0032323527
-0.017809933 0.0012575001 0.00026529422
-0.018246092 0.00073970592 -0.00046338211
-0.018246094 0.0002219118 -0.00046338211
-0.01228522 -0.0022325676 -0.00026465231
-0.012430606 -0.0013314707 0.00077536772
-0.011776363 -0.001289202 -0.00024477928
-0.011776363 -0.00073970592 -0.00046338211
-0.010249797 -0.0025150001 -0.0017749999
-0.0097409431 -0.0025149998 -0.0012649265
-0.010249798 -0.0025149998 -0.0012649263
-0.010758653 -0.0025149998 -0.00075485278
-0.0082143769 -0.0022191177 -0.0065842648
-0.008723232 -0.0022191179 -0.0065842648
-0.0077782162 -0.0022191177 -0.0065842648
-0.0092320871 -0.0025150001 -0.00075485278
-0.0092320861 -0.0025149998 -0.0012649263
-0.0097409422 -0.0025149998 -0.00075485278
-0.0057427948 -0.0025150001 -0.0017749999
-0.0042889225 -0.00029588238 -0.00046338211
-0.0037800677 0.00073970592 -0.00046338211
0.00010904042 0.0013314706 0.0012854415
-0.00021808081 0.0025149998 -0.00024477928
-0.0062516504 0.0025149998 -0.00024477928
-0.0067605046 0.0025150001 -0.00075485278
-0.0057427948 0.0025150001 -0.00075485278
-0.0057427944 0.0025149998 -0.00024477928
-0.00072693627 -0.0013087105 -0.00026159501
0.0017446465 0.0002219118 -0.00046338211
-0.010249797 -0.0025150001 -0.00075485278
-0.010758653 -0.0025149998 -0.0012649265
-0.010231627 0.0013129782 0.00077536772
-0.0097409422 0.0012973307 -0.00023917411
-0.0077558467 -0.0012859504 0.00079218368
-0.0077782152 -0.0022325674 -0.00026465231
-0.0082143778 -0.0022325674 -0.00026465231
-0.0097409412 -0.0025149998 -0.00024477928
-0.0092320871 -0.0025149998 -0.00024477928
-0.0062516499 0.00073970598 -0.00046338211
-0.006251649 0.0012973307 -0.00023917411
-0.0051612454 0.0012575004 0.00077536772
-0.0067605046 0.00073970592 -0.00046338211
-0.0062516495 0.0022325674 -0.00026465231
-0.0067605069 0.0012973307 -0.00023917411
-0.0057427948 -0.0025150001 -0.0032323527
-0.015265657 -0.0025149998 -0.0027222792
-0.015774511 -0.0025150001 -0.0032323527
-0.014756801 -0.0025150001 -0.0032323527
-0.015265656 -0.0025149998 -0.0032323531
-0.0022535017 0.0025150001 -0.00075485278
-0.0017446463 0.0025149998 -0.0012649265
-0.0012357912 0.0025150001 -0.00075485278
0.00021808082 0.0025150001 -0.00075485278
0.0012357912 0.0025149998 -0.00024477928
0.00072693592 0.0025149998 -0.00024477928
-0.0017446462 0.0025149998 -0.001775
-0.0012357912 0.0025150001 -0.0017749999
0.020281516 0.0025150001 -0.0017749999
0.020281516 0.0025150001 -0.0022122059
0.019772662 0.0025149998 -0.001775
0.021589996 0.00073970592 -0.0027222792
0.020717679 0.0025149998 -0.0027222792
0.01271411 0.0012353091 0.0017226471
0.016719535 0.0013087107 -0.00026159501
0.016210675 0.0022191179 -0.00026465231
0.015774511 0.0025150001 -0.00075485278
0.014756801 0.0025150001 -0.00075485278
0.014756801 0.0025150001 -0.0017749999
0.015265657 0.0025149998 -0.0012649265
0.016210673 0.0025149998 -0.0012649263
0.014756799 0.0022191177 -0.00024477928
0.01526275 0.0012486238 0.00025946484
0.009232088 0.0025150001 -0.0032323527
0.0092320871 0.0025150001 -0.0022122059
0.010249797 0.0025150001 -0.0022122059
0.0092320871 0.0025150001 -0.0017749999
0.010249797 0.0025150001 -0.00075485278
0.0087232329 0.0025149998 -0.00024477928
0.008723232 0.0025149998 -0.00075485278
0.012715789 0.0012404302 0.00079218368
0.016210673 0.0002219118 -0.00046338211
0.016719528 0.00022191179 -0.00046338211
0.017228384 -0.0002958824 -0.00046338211
0.01773724 0.00022191179 -0.00046338211
0.017228382 0.00022191177 -0.00046338211
0.017745318 0.0012931158 0.00027608941
0.017228382 0.00073970592 -0.00046338211
0.01773724 0.0012925388 0.000771533
0.019772662 0.00073970592 -0.00046338211
0.017809935 -0.0012575001 0.00026529422
0.01875495 -0.0002958824 -0.00046338211
0.018246094 0.0025149998 -0.0012649265
0.01773724 0.0025149998 -0.001775
0.018246096 0.0025150001 -0.0017749999
0.021589998 -0.0017752943 -0.0022122059
-0.009232088 -0.0002958824 -0.00046338211
-0.0097409422 0.00073970592 -0.00046338211
-0.015774511 0.00073970592 -0.00046338211
-0.016210673 0.0002219118 -0.00046338211
-0.01228522 0.0022325674 -0.00026465231
-0.01373909 0.0025150001 -0.00075485278
-0.013230234 0.0025149998 -0.00075485278
-0.0097409422 0.0025149998 -0.0027222792
-0.01373909 0.0025150001 -0.0017749999
-0.013230234 0.0025149998 -0.0027222792
-0.012721379 0.0025150001 -0.0032323527
-0.021589998 -0.0022191177 -0.0042524999
-0.019263804 -0.0025150001 -0.0042524994
-0.019263804 -0.0025149998 -0.0037424266
-0.019772662 -0.0025149998 -0.0037424264
-0.017228384 -0.0025150001 -0.0022122059
-0.019263804 -0.0025150001 -0.0052726469
-0.014756801 -0.0025150001 -0.0042524994
-0.01373909 -0.0025150001 -0.0057098526
-0.018246094 -0.0025149998 -0.0047625736
-0.01773724 -0.0025149998 -0.0042524999
-0.018246096 -0.0025150001 -0.0042524994
-0.018246092 -0.0025150001 -0.0052726469
-0.01875495 -0.0025149998 -0.0052726469
-0.016210673 0.0012973307 -0.00023917411
-0.0012357911 0.00022191177 -0.00046338211
-0.00072693604 0.0002219118 -0.00046338211
-0.0026554547 0.0012966611 0.0012854415
-0.0048704715 0.0012722943 0.0017517942
-0.0051321685 0.0012722943 0.0012854415
-0.0048704715 0.0012722943 0.0012854415
-0.005150062 0.0012859503 0.0017338574
-0.0048704711 0.0012680673 0.0022223115
-0.0051430729 -0.0013129781 0.0022327208
0.00021808081 -0.0025149998 -0.0047625736
0.00072693598 -0.0025149998 -0.0047625732
-0.008723232 0.0025149998 -0.005709853
-0.0042889225 -0.0025150001 -0.0042524994
0.010758652 -0.0025149998 -0.0037424262
0.0097409422 -0.0022191179 -0.0062199254
0.0097409422 -0.0017752944 -0.0062199249
0.0092320871 -0.0017752943 -0.0062199244
0.0092320861 -0.0025150001 -0.0042524994
0.0097409431 -0.0025149998 -0.0037424264
-0.019772658 0.0025149998 -0.0057098535
0.01373909 -0.0025150001 -0.0022122059
0.013884478 -0.0011095589 -0.0065842648
0.010758653 -0.0025149998 -0.0042524999
0.010249798 -0.0025149998 -0.0047625732
0.011776364 -0.0025149998 -0.0032323531
-0.0022535014 0.0025149998 -0.0012649265
-0.0077782162 0.0025149998 -0.00024477928
-0.0067605046 0.0025149998 -0.00024477928
0.0048704715 -0.0013314706 0.0023055885
0.0051263534 -0.0013137178 0.0022298058
0.0051612454 -0.0013643466 0.0026942159
0.0026169699 0.0013314708 0.0022327208
0.0023625423 0.0013314708 0.0022327208
0.0023746577 0.0013068138 0.0026456371
0.0026169699 0.0013314706 0.002669926
0.0026714902 -0.0013129781 0.00026529422
0.001744646 -0.0022684315 -0.00026906864
0.0012357911 -0.00073970587 -0.00046338211
0.00072693592 -0.00029588238 -0.00046338211
0.0012357912 -0.00029588238 -0.00046338211
0.0017446465 -0.0002958824 -0.00046338211
0.0022535017 -0.00029588238 -0.00046338211
0.0023781192 -0.0012469329 0.00026529422
0.004288923 0.0022684317 -0.00026906841
0.002762357 0.0022684317 -0.00026906841
0.0027623568 0.0025149998 -0.00024477928
0.0022535019 -0.0025149998 -0.0012649263
0.00072693598 -0.0025149998 -0.00075485278
0.00017654164 -0.0013103363 0.0012854415
0.00011545454 0.0013227683 0.00076250895
0.00072693615 -0.0022684319 -0.00026906841
-0.00021808081 -0.00029588238 -0.00046338211
0.0022535014 0.0025149998 -0.00024477928
0.0022535024 0.0022684319 -0.00026906841
0.0032712121 0.0025149998 -0.00024477928
-0.0027623568 0.0002219118 -0.00046338211
-0.0023988888 0.0012575001 0.00077536772
-0.0023988888 0.0012575001 0.00026529422
0.010249798 -0.0025149998 -0.0012649265
0.010758653 -0.0025149998 -0.00075485278
0.0097457878 -0.0022289807 -0.00025935285
0.0097409431 -0.0025149998 -0.00075485278
0.0092279343 -0.0022233448 -0.00025102519
0.0087232329 -0.0025149998 -0.0047625736
0.0082143769 -0.0025149998 -0.0047625736
0.0077782148 -0.0025149998 -0.0047625736
0.00072693598 -0.0025149998 -0.001775
0.00072693598 -0.0025149998 -0.0022122059
-0.00021808078 -0.0025150001 -0.0017749999
0.00021808082 -0.0025149998 -0.0012649265
0.00072693592 -0.0025149998 -0.0027222792
0.0052339383 -0.0025149998 -0.0047625732
0.0062516499 -0.0025149998 -0.0032323527
0.0067605046 -0.0025149998 -0.0027222792
0.0067605046 -0.0025150001 -0.0052726474
0.0057427953 -0.0025149998 -0.0027222792
0.0057427953 -0.0025149998 -0.0037424264
0.0047250842 -0.0025149998 -0.0037424264
0.004288923 -0.0025149998 -0.0037424264
0.0057427948 -0.0025150001 -0.0032323527
0.0062516499 -0.0025149998 -0.0037424266
0.0077782157 -0.0025150001 -0.0032323527
0.0042889225 -0.0025150001 -0.0022122059
0.0032712126 -0.0025150001 -0.0022122059
0.0037800677 -0.0025149998 -0.001775
0.0092320861 -0.0025150001 -0.0017749999
0.0072693601 -0.0025149998 -0.00075485278
0.0067605046 -0.0025150001 -0.0017749999
0.0077782157 -0.0025150001 -0.0017749999
0.0062516499 -0.0025149998 -0.0022122059
0.0057427934 -0.0012892021 -0.00024477928
0.0051321676 -0.0012722943 0.00026529422
0.017228387 -0.0022191179 -0.0062199258
0.014805264 -0.00083833333 -0.0065842648
0.01272138 -0.0025150001 -0.0042524994
0.01272138 -0.0025150001 -0.0052726469
0.013230235 -0.0025149998 -0.0047625732
0.012721381 -0.0025149998 -0.0037424264
0.013230235 -0.0025149998 -0.0042524994
0.01228522 -0.0025150001 -0.0022122059
0.012721379 -0.0025150001 -0.0022122059
0.011267508 -0.0025150001 -0.0022122059
0.010758653 -0.0025149998 -0.0027222792
0.011776364 -0.0025149998 -0.0022122059
0.011776364 -0.0025149998 -0.001775
0.013230234 -0.0025149998 -0.0027222792
0.01272138 -0.0025150001 -0.0032323527
0.012721381 -0.0025149998 -0.0027222792
0.012285219 -0.0025149998 -0.0037424264
0.014756802 -0.0017752943 -0.0062199249
0.014756797 -0.0022191182 -0.0062199249
0.014247944 -0.0022191184 -0.0062199249
0.011776364 -0.0025149998 -0.0012649265
0.011267508 -0.0025149998 -0.0012649265
0.015774513 -0.0025149998 -0.0012649265
0.016210673 -0.0025150001 -0.0032323527
0.018246096 -0.0025149998 -0.0037424266
-0.0097409431 -0.0025150001 -0.0065842648
-0.0092320861 -0.0025150001 -0.0057098535
-0.0087232329 -0.0025150001 -0.0065842648
-0.009232088 -0.0025150001 -0.0065842648
-0.0087232329 -0.0025149998 -0.0062199263
-0.0087232329 -0.0017752941 -0.0065842648
-0.011412895 -0.0025150001 -0.0065842648
-0.0097409412 -0.0025149998 -0.0062199263
-0.0097409422 -0.0022191177 -0.0065842648
-0.01875495 -0.0025149998 -0.005709853
-0.015774511 -0.0025150001 -0.0022122059
-0.015265655 -0.0025149998 -0.0022122059
-0.015265656 -0.0025149998 -0.001775
-0.014756801 -0.0025150001 -0.00075485278
-0.0147568 -0.0025149998 -0.00024477928
-0.014247946 -0.0025149998 -0.00024477928
-0.016719529 -0.0025149998 -0.00075485278
-0.018246096 -0.0025150001 -0.0017749999
-0.017228384 -0.0025150001 -0.0017749999
-0.017737238 -0.0025149998 -0.001775
-0.0147568 -0.0025149998 -0.0027222792
-0.012285219 -0.0025149998 -0.0062199258
-0.012721379 -0.0025149998 -0.0062199268
0.01272138 -0.0025150001 -0.00075485278
-0.013739093 -0.0025149998 -0.0012649263
-0.013230236 -0.0025149998 -0.0012649265
-0.011776365 -0.0025149998 -0.0037424262
-0.011776364 -0.0025149998 -0.0032323527
-0.011267508 -0.0025150001 -0.0042524999
-0.01228522 -0.0025150001 -0.0052726469
-0.011776364 -0.0025149998 -0.0052726474
-0.011776364 -0.0025149998 -0.0047625736
-0.011776364 -0.0025149998 -0.0042524994
-0.017228384 0.00010567228 -0.0065842648
-0.011267508 -0.00073970592 -0.0065842648
-0.011776363 -0.00029588238 -0.0065842648
-0.011776364 -0.00073970598 -0.0065842648
-0.00072693598 -0.0017752941 -0.0065842648
-0.00072693598 -0.0025149998 -0.0052726469
-0.0017446465 -0.00073970592 -0.0065842648
0.011267508 -0.00029588238 -0.00046338211
0.013739092 -0.001289202 -0.00024477928
0.0042889225 0.0025150001 -0.00075485278
0.0037800677 0.0025149998 -0.00075485278
0.0052339393 0.0025149998 -0.00024477928
0.0057427953 0.0025149998 -0.00024477928
0.0057427939 0.0022191182 -0.00024477928
0.0052507147 0.0022532579 -0.00026159501
0.021589996 -0.0002958824 -0.0037424266
0.021226531 -0.0002958824 -0.00046338211
0.021589998 -0.0002958824 -0.00075485278
0.018287633 -0.0002747479 -0.0065842648
0.01977266 0.0012575 -0.0065842648
0.01977266 0.0025149998 -0.0062199263
0.020281514 0.0025150001 -0.0042524994
0.020281514 0.0025149998 -0.0037424264
0.018246094 0.0025150001 -0.0065842648
0.020717677 0.0025150001 -0.0052726469
0.014247946 -0.0025149998 -0.0037424266
0.013739091 -0.0025149998 -0.0037424266
0.014247946 -0.0025149998 -0.0047625732
0.014247946 -0.0025149998 -0.0032323527
0.021589998 -0.00073970592 -0.0052726469
0.021589996 0.0002219118 -0.0052726469
-0.0067605046 -0.0025150001 -0.0042524999
-0.0067605046 -0.0025149998 -0.0047625736
-0.0097409422 -0.0025149998 -0.0042524994
-0.0022535014 -0.0025149998 -0.0047625732
-0.0012357912 -0.0025149998 -0.0047625736
-0.0037800679 -0.0025149998 -0.005709853
-0.0052454169 -0.00225805 -0.00026779016
-0.0057427944 -0.0022325674 -0.00026465231
-0.0057427948 -0.0025150001 -0.00075485278
-0.0087232329 -0.0022325669 -0.00026465231
-0.0072693597 -0.0022325674 -0.00026465231
-0.0072693601 -0.0025149998 -0.00024477928
-0.0077782162 -0.0025149998 -0.00024477928
-0.0052339393 -0.0025149998 -0.00075485278
-0.014756799 -0.0022325672 -0.00026465231
-0.014902188 -0.0013314706 0.0012854415
-0.010249798 -0.0025149998 -0.0047625736
-0.0092320871 -0.0025149998 -0.0062199268
-0.0097409431 -0.0025149998 -0.0027222792
-0.0092320871 -0.0025150001 -0.0032323527
-0.017228384 0.0025149998 -0.0012649263
-0.01875495 0.0025149998 -0.0027222792
-0.018246094 0.0025150001 -0.0022122059
-0.01875495 0.0025149998 -0.0022122059
-0.017228385 -0.00029588238 -0.00046338211
0.016210673 0.0002219118 -0.0065842648
0.01773724 0.0017752944 -0.0065842648
0.01875495 0.0025149998 -0.0062199263
0.018246094 0.0025149998 -0.0062199258
0.019263806 0.0017752941 -0.0065842648
-0.0042889225 -0.0025150001 -0.0057098526
-0.0047250842 -0.0025150001 -0.0065842648
-0.0042889225 -0.0025149998 -0.0062199272
-0.0052339397 -0.0025149998 -0.0052726469
-0.0062516495 -0.0025149998 -0.0062199268
-0.014247947 -0.0025149998 -0.0012649265
-0.014756802 -0.0025149998 -0.0012649263
-0.014247947 -0.0025149998 -0.001775
-0.012721379 -0.0025149998 -0.0037424264
-0.012285219 -0.0025149998 -0.0037424264
-0.0067605046 -0.0022191177 -0.0065842648
-0.0062516504 -0.0017752941 -0.0065842648
-0.0057427948 -0.0022191177 -0.0065842648
-0.0052339397 -0.0012575 -0.0065842648
-0.0047250837 -0.0012575 -0.0065842648
-0.0047250837 -0.00073970592 -0.0065842648
-0.0047250837 -0.0017752941 -0.0065842648
-0.0052339393 -0.00073970592 -0.0065842648
-0.0022535017 -0.0025150001 -0.0065842648
-0.00021808081 -0.0025149998 -0.0062199258
0.0022535017 -0.0022006249 -0.0065842648
0.0017512549 -0.0022056685 -0.0065842648
0.0012357912 -0.0017752941 -0.0065842648
0.00072693609 -0.0017752942 -0.0065842648
-0.00021808081 0.00073970587 -0.0065842648
0.00021808079 0.0022191177 -0.0065842648
-0.00021808081 -0.0012575 -0.0065842648
0.0017446465 -0.0017752942 -0.0065842648
0.0022535017 -0.0017752941 -0.0065842648
-0.0027332795 0.0021895296 -0.0065842653
-0.0027623568 0.00073970592 -0.0065842648
-0.0032712119 0.0012575 -0.0065842648
-0.0027623568 0.0012575001 -0.0065842648
-0.0022535014 0.0012575001 -0.0065842648
-0.0017446465 0.0025149998 -0.0052726469
-0.0017446465 0.0025149998 -0.005709853
-0.00072693598 0.0025149998 -0.0062199263
-0.015265658 -0.00073970592 -0.0065842648
-0.015265658 -0.00029588238 -0.0065842648
-0.014743582 0.00020173797 -0.0065842648
-0.014102559 0.001627353 -0.0065842648
-0.014684107 0.00073970592 -0.0065842648
-0.015774511 -0.00073970592 -0.0065842648
-0.015265657 -0.0012575 -0.0065842648
-0.016210673 -0.0012575001 -0.0065842648
-0.017737241 -0.0022191179 -0.0065842648
0.0047250842 -0.0025149998 -0.0062199268
0.0052339393 -0.0025149998 -0.0057098526
0.0022535014 -0.0025149998 -0.0027222792
0.0012357912 -0.0025149998 -0.0027222792
0.0022535017 -0.0025150001 -0.0022122059
0.0017446465 -0.0025149998 -0.0022122059
0.0062516499 -0.0025149998 -0.0052726469
0.0067605055 -0.0025149998 -0.0062199268
0.0072693601 -0.0025149998 -0.0062199263
0.0027623568 -0.0025149998 -0.0037424266
0.0027623568 -0.0025149998 -0.0042524999
0.0012357912 -0.0025150001 -0.0042524999
0.0012357912 -0.0025150001 -0.0052726469
0.0027623568 -0.0025149998 -0.0047625727
0.0017446465 -0.0025149998 -0.0047625736
0.0012357912 -0.0025150001 -0.0057098526
0.0027623568 -0.0025149998 -0.0062199254
0.0027623568 -0.0025149998 -0.005709853
-0.01875495 -0.0025149998 -0.0037424266
-0.01875495 -0.0025149998 -0.0042524994
0.021589996 0.00022191179 -0.0027222792
0.005143072 0.0013129781 0.0012854415
0.0052339393 0.00022191179 -0.00046338211
0.0047250837 0.0002219118 -0.00046338211
0.0057427948 -0.00073970592 -0.00046338211
0.020281514 -0.0012575004 0.00077536772
0.021226533 0.00022191179 -0.00046338211
-0.0042889225 -0.0025150001 -0.0022122059
-0.0047250837 -0.0025149998 -0.0027222792
-0.0032712121 -0.0025149998 -0.0037424264
-0.0047250842 -0.0025150001 -0.00075485278
0.01773724 -0.0025149998 -0.005709853
0.017737238 -0.0025149998 -0.0047625732
0.015265656 -0.0025149998 -0.0052726469
0.017737238 -0.0025149998 -0.0032323527
0.017228382 -0.0025149998 -0.0027222792
0.015265656 -0.0025149998 -0.0032323527
0.0097409422 0.0025149998 -0.0022122059
0.0097409422 0.0025149998 -0.001775
0.011267508 0.0025149998 -0.00024477928
0.011267507 0.0022191177 -0.00024477928
0.010758653 0.0025149998 -0.00024477928
0.0099590234 0.0013314707 0.0022327208
0.011267508 0.0025150001 -0.00075485278
0.012285219 0.0025149998 -0.00024477928
0.011776364 0.0025149998 -0.0012649265
0.011776364 0.0025149998 -0.00075485278
0.011267508 0.0025149998 -0.0012649263
0.010758653 0.0025149998 -0.0012649265
0.012430607 0.0012575001 0.0012854415
0.0077705635 0.0012458207 0.0012931114
0.014756801 -0.0002958824 -0.00046338211
0.014247946 -0.00029588238 -0.00046338211
-0.0052339393 -0.0002958824 -0.00046338211
-0.0067605046 -0.00029588238 -0.00046338211
-0.0077782162 -0.0002958824 -0.00046338211
-0.0074874409 0.0012575001 0.00026529422
0.01272138 -0.00029588238 -0.00046338211
0.0062516495 -0.0012892019 -0.00024477928
0.0062516499 -0.0002958824 -0.00046338211
0.0067605069 -0.001289202 -0.00024477928
0.0077055222 -0.0012575001 0.00026529422
0.0074666715 -0.0012469329 0.00026529422
-0.01977266 0.0025149998 -0.00031764689
-0.020136127 0.0025150001 -0.0017749998
-0.020136127 0.0025150001 -0.0022122059
-0.019263804 0.0025149998 -0.0012649263
-0.017737238 0.0025149998 -0.0012649265
-0.017228382 0.0025150001 -0.00075485278
-0.018754948 0.0025149998 -0.0047625727
-0.016210672 0.0025150001 -0.0042524994
-0.016210673 0.0025149998 -0.0047625736
-0.016210673 0.0025150001 -0.0052726469
-0.015265657 0.0025149998 -0.0062199258
-0.015774511 0.0022191177 -0.0062199249
-0.015774513 0.0025149998 -0.0062199258
-0.015265658 0.0022191182 -0.006219924
-0.018246094 0.0025149998 -0.0027222792
-0.019263804 0.0025149998 -0.0027222792
0.0097409422 0.0025149998 -0.0037424264
0.010249798 0.0025150001 -0.0032323527
0.010758653 0.0025149998 -0.0027222792
0.011267508 0.0025150001 -0.0032323527
0.010758653 0.0025149998 -0.0032323527
0.0077782157 0.0025150001 -0.0042524994
0.0082143778 0.0025150001 -0.0022122059
0.016210673 0.0025149998 -0.0037424264
0.015265658 0.0025149998 -0.0032323527
-0.01977266 0.0025149998 -0.0047625736
-0.01773724 0.0025149998 -0.0062199254
-0.017228382 0.0017752943 -0.0062199254
-0.017737238 0.0017752944 -0.0062199254
-0.016719531 0.0017752942 -0.0062199249
-0.018246099 0.0017752943 -0.006219924
-0.016719529 0.0022191179 -0.0062199249
-0.01875495 0.0022191182 -0.0062199249
-0.019263804 0.0025150001 -0.0057098526
0.01068596 -0.0016865295 -0.0065842653
0.010249797 0.0012575 -0.0065842648
0.010758653 0.00073970592 -0.0065842648
0.010758653 0.0012575001 -0.0065842648
0.0092320861 0.0017752941 -0.0065842648
0.0097409431 0.0022191179 -0.0065842648
0.0082143769 0.0025150001 -0.0065842648
0.0077782157 0.0025150001 -0.0065842648
0.0037800677 0.0022191175 -0.0065842648
0.004288923 0.0022191177 -0.0065842648
0.0042889225 0.0025150001 -0.0065842648
0.0017446465 0.0022191179 -0.0065842648
0.0027623568 0.00073970592 -0.0065842648
0.0027623568 0.0012575 -0.0065842648
0.0022535017 0.0017752941 -0.0065842648
0.0027623568 0.0017752942 -0.0065842648
0.0082143769 0.0025150001 -0.0052726474
0.0082143769 0.0025150001 -0.0042524999
-0.016719528 0.0025149998 -0.00075485278
-0.0092320871 0.0025150001 -0.0042524999
-0.0045796968 0.0022191177 -0.0065842648
-0.0026896633 0.0025150001 -0.0065842648
-0.0072693597 0.0025149998 -0.0062199268
-0.0067895823 0.0016865295 -0.0065842653
-0.012285219 0.0025149998 -0.0062199258
-0.011994445 0.001627353 -0.0065842648
-0.013399854 0.0016766667 -0.0065842648
-0.01373909 0.0025150001 -0.0052726469
-0.012285219 0.0025150001 -0.0042524994
-0.01272138 0.0025150001 -0.005709853
-0.012721381 0.0025149998 -0.0062199268
-0.01373909 0.0025150001 -0.005709853
-0.011267508 0.0025150001 -0.005709853
-0.01228522 0.0025150001 -0.0052726474
-0.011776364 0.0025149998 -0.005709853
-0.011267508 0.0025150001 -0.0052726469
-0.0092320871 0.0025150001 -0.0057098535
-0.0092320861 0.0025149998 -0.0062199258
-0.0092320871 0.0025150001 -0.0052726464
-0.0077782162 0.0025150001 -0.0052726474
-0.0097409422 0.0025149998 -0.0052726469
-0.014247946 0.0025149998 -0.0027222792
-0.014756802 0.0025149998 -0.0037424264
-0.014756802 0.0025150001 -0.0052726469
-0.0147568 0.0025149998 -0.0047625736
-0.014247946 0.0025149998 -0.0052726469
-0.015774511 0.0025149998 -0.0047625736
-0.015774511 0.0025150001 -0.0032323527
0.015265658 0.0025149998 -0.0062199263
0.015265658 0.0025149998 -0.005709853
0.015774511 0.0025150001 -0.0057098535
0.01228522 0.00073970592 -0.0065842648
0.012285219 0.0002219118 -0.0065842648
0.012721379 0.0002219118 -0.0065842648
0.011776365 0.0002219118 -0.0065842648
0.010758652 0.0025149998 -0.0022122059
0.010758653 0.0025149998 -0.001775
0.011267508 0.0025150001 -0.0022122059
0.011267508 0.0025150001 -0.0057098535
0.013230236 0.0025150001 -0.0065842648
0.012721379 0.0025150001 -0.0065842648
0.013230235 0.0025149998 -0.0062199258
0.012721379 0.0025149998 -0.0062199268
-0.0092320861 0.00073970592 -0.0065842648
-0.0087232329 0.00073970592 -0.0065842648
-0.00806899 0.001627353 -0.0065842648
-0.0082143769 0.0025150001 -0.0042524994
-0.011267508 0.0025150001 -0.0032323527
-0.011776364 0.0025149998 -0.0032323527
-0.011776363 0.0025149998 -0.0037424264
-0.011267508 0.0025149998 -0.0037424266
-0.012285219 0.0025150001 -0.0017749999
-0.010758653 0.0025149998 -0.0037424264
-0.010249798 0.0025149998 -0.0037424264
-0.010758652 0.0025149998 -0.0042524994
-0.0087232329 0.0025149998 -0.00075485278
-0.0087232329 0.0025149998 -0.0012649265
-0.0082143769 0.0025150001 -0.0017749999
-0.0092320871 0.0025150001 -0.0022122059
-0.010249798 0.0025150001 -0.0017749999
-0.010758653 0.0025149998 -0.001775
-0.0097409422 0.0025149998 -0.001775
-0.010758653 0.0025149998 -0.0022122059
0.0067605046 0.0025150001 -0.0032323527
0.0067605046 0.0025150001 -0.0042524994
0.0072693601 0.0025149998 -0.0037424266
0.0077782157 0.0025150001 -0.0032323527
0.0077782162 0.0025149998 -0.0037424264
0.0022535017 0.0025150001 -0.0042524994
0.0022535017 0.0025150001 -0.0032323527
0.0017446465 0.0025149998 -0.0037424264
0.0012357912 0.0025150001 -0.0032323527
0.0017446466 0.0025149998 -0.0032323527
0.0032712121 0.0025150001 -0.0052726469
0.0047250842 0.0025150001 -0.0052726474
0.004288923 0.0025150001 -0.0042524994
0.0037800672 0.0025149998 -0.005709853
-0.00021808081 0.0025149998 -0.0047625736
0.00021808082 0.0025150001 -0.0032323527
0.00072693592 0.0025149998 -0.0037424266
0.0012357912 0.0025150001 -0.0022122059
0.00072693598 0.0025149998 -0.0032323527
-0.00021808081 0.0025149998 -0.0027222792
-0.00021808081 0.0025150001 -0.0032323527
0.00021808081 0.0025149998 -0.0027222792
-0.0022535017 0.0025150001 -0.005709853
-0.00021808078 0.0025150001 -0.0042524999
-0.00021808081 0.0025149998 -0.0037424266
0.00021808082 0.0025150001 -0.0057098535
0.00021808082 0.0025149998 -0.0062199258
-0.0057427948 0.0025150001 -0.0017749999
-0.0067605046 0.0025150001 -0.0017749999
-0.0022535017 0.0022191177 -0.0065842648
-0.0021808082 0.0025150001 -0.0065842648
0.0047250842 0.0025150001 -0.0065842648
0.0052339397 0.0022191175 -0.0065842648
0.0052339393 0.0017752941 -0.0065842648
-0.0017446462 0.0022191179 -0.0065842648
0.0037800674 0.0025150001 -0.0065842648
0.0012357911 0.0025150001 -0.0065842648
0.0012357912 0.0017752941 -0.0065842648
-0.0022535017 0.00073970592 -0.0065842648
-0.0012357912 0.0017752941 -0.0065842648
-0.00072693598 0.0017752941 -0.0065842648
-0.0017446465 0.0012575 -0.0065842648
-0.0085051516 0.0017752942 -0.0065842648
-0.0082143778 0.0012575 -0.0065842648
-0.012721379 -0.0012575 -0.0065842648
-0.014247946 0.00022191179 -0.00046338211
-0.0147568 -0.0012575001 -0.0065842648
-0.014247946 -0.0025149998 -0.0062199263
-0.017228384 -0.0025149998 -0.0062199268
-0.017228382 -0.0025150001 -0.0052726469
-0.016210673 -0.0025150001 -0.0052726474
-0.016719528 -0.0025149998 -0.005709853
-0.016210673 -0.0025150001 -0.005709853
-0.015774511 -0.0025150001 -0.0057098535
-0.016719528 -0.0025149998 -0.0062199263
-0.014247946 -0.0025149998 -0.0052726469
-0.0147568 -0.0025149998 -0.0047625736
-0.017228384 0.001306814 -0.00025692396
-0.01228522 0.00073970592 -0.00046338211
-0.013230235 -0.0025149998 -0.00075485278
-0.013230234 -0.0022325667 -0.00026465231
-0.013012155 -0.0012575 0.00077536772
-0.012430606 -0.0012722943 0.00026529422
-0.01228522 -0.00029588238 -0.00046338211
-0.012700609 -0.0012892019 0.00077536772
-0.011776364 -0.0002958824 -0.00046338211
-0.011267508 -0.0025149998 -0.0012649263
-0.010758653 -0.0025149998 -0.001775
-0.0097409422 -0.0025149998 -0.001775
-0.011267508 -0.0025150001 -0.0022122059
-0.0092320871 -0.0017752941 -0.0065842648
-0.0082143769 -0.0017752943 -0.0065842648
-0.0072693601 -0.0025149998 -0.001775
-0.0067605046 -0.0025150001 -0.0017749999
-0.0067605046 -0.0025150001 -0.0022122059
-0.0087232329 -0.0025149998 -0.0012649265
-0.008723232 -0.0025149998 -0.00075485278
-0.0057427948 -0.0025150001 -0.0022122059
-0.0062516504 -0.0025149998 -0.001775
-0.0057427944 -0.0025149998 -0.0012649263
-0.0048704711 0.0012575001 0.00077536772
-0.0042889225 0.00022191177 -0.00046338211
-0.0047250842 0.00022191177 -0.00046338211
-0.004288923 0.00073970592 -0.00046338211
-0.0052339393 0.0025149998 -0.00024477928
-0.0047250837 0.0022684319 -0.00026906841
-0.0047250842 0.0025149998 -0.00024477928
0.0023625421 0.0013314708 0.00026529422
0.0017446466 0.00073970598 -0.00046338211
-0.010249799 -0.0022325674 -0.00026465231
-0.011267509 0.00073970592 -0.00046338211
-0.0062516499 0.0025149998 -0.00075485278
-0.0067605046 -0.0025150001 -0.0032323527
-0.0062516499 -0.0025149998 -0.0027222792
-0.0057427944 -0.0025149998 -0.0027222792
-0.0062516499 -0.0025149998 -0.0037424264
-0.012721379 0.0025149998 -0.0012649263
-0.004288923 0.0025150001 -0.00075485278
-0.0037800677 0.0025149998 -0.00075485278
-0.0037800674 0.0025149998 -0.0012649263
-0.0042889225 0.0025149998 -0.0012649263
-0.0032712121 0.0025149998 -0.00024477928
-0.0047250837 0.0025149998 -0.0012649265
-0.0017446466 0.00073970592 -0.00046338211
-0.0017446466 0.0013087105 -0.00026159501
-0.0017446461 0.0022684315 -0.00026906841
-0.0027623568 0.0025149998 -0.00024477928
-0.0017446465 0.0025149998 -0.0022122059
-0.0017446465 0.0025149998 -0.0027222792
-0.0017446466 0.0025149998 -0.0032323531
-0.0022535017 0.0025150001 -0.0032323527
-0.00072693604 0.0025149998 -0.0012649265
-0.00072693592 0.0025149998 -0.00075485278
-0.00021808078 0.0025150001 -0.00075485278
-0.00072693604 0.0025149998 -0.00024477928
-0.00021808081 0.0025149998 -0.0012649265
-0.0012357912 0.0025149998 -0.0012649263
-0.00072693592 0.0025149998 -0.0027222796
-0.00021808078 0.0025150001 -0.0022122059
-0.0057427953 0.0025150001 -0.0032323527
-0.0047250842 0.0025150001 -0.0042524994
-0.0047250837 0.0025150001 -0.0032323527
-0.0042889225 0.0025150001 -0.0032323527
-0.004288923 0.0025150001 -0.0022122059
-0.004288923 0.0025149998 -0.0037424266
-0.0047250842 0.0025149998 -0.0037424259
-0.0077782162 0.0025150001 -0.0057098526
-0.0077782162 0.0025150001 -0.0042524994
-0.0077782162 0.0025149998 -0.0037424264
-0.0082143778 0.0025149998 -0.0037424264
-0.0082143769 0.0025149998 -0.0047625736
-0.01272138 0.0025150001 -0.0042524994
-0.01228522 0.0025150001 -0.0032323527
-0.01228522 0.0025150001 -0.0022122059
-0.011776363 0.0025149998 -0.001775
-0.011776362 0.0025149998 -0.0042524999
0.01977266 0.0025149998 -0.0012649263
0.01977266 0.0025149998 -0.0022122059
0.019263806 0.0025150001 -0.0022122059
0.015770232 0.0022191182 -0.00025763828
0.016210673 0.0025149998 -0.00024477928
0.015265656 0.0025149998 -0.001775
0.014247946 0.0022191179 -0.00024477928
0.014247946 0.0025149998 -0.00075485278
0.015774513 0.00022191177 -0.00046338211
0.0097409422 0.0025149998 -0.0012649265
0.0092320861 0.0025149998 -0.0012649265
0.012721379 0.0022191177 -0.00024477928
0.014756802 0.0025150001 -0.0042524999
0.014756802 0.0025149998 -0.0037424264
0.016210673 0.00073970598 -0.00046338211
0.016719529 0.00073970598 -0.00046338211
0.01875495 0.002233912 -0.00028849998
0.01875495 0.00073970598 -0.00046338211
0.017228385 -0.00073970592 -0.00046338211
0.01875495 -0.00073970592 -0.00046338211
0.018246096 -0.00073970587 -0.00046338211
0.018246094 -0.00029588238 -0.00046338211
0.017228382 0.0025150001 -0.0017749999
0.021589998 -0.0017752943 -0.0017749999
0.021589996 -0.0012575001 -0.00075485278
-0.013230235 0.0022325672 -0.00026465231
-0.013739091 0.0025149998 -0.0012649265
-0.011267508 0.0025149998 -0.0012649265
-0.0097409422 0.0025149998 -0.0032323527
-0.011776364 0.0025149998 -0.00075485278
-0.012721378 0.0025149998 -0.0027222792
-0.012285218 0.0025149998 -0.0027222792
-0.01875495 -0.0025149998 -0.0032323527
-0.018246094 -0.0025149998 -0.0037424264
-0.018246094 -0.0025149998 -0.0027222792
-0.017228384 -0.0025150001 -0.00075485278
-0.017737238 -0.0025149998 -0.0022122059
-0.019263804 -0.0025149998 -0.0047625736
-0.013739091 -0.0025149998 -0.0037424259
-0.015774511 -0.0025150001 -0.0052726469
-0.015265658 -0.0025149998 -0.0052726469
-0.015265657 -0.0025149998 -0.0047625741
-0.015265656 -0.0025149998 -0.0042524994
-0.015265656 -0.0025149998 -0.0037424264
-0.015774511 -0.0025149998 -0.0037424264
-0.013230235 -0.0025149998 -0.005709853
-0.01773724 -0.0025149998 -0.0047625736
-0.0017446466 0.00022191179 -0.00046338211
-0.00017654159 0.0013103364 0.00077536819
0.00021808081 0.00022191177 -0.00046338211
-0.0037800679 0.0022684317 -0.00026906864
-0.0042889225 0.0022684319 -0.00026906841
-0.0042889225 0.0013191425 -0.00025692396
-0.0051535936 0.0012769662 0.0022288857
-0.0051612458 0.0013314708 0.0027011556
0.00072693598 -0.0025149998 -0.0052726469
-0.0042889225 -0.0025149998 -0.0047625736
0.010249797 -0.0025149998 -0.0037424264
0.0077782157 -0.0025149998 -0.0062199268
0.0097409422 -0.0025149998 -0.0027222796
0.0097409422 -0.0025149998 -0.0032323531
0.0092320861 -0.0025149998 -0.0047625732
0.0092320871 -0.0025150001 -0.0032323527
0.0082143778 -0.0025150001 -0.0042524999
0.0082143778 -0.0025149998 -0.0037424264
0.0082143778 -0.0025150001 -0.0032323527
0.0097409422 -0.0025149998 -0.0042524994
0.009232088 -0.0025149998 -0.0037424264
0.013739091 -0.0025149998 -0.0027222792
0.014247946 -0.0025149998 -0.0022122059
0.013230235 -0.0025149998 -0.0022122059
0.013230237 -0.0025149998 -0.0052726469
0.012721379 -0.0025149998 -0.0047625736
0.012721379 -0.0022191177 -0.0062199254
0.012721381 -0.0017752943 -0.0062199244
0.012285219 -0.0011835294 -0.0065842648
0.011267508 -0.0025149998 -0.0037424266
0.011267508 -0.0025149998 -0.0027222792
-0.0077782162 0.0025150001 -0.00075485278
-0.0077782152 0.0025149998 -0.0012649263
0.0048704715 -0.001282157 0.0017226471
0.0032712119 -0.0013087107 -0.00026159477
0.0032712121 -0.00073970592 -0.00046338211
0.0017446466 -0.00073970592 -0.00046338211
0.0047250842 0.0022684319 -0.00026906841
0.0047250842 0.0025150001 -0.00075485278
0.0052339393 0.0025149998 -0.00075485278
0.0012357911 0.0002219118 -0.00046338211
0.00072693598 0.0002219118 -0.00046338211
0.00017654162 -0.0013103363 0.00026529422
0.0023625421 0.0013314708 0.0017226471
0.0017446461 0.0022684315 -0.00026906841
0.0012357911 0.0022684319 -0.00026906864
0.0032712119 0.0022684319 -0.00026906841
-0.0012357911 0.0025149998 -0.0027222792
0.010758652 -0.0025149998 -0.001775
0.0092320861 -0.0012892019 -0.00024477928
0.0092320871 -0.00029588238 -0.00046338211
0.0097409422 -0.0002958824 -0.00046338211
0.0099590234 0.0013314707 0.00077536772
0.0017446465 -0.0025149998 -0.001775
0.0072693601 -0.0025149998 -0.0047625736
0.0072693606 -0.0025149998 -0.0042524999
0.0057427944 -0.0025149998 -0.0047625732
0.0072693601 -0.0025149998 -0.0037424264
0.0072693601 -0.0025149998 -0.0032323531
0.0062516495 -0.0025149998 -0.0042524994
0.0077782157 -0.0025149998 -0.0027222792
0.0072693606 -0.0025149998 -0.0052726469
0.0037800679 -0.0025149998 -0.0027222787
0.0032712119 -0.0025149998 -0.0027222792
0.0047250842 -0.0025149998 -0.0027222792
0.0037800677 -0.0025149998 -0.0022122059
0.0072693601 -0.0025149998 -0.005709853
0.0072693606 -0.0012575 -0.0065842648
0.0077782157 -0.0012575 -0.0065842648
0.0032712119 0.00022191177 -0.0065842648
0.0062318239 -0.0017618451 -0.0065842648
0.0057427948 -0.0017752943 -0.0065842648
0.0033439058 -0.0020711767 -0.0065842648
0.0027623568 -0.0017752942 -0.0065842648
0.0082143778 -0.0012575 -0.0065842648
0.0082143769 -0.0025149998 -0.0012649263
0.0077782157 -0.0025149998 -0.0012649263
0.0082143769 -0.0025150001 -0.0017749999
0.0092320871 -0.0025149998 -0.0012649263
0.0097409422 -0.0025149998 -0.001775
0.0092320871 -0.0025150001 -0.0022122059
0.0077782157 -0.0025150001 -0.00075485278
0.0062516495 -0.0025149998 -0.001775
0.0072693606 -0.0025149998 -0.001775
0.00072693598 -0.00073970592 -0.00046338211
0.016719537 -0.0017752944 -0.0062199254
0.017737241 -0.0022191179 -0.0062199254
0.014611414 -0.0011095589 -0.0065842648
0.012285219 -0.0025149998 -0.0027222792
0.01228522 -0.0025150001 -0.0017749999
0.010249798 -0.0025150001 -0.0022122059
0.01373909 -0.0025150001 -0.0032323527
0.015265657 -0.0025149998 -0.0062199263
0.015265656 -0.0025149998 -0.001775
0.015774511 -0.0025149998 -0.0037424264
0.018754952 -0.0025149998 -0.0037424266
-0.0082143778 -0.0025150001 -0.0057098526
-0.010249798 -0.0025150001 -0.0057098526
-0.010758653 -0.0025149998 -0.0062199263
-0.010249798 -0.0025149998 -0.0062199268
-0.0097409422 -0.0025149998 -0.005709853
-0.0092320861 -0.0025150001 -0.0052726469
-0.011776363 -0.0025149998 -0.0062199258
-0.010758653 -0.0017752941 -0.0065842648
-0.010758653 -0.0012575001 -0.0065842648
-0.016210673 -0.0025150001 -0.0017749999
-0.014756801 -0.0025150001 -0.0022122059
-0.01373909 -0.0025150001 -0.0017749999
-0.012721379 -0.0025150001 -0.0017749999
-0.01228522 -0.0025150001 -0.0017749999
-0.015774511 -0.0025149998 -0.0027222792
-0.015774511 -0.0025150001 -0.0017749999
-0.014247946 -0.0025149998 -0.00075485278
-0.015265656 -0.0025149998 -0.00075485278
-0.018754948 -0.0025149998 -0.001775
-0.011776364 -0.0017752942 -0.0065842648
-0.011267508 -0.0012575 -0.0065842648
-0.011776363 -0.0012575001 -0.0065842648
-0.011267508 -0.0025149998 -0.0037424264
-0.01228522 -0.0025150001 -0.0042524999
-0.017228384 -0.0017752941 -0.0065842648
-0.016646834 0.00066573534 -0.0065842648
-0.017276846 0.00069039222 -0.0065842648
-0.017737238 -0.00029588238 -0.0065842648
-0.015774513 -0.0025149998 -0.0047625736
-0.015774511 0.0025150001 -0.0057098526
-0.017228382 0.0025149998 -0.0047625732
-0.010249797 0.00022191177 -0.0065842648
-0.0097409422 0.00022191179 -0.0065842648
-0.010758653 0.00073970592 -0.0065842648
-0.010758653 0.00022191179 -0.0065842648
-0.0092320861 -0.00029588238 -0.0065842648
-0.0087232329 0.00022191179 -0.0065842648
-0.008723232 -0.00029588238 -0.0065842648
-0.010758654 0.0012575001 -0.0065842648
-0.011267509 -0.0002958824 -0.0065842648
-0.011267509 0.00073970592 -0.0065842648
-0.011755594 0.0012257984 -0.0065842648
-0.013230233 0.0002219118 -0.0065842648
-0.0017446465 -0.00029588238 -0.0065842648
-0.0027623568 -0.0022191179 -0.0065842648
-0.0037800677 -0.0017752942 -0.0065842648
0.010758653 -0.00073970598 -0.00046338211
0.01373909 -0.00029588238 -0.00046338211
0.014247946 -0.00073970592 -0.00046338211
0.011776364 -0.0025149998 -0.00075485278
0.0042889225 0.0025150001 -0.0022122059
0.0042889225 0.0025150001 -0.0032323527
0.0037800679 0.0025149998 -0.0027222792
0.0032712121 0.0025150001 -0.0022122059
0.0037800677 0.0025149998 -0.0022122059
0.0032712121 0.0025149998 -0.0027222792
0.0047250842 0.0025149998 -0.0012649263
0.0042889225 0.0025149998 -0.0012649263
0.0047250837 0.0025150001 -0.0017749999
0.0057427948 0.0025150001 -0.00075485278
0.015265655 0.0025149998 -0.0042524994
0.016210673 0.0025150001 -0.0032323527
0.018246094 0.00022191177 -0.0065842648
0.020266976 0.0025149998 -0.0061762063
0.01875495 0.0025149998 -0.0037424262
0.01875495 0.0025149998 -0.0032323531
0.019263804 0.0025150001 -0.0032323527
0.020281514 0.0025150001 -0.0032323527
0.019772658 0.0025149998 -0.0052726469
0.019263806 0.0025150001 -0.0052726469
0.020717677 0.0025149998 -0.0047625736
0.01773724 0.0025150001 -0.0065842648
0.017228384 0.0025150001 -0.0065842648
0.017228382 0.0025149998 -0.0037424266
0.017737238 0.0025149998 -0.0032323531
0.017228384 0.0025149998 -0.0027222792
0.015774511 0.0025149998 -0.0012649263
0.018246094 0.0025149998 -0.0037424264
0.014247946 -0.0025149998 -0.0052726469
0.014756802 -0.0025149998 -0.0047625736
0.011776363 -0.0025149998 -0.0052726469
0.019772662 0.0025149998 -0.0047625732
0.01977266 0.0025149998 -0.0042524999
-0.0027623568 -0.0025149998 -0.0042524994
-0.0067605046 -0.0025150001 -0.0052726469
-0.0047250837 -0.0025149998 -0.0037424266
-0.0062516499 -0.0025149998 -0.00075485278
-0.0062516504 -0.0025149998 -0.00024477928
-0.0057427948 -0.00029588238 -0.00046338211
-0.0082143778 -0.0025149998 -0.00024477928
-0.014247945 -0.0022325669 -0.00026465231
-0.010758653 -0.0025149998 -0.0042524994
-0.008723232 -0.0025149998 -0.0027222796
-0.0092320871 -0.0025149998 -0.0027222792
-0.01875495 0.00022191179 -0.00046338211
-0.018754952 0.0025149998 -0.001775
-0.019263804 0.0025150001 -0.0017749999
-0.017737238 0.0025149998 -0.001775
0.017228382 0.00022191177 -0.0065842648
0.017228385 0.00073970592 -0.0065842648
0.017228384 0.0012575001 -0.0065842648
0.01875495 0.0025150001 -0.0065842648
0.018754952 0.0025149998 -0.005709853
0.01875495 0.0025149998 -0.0052726469
-0.004288923 -0.0025150001 -0.0052726469
-0.0057427953 -0.0025149998 -0.0062199268
-0.0097409422 -0.0025149998 -0.0052726469
-0.0072693601 -0.0022191179 -0.0065842648
-0.0067605046 -0.0025149998 -0.0062199258
-0.0057427944 -0.0012575 -0.0065842648
-0.0057427948 -0.0017752941 -0.0065842648
-0.0047250837 -0.0022191177 -0.0065842648
-0.00021808078 0.0017752943 -0.0065842648
0.00072693598 0.0025149998 -0.005709853
0.0032712119 0.0012575 -0.0065842648
-0.0027623568 -0.0025150001 -0.0065842648
-0.0022535017 -0.0025149998 -0.0062199268
0.0027623568 -0.00073970598 -0.0065842648
0.0027623568 -0.0012575 -0.0065842648
0.0032712121 -0.0012575001 -0.0065842648
0.00021808081 -0.0025149998 -0.0062199268
0.00072693598 -0.0021451472 -0.0065842648
0.00021808081 0.0012575001 -0.0065842648
0.00021808079 0.00073970592 -0.0065842648
0.00021808079 -0.0017752941 -0.0065842648
0.00021808082 -0.0012575 -0.0065842648
0.0017446466 -0.0012575001 -0.0065842648
0.0012357912 -0.00073970592 -0.0065842648
0.00072693598 -0.0002958824 -0.0065842648
0.0012357911 -0.0002958824 -0.0065842648
0.0017446466 -0.0002958824 -0.0065842648
-0.00021808081 0.0025149998 -0.0062199268
-0.014659877 0.001084902 -0.0065842648
0.0042889225 -0.0025149998 -0.0062199258
0.0042889225 -0.0025150001 -0.005709853
0.0027623568 -0.0025149998 -0.0027222792
0.0012357911 -0.0025150001 -0.0022122059
0.0037800677 -0.00073970592 -0.0065842648
0.0037800681 -0.0012575 -0.0065842648
0.0017446462 -0.0025149998 -0.0042524999
0.00072693598 -0.0025149998 -0.0042524999
0.0032712121 -0.0025150001 -0.0057098535
0.0017446465 -0.0025149998 -0.0052726469
0.0012357912 -0.0025149998 -0.0047625732
0.00072693592 -0.0025149998 -0.005709853
0.021589996 0.0012575001 -0.0037424262
0.017228384 0.0025150001 -0.0042524999
0.016719528 0.0025149998 -0.0037424264
0.0062516499 0.0025149998 -0.0012649265
0.0067605046 0.0025150001 -0.0017749999
0.0072693606 0.0025149998 -0.0012649265
0.0067605046 0.0025149998 -0.0012649265
0.005143072 0.0013129782 0.00026529422
0.0057427953 0.00073970592 -0.00046338211
0.0057427934 0.0013087104 -0.00026159501
0.0062516495 0.0002219118 -0.00046338211
0.0067605046 -0.0002958824 -0.00046338211
0.0067605055 0.00022191177 -0.00046338211
0.0062516499 0.00073970598 -0.00046338211
0.008723232 -0.00029588238 -0.00046338211
0.0087232329 0.00022191179 -0.00046338211
0.0082143778 0.00022191177 -0.00046338211
0.0072693601 0.0025149998 -0.00024477928
0.0067605064 0.0022191179 -0.00024477928
0.0077588288 0.0012722942 0.00078022596
0.0082143769 0.0025149998 -0.00024477928
0.0077782157 0.0025149998 -0.00024477928
0.0077782157 0.0025150001 -0.0022122059
0.0072693606 0.0025149998 -0.0027222796
0.0072693606 0.0025149998 -0.001775
0.0077782157 0.0025150001 -0.0017749999
0.010249797 -0.0025149998 -0.0027222792
0.015265657 -0.0025149998 -0.0037424264
0.016210673 -0.0025150001 -0.0022122059
0.016719528 -0.0025149998 -0.0027222792
0.010758653 0.0022191179 -0.00024477928
0.010249796 0.0012575003 0.00077536819
0.012285221 0.0022191179 -0.00024477928
0.010249798 0.0025149998 -0.00024477928
0.01272138 0.0025150001 -0.00075485278
0.012721379 0.0025150001 -0.0022122059
0.013230236 0.0025149998 -0.0012649265
0.011776364 0.0025149998 -0.00024477928
0.010758652 0.0025149998 -0.00075485278
0.011267508 0.00022191177 -0.00046338211
0.016210673 0.0013087105 -0.00026159501
0.014756802 0.0002219118 -0.00046338211
0.014756802 0.00073970592 -0.00046338211
-0.0047250842 -0.0002958824 -0.00046338211
-0.0067605046 0.00022191177 -0.00046338211
-0.0072693606 -0.00029588238 -0.00046338211
0.0062516499 -0.00073970598 -0.00046338211
0.0067605046 -0.0025149998 -0.0012649263
-0.020136127 0.0025150001 -0.0003905145
-0.01977266 0.0025149998 -0.00075485278
-0.01875495 0.0025149998 -0.0032323531
-0.018754952 0.0025149998 -0.0052726469
-0.016210673 0.0025150001 -0.0057098535
-0.0159199 0.001627353 -0.0065842648
0.0042889225 0.0025149998 -0.0062199268
0.0047250837 0.0025150001 -0.0032323527
0.0097409422 0.0025149998 -0.0047625736
0.0092320871 0.0025149998 -0.0047625736
0.010249798 0.0025149998 -0.0047625736
0.010249797 0.0025150001 -0.0042524994
0.010249798 0.0025149998 -0.0037424264
0.010758653 0.0025149998 -0.0047625732
0.0097409431 0.0025149998 -0.0032323527
0.0082143769 0.0025149998 -0.0037424264
0.0092320871 0.0025149998 -0.0037424264
0.0087232329 0.0025149998 -0.0037424262
0.008723232 0.0025149998 -0.0032323531
0.0057427948 0.0025150001 -0.0017749999
0.0082143769 0.0025150001 -0.0032323527
0.0067605046 0.0025150001 -0.0022122059
0.0082143769 0.0025150001 -0.0017749999
0.014247944 0.0013087107 -0.00026159501
-0.01977266 0.0025149998 -0.0052726469
0.00021808082 0.0025149998 -0.0037424264
-0.017228385 0.0022191179 -0.0062199249
-0.017737238 0.0022191182 -0.0062199249
-0.01875495 0.0025149998 -0.005709853
