# .PCD v0.7 - Point Cloud Data file format
VERSION 0.7
FIELDS x y z
SIZE 4 4 4
TYPE F F F
COUNT 1 1 1
WIDTH 1163
HEIGHT 1
VIEWPOINT 0 0 0 1 0 0 0
POINTS 1163
DATA ascii
0.0052721933 0.0023116202 -0.00028533326
0.0057623927 0.0023138002 -0.00028169109
0.0057713077 0.0025150008 -0.0002731476
0.0038193858 -0.0012852465 0.00020766119
0.0032602993 -0.0013287418 -0.00027024536
0.0032603049 -0.00026674208 -0.00075374055
0.0075820875 -0.0012574994 -0.0047631287
-0.0075593428 0.0021491819 -0.0052548479
-0.0075820899 0.0007621214 -0.0065408773
-0.0072408961 0.00076212047 -0.006540874
-0.0075820857 0.0017528777 -0.003250154
-0.0075820885 0.0012574994 -0.0032501523
-0.0075820917 0.0012574998 -0.0037418695
-0.0037372808 -0.00028059894 -0.006567697
-0.0047388053 0.00076212047 -0.0065408782
0.0022367167 0.0025150015 -0.0057465653
0.0022367162 0.0025150012 -0.0062382817
0.0027674634 0.0025150015 -0.0057465653
0.0062552243 0.0025149998 -0.0065408773
0.006255222 0.0025150012 -0.0062382817
-0.0057484875 0.0017211228 -0.0065257493
-0.0052695512 0.0025150012 -0.0062382827
-0.0052695512 0.0022482579 -0.0065030563
-0.0027674632 0.0025150012 -0.0052548475
-0.00026537306 0.0025150015 -0.0057465648
0.0075820889 0.0012574994 -0.0057465667
0.0075820927 0.0012574997 -0.0052548484
0.0075820857 0.00076212059 -0.0057465639
0.0075820861 0.0017528777 -0.0057465658
0.0075820857 0.00022863627 -0.0032501547
0.0075820885 0.00022863627 -0.0037418706
-0.0037535524 -0.0022973719 -0.00028471742
-0.0034498507 -0.0012956061 0.00075923675
-0.0027615954 -0.0013329748 -0.00026470702
-0.0027674602 -0.00026674205 -0.00075374078
-0.0034498507 -0.0012575001 4.0572602e-05
-0.0022398024 -0.0023098479 -0.00029193051
-0.0022367162 -0.0015460172 -0.00033226819
-0.0040884959 0.0012721561 0.0012422258
-0.0038021945 0.0012911226 0.0017426705
-0.0038144367 0.0012874977 0.0012493457
-0.0040867464 0.001280364 0.0017426715
-0.0071271658 0.0025150001 -0.00075374031
-0.0075735841 0.0021759344 -0.0017356316
-0.0075820866 0.0017528778 -0.0022667181
-0.0075820847 0.0017528778 -0.0017371748
-0.0075820889 0.0017528777 -0.0012454572
0.005762388 -0.0025150003 -0.00029984722
0.0052695498 -0.0023168486 -0.00032254169
0.0052695516 -0.0025150008 -0.00029984722
0.0075778817 -0.0021932167 -0.0027584345
0.0027674634 -0.0025150012 -0.0012454577
0.0022367167 -0.0025150015 -0.0017371753
0.0027674634 -0.0025150015 -0.0017371757
0.0015922388 -0.001219394 0.0026504581
0.0047388053 -0.0025150008 -0.00029984722
0.0052695516 -0.0025150015 -0.00075374031
0.006255222 0.0025150015 -0.0047631296
0.006255222 0.0025150015 -0.0032501526
0.0052695516 0.0025150015 -0.004233588
0.0071271663 0.0025149996 -0.0037418704
0.0067480588 0.0025150012 -0.0042335875
0.0071271658 0.0025150001 -0.0042335875
0.0067480593 0.0025150008 -0.0037418704
-0.0067480598 -0.0025150008 -0.00026202272
-0.0063057696 0.0012590239 0.00075923721
-0.0072451858 0.0022834882 -0.00037906435
-0.0073925382 -0.00026674243 -0.00045114476
-0.0073925382 0.00076212123 -0.00045114476
-0.0075820899 -0.00076212129 -0.0065408773
-0.0072408952 -0.00076212059 -0.006540874
-0.0075820899 0.00022863636 -0.0065408768
-0.0075820889 -0.00026674243 -0.0065408773
-0.0075820857 0.00022863623 -0.0057465639
-0.0075820885 -0.00026674228 -0.0057465653
-0.0075820889 0.0002286363 -0.0062382831
0.0070134331 -0.0025150001 -0.0052548479
0.0075778826 -0.0021932165 -0.0047631296
0.0070134331 -0.0025150001 -0.004233588
0.0070134331 -0.0025150001 -0.0022667176
0.0067480584 -0.0025150012 -0.003250153
0.006255223 -0.0025150012 -0.0062382827
0.0057623885 -0.0025150008 -0.0062382827
0.0067480602 -0.0012574997 -0.0065408782
0.0072408947 -0.0017528782 -0.0065030549
0.0067258854 -0.0017255567 -0.0065187565
0.0052721072 -0.0017374642 -0.0065370528
0.0047388086 -0.0012574994 -0.0065408773
0.0047304765 -0.0017369653 -0.0065379692
0.0057623889 -0.00026674234 -0.0065408787
-0.0075820861 -0.00076212059 -0.003250154
-0.0075820885 -0.0017528777 -0.0037418704
-0.0067480598 0.0025150001 -0.0065030535
0.0067480598 0.0025150008 -0.0062382822
0.0067480588 0.0025150012 -0.0057465658
0.0062552253 0.0025150015 -0.0057465639
0.0071271658 0.0025149996 -0.0052548475
0.0067480598 0.0025150008 -0.0052548479
0.0075530987 0.0021854953 -0.0032902018
0.0071271644 0.0025149996 -0.0027584345
0.0071271649 0.0025150001 -0.003250153
0.0075441785 0.0021720454 -0.002758435
0.0075745108 0.0022177733 -0.0057465634
0.0075542885 0.0021872881 -0.0062458459
0.0075796894 0.0017384068 -0.0062387604
0.0072408933 0.0017528778 -0.0065408759
0.0075820899 0.00076212059 -0.0037418725
0.0075820857 0.00076212059 -0.0032501542
0.0075820885 0.0017528778 -0.0052548475
0.0075820889 0.00076212059 -0.0052548498
0.0037495256 0.001739813 -0.0065484387
0.0042459685 0.0022482583 -0.0065408791
0.006304278 0.0012911224 0.00075923721
0.0062552206 0.0023137999 -0.00028169132
0.0052695479 0.0013451438 -0.00025445805
0.0063042785 0.0012911225 0.00022969465
0.0057623913 0.0013451435 -0.00025445782
0.005762388 0.0015242425 -0.00029984722
0.0075820931 0.0012898906 -0.00024500163
0.0072528352 0.0013262109 -0.00023432449
-0.0071271658 0.0025149996 -0.0062382822
-0.006255223 0.0025150012 -0.0052548475
-0.0062552216 0.0025150015 -0.0047631301
-0.0067480598 0.0025150012 -0.0047631301
-0.006255222 0.0025150015 -0.0022667176
-0.005762388 0.0025150012 -0.0047631292
-0.0057623885 0.0025150012 -0.0042335889
-0.0052695516 0.0025150015 -0.0047631296
-0.0047388053 0.0025150012 -0.0027584345
-0.0042459709 0.0025150012 -0.003250153
-0.0042459709 0.0025150008 -0.0027584345
-0.0047388053 0.0025150015 -0.0032501526
-0.0075820889 -0.0007621207 -0.002758434
-0.0075820931 -0.0012574996 -0.0012454579
-0.0075820866 -0.00076212059 -0.0017371759
-0.0075811651 -0.0017473013 -0.0012491478
-0.00094776123 -0.00127867 0.0017846993
-0.0015846571 0.001280364 0.0022722136
-0.0015846571 0.001280364 0.0017426715
-0.0063051297 0.001257982 0.0017417141
0.0012971966 -0.0012525297 0.0012509541
-0.0032602982 0.0025150012 -0.0032501526
-0.0017438808 0.0025150012 -0.0017371753
-0.0015871162 0.0012853075 0.00021947199
-0.0017438801 0.00022863607 -0.00075374031
-0.0012510431 0.00022863605 -0.00075374008
-0.0022367188 0.00022863605 -0.00075374078
-0.0027674634 -0.0015460172 -0.00033226819
-0.0022367174 -0.001328742 -0.00027024536
0.0047388058 -0.0025150015 -0.0032501528
0.0037531345 -0.0025150012 -0.0027584345
0.0047388053 -0.0025150015 -0.0022667171
0.0047388053 -0.0025150012 -0.0027584345
0.0052695521 -0.0025150012 -0.002758435
0.0032602984 -0.0025150012 -0.0022667171
0.0032602986 -0.0025150008 -0.0027584345
0.0032602984 -0.0025150012 -0.003250153
0.00075820897 -0.0025150001 -0.0065030535
-0.00028287029 -0.0025149998 -0.0065379683
0.0017438806 -0.0025150001 -0.0065219654
-0.0022367162 -0.0025150015 -0.0047631301
-0.0017438808 -0.0025150012 -0.0057465644
-0.0012510453 -0.0025150015 -0.0047631301
-0.0012510451 -0.0025150012 -0.005254847
-0.0032603 -0.0017528777 -0.0065408782
-0.0027708483 -0.0012404878 -0.0065692426
-0.0027674646 -0.0017528778 -0.0065408773
-0.0017438792 -0.0023149429 -0.0002903908
-0.0012510447 -0.0023149427 -0.0002903908
0.0071271649 0.0025150001 -0.00075374031
0.0067480598 0.0025150008 -0.0012454579
0.0071271658 0.0025149996 -0.0012454579
0.0071271649 0.0025150001 -0.0017371755
0.00094776123 0.0013337123 0.0026126339
0.0012510443 0.001303628 0.0022722136
0.0012279286 0.0012993232 0.002729797
0.0027674632 0.0025150015 -0.0042335875
0.0022367162 0.0025150015 -0.0047631301
0.0022367167 0.0025150015 -0.004233588
0.0037531343 0.0025150015 -0.0057465648
0.0047388058 0.0025150012 -0.0062382827
0.0012510453 0.0025150015 -0.0057465653
0.0012510451 0.0025150012 -0.0052548475
0.0022192192 0.0025149998 -0.0065379683
0.0017438808 0.0025150008 -0.0062382822
0.0032602989 0.0025150012 -0.0057465648
0.0037531345 0.0025150012 -0.0052548475
0.0027674632 0.0025150012 -0.0062382817
0.0027536768 0.0025149998 -0.006530562
-0.00026537306 0.0025150015 -0.004233588
0.00026537303 0.0025150015 -0.0047631301
-0.0012510453 0.0025150012 -0.0027584345
-0.0017438808 -0.0025150012 -0.0032501526
-0.0022367162 -0.0025150015 -0.0042335875
-0.0022367162 -0.0025150015 -0.0032501528
-0.0022367162 -0.0025150012 -0.0037418711
-0.0017438806 -0.0025150012 -0.004233588
0.002236716 -0.0025150012 -0.0062382827
0.0027358707 -0.0025149998 -0.0065345732
0.0017438806 -0.0025150012 -0.0057465648
0.0022367167 -0.0025150015 -0.0057465653
0.0017438808 -0.0025150008 -0.0062382831
0.0027641947 -0.00025294523 -0.0065721753
0.00075820938 -0.00026674219 -0.0065786992
-0.0017438793 -0.0012574994 -0.0065786964
-0.0012510439 -0.0012574998 -0.0065786946
-0.0017438788 -0.00076212035 -0.0065786955
-0.0027674648 -0.00026674216 -0.0065786936
-0.0022367169 0.00022863614 -0.006578695
-0.00026169236 0.0022256905 -0.0065618069
0.0022202069 -0.0007449112 -0.006564667
0.0027674653 -0.00076212059 -0.0065408745
0.0027674639 -0.0012574994 -0.0065408754
0.0017438788 -0.00076212041 -0.0065786969
0.001732506 -0.0012491159 -0.0065726475
0.0022340405 -0.0012552578 -0.0065422123
0.0012510451 -0.0025150012 -0.0062382827
0.00026537306 -0.0025150015 -0.0057465639
0.00075820868 -0.0025150012 -0.0057465648
0.0012510453 -0.0025150015 -0.0057465648
0.0017382157 -0.0017458698 -0.0065447902
0.0022472739 -0.002238129 -0.0065384824
0.0012407833 -0.0017362606 -0.0065707332
0.0012539611 -0.0022336019 -0.0065379692
0.00075820874 -0.0025150008 -0.0062382836
-0.0062552211 -0.0025150015 -0.0017371752
-0.0067480598 -0.0025150012 -0.0017371755
-0.006255222 -0.0025150015 -0.0022667176
-0.0067480598 -0.0025150012 -0.003250153
0.0075820885 0.0007621207 -0.0062382817
0.0075820861 0.00022863623 -0.0057465653
0.0075820885 -0.00026674228 -0.0057465681
0.0075820885 -0.0017528777 -0.0062382794
0.0062571671 -0.001731382 -0.006531178
0.006748064 0.0002286363 -0.0065408787
0.0057584001 0.0012494773 -0.0065468499
-0.0052678878 -0.00075878255 -0.0065731723
-0.0047388063 0.00022863623 -0.0065408759
-0.0042525395 -0.0002733474 -0.0065454175
-0.0047388063 -0.00026674228 -0.0065408754
-0.0022367176 -0.00076212035 -0.0065786936
-0.0022270672 -0.0012394857 -0.0065676933
-0.00075820909 -0.0017528781 -0.006578696
-0.00075820921 -0.0012574994 -0.0065786983
-0.0012510448 -0.0025149998 -0.0065408773
-0.0075820847 -0.0017528778 -0.0022667176
-0.0022367162 -0.0025150012 -0.00026202272
-0.003753135 -0.0025150008 -0.00029984722
-0.0057575312 -0.0013464139 -0.00025135442
-0.0047479044 -0.0013474298 -0.00023993338
-0.0047388072 -0.00026674205 -0.00075374008
-0.0075536557 -0.0021720456 -0.00075374031
0.00094776129 0.0013337123 0.00075923675
0.0012510443 0.0013036279 0.00075923675
0.00094776129 0.0013337123 0.0012509541
-0.00075820897 0.00022863607 -0.00075374031
-0.00026537373 0.00022863605 -0.00075374031
-0.00075820909 0.0013451438 -0.00025445805
-0.00026537353 0.0013500433 -0.00024581235
0.00026537338 -0.0013287418 -0.00027024513
-0.0037531338 -0.0025150012 -0.0037418706
-0.0032602986 -0.0025150008 -0.0037418704
-0.0032602989 -0.0025150012 -0.0042335875
0.0012510453 -0.0025150015 -0.0022667176
0.0022367164 -0.0025150015 -0.0022667171
0.0022367167 -0.0025150015 -0.0032501528
0.0017438804 -0.0025150012 -0.0022667171
0.0022367164 -0.0025150012 -0.0027584345
0.0017438808 -0.0025150012 -0.0032501533
0.001251045 -0.0025150012 -0.0027584345
-0.001251045 -0.0025150015 -0.0032501526
-0.00026537306 -0.0025150015 -0.0032501521
-0.00026537306 -0.0025150015 -0.0042335885
-0.00026537306 -0.0025150015 -0.0047631301
0.00026537306 -0.0025150015 -0.0032501526
-0.0042459709 -0.0025150012 -0.0057465648
-0.003753135 -0.0025150012 -0.005254847
-0.0052379607 -0.0025149998 -0.0065345741
-0.0042473734 -0.0022336745 -0.0065534851
-0.0047382796 -0.0017486444 -0.0065771183
-0.0052687703 -0.0022321513 -0.0065560858
-0.0052757263 -0.0017472329 -0.0065719709
-0.006255222 -0.0025150015 -0.0042335875
-0.0075808894 -0.0017456579 -0.0017395641
0.006255223 0.0025150012 -0.00026202272
0.006255222 0.0025150015 -0.00075374008
0.0065964162 0.0012956066 0.002272214
0.0065964172 0.0012956066 0.0017426719
0.0065964172 0.0012956064 0.0012509541
0.0063042804 0.0012911224 0.0012509546
0.0067480602 0.0025150008 -0.00026202272
0.0052695521 0.0025150008 -0.00029984722
0.0075820889 0.0007621207 -0.0012454579
0.0075820885 0.0002286363 -0.0012454581
0.0075820927 -0.001289961 -0.00027743261
0.0027674646 0.0013500435 -0.00024581235
0.0022367202 0.00022863605 -0.00075374031
0.0022367164 0.0013500436 -0.00024581235
0.0052695521 -0.0025150012 -0.0062382827
0.0012510453 -0.0025150015 -0.0042335885
0.0022367162 -0.0025150015 -0.0042335875
0.0075820847 -0.00076212047 -0.0047631296
-0.0075593428 0.0021491821 -0.0047631292
-0.0071271658 0.0025150001 -0.004233588
-0.0075820917 0.0012574998 -0.0052548479
-0.0075820889 0.0007621207 -0.0052548479
-0.0075820889 0.0012574994 -0.0047631292
-0.0062502441 -0.00076774263 -0.0065631964
-0.0067480588 0.0007621207 -0.0065408768
-0.0037531336 0.00076212059 -0.006540875
-0.0032494683 0.00021152744 -0.0065570846
-0.0032602991 0.0007621207 -0.0065408773
-0.0037531345 0.00022863626 -0.0065408768
0.0012510451 -0.0025150015 -0.0047631296
0.0012510453 0.0025150015 -0.0047631296
0.0012510453 0.0025150015 -0.004233588
0.0012510453 0.0025150015 -0.0032501519
0.0017438806 0.0025150012 -0.0047631292
0.0027674632 -0.0025150012 -0.0062382827
0.0032602984 -0.0025150001 -0.0065030535
0.0037531343 -0.0025150012 -0.0062382817
0.0027674634 -0.0025150015 -0.0057465653
0.0027674632 -0.0025150012 -0.005254847
0.0057623885 0.0025149998 -0.0065408777
0.005762388 0.0025150008 -0.0062382817
0.006255222 0.0022482586 -0.0065408805
0.0057623885 0.0022482583 -0.0065408782
-0.0042459699 0.0025150008 -0.0037418704
-0.0037531343 0.0025150012 -0.0037418699
-0.0042459704 0.0025150012 -0.0042335875
-0.0037531343 0.0025150012 -0.002758435
-0.0052695516 0.0025150015 -0.0042335875
-0.0047388063 0.0025150015 -0.0042335875
-0.0057623885 0.0025150001 -0.0065030535
-0.0075820927 0.0012574998 -0.0062382822
-0.0075820857 0.00076212047 -0.0057465639
-0.0032602986 0.0025150008 -0.0037418704
-0.0032602989 0.0025150012 -0.004233588
-0.0027674634 0.0025150015 -0.0047631296
-0.0032602984 0.0025150012 -0.0047631306
-0.0027674632 0.0025150015 -0.0057465648
-0.0017438806 0.0025150012 -0.0057465644
-0.002767463 0.0025150012 -0.0062382831
-0.00272197 0.0025149998 -0.0065257475
-0.0017325063 0.001249116 -0.0065726466
-0.001738215 0.0017458699 -0.0065447907
-0.0022442047 0.0022430837 -0.0065394756
-0.0022367167 0.0017528778 -0.0065408745
-0.0022367164 0.0025149998 -0.0065408773
-0.0022367169 0.0025150012 -0.0062382817
-0.0027505036 0.0022352219 -0.0065368973
-0.0037531345 0.0025150001 -0.0065030535
-0.0012510453 0.0025150015 -0.0057465658
-0.00026537306 0.0025150012 -0.005254847
0.00026537306 0.0025150012 -0.005254847
0.0075820927 0.0012574998 -0.0062382808
0.0057623875 0.0025150012 -0.0032501526
0.0057623875 0.0025150012 -0.004233588
0.0052695521 0.0025150012 -0.0037418706
0.0022433288 0.0023156079 -0.00028005522
0.0017438808 0.0025150008 -0.00026202272
0.0017438792 0.0023279346 -0.00028953166
-0.0040867464 0.001280364 0.002272214
-0.004077096 0.0012886777 0.0026435808
-0.0038691866 0.0012909407 0.0026890545
-0.003802195 0.0012911225 0.002272214
-0.0075820885 0.0017528777 -0.0027584336
-0.0075648562 0.0021570344 -0.0012351424
0.0027674632 -0.0025150015 -0.00075374031
0.002767463 -0.0025150008 -0.00029984722
0.0037531345 -0.0025150008 -0.00029984722
0.0067480588 -0.0025150012 -0.0022667171
0.0070134331 -0.0025150001 -0.0017371755
0.0070134336 -0.0025150001 -0.00029984722
0.0075771473 -0.0022101516 -0.00038865232
0.0075778826 -0.0021932165 -0.0022667176
0.0075778826 -0.0021932162 -0.0017371752
0.0022367164 -0.0025150012 -0.0012454579
0.0022367164 -0.0025150008 -0.00029984722
0.0017438809 -0.0025150003 -0.00029984722
0.0038411831 -0.001283313 0.0022673325
0.0040867459 -0.0012575 0.0026353288
0.0038697822 -0.0012838816 0.0026717947
0.0022367167 0.0025150012 -0.00026202272
0.0032602989 0.0025150012 -0.00075374031
0.0037531338 0.0025150012 -0.00026202272
0.0032602986 0.0025150008 -0.00026202272
0.002767463 0.0025150012 -0.00026202272
0.0037531347 0.0025150015 -0.00075374031
0.0027674644 -0.0013287418 -0.0002702456
0.0027674616 -0.00026674205 -0.00075374055
0.0027674611 0.00022863605 -0.00075374078
0.0052695516 0.0015242427 -0.00029984722
0.0071840314 0.0025150005 -0.0062571946
0.0075745112 0.0022177733 -0.0052548475
0.006255223 0.0025150015 -0.0022667171
0.006255223 0.0025150012 -0.0027584345
0.0067480588 0.0025150008 -0.002758435
0.0071271658 0.0025150001 -0.0022667171
-0.006255223 -0.0025150012 -0.0012454579
-0.0047375639 -0.0023063535 -0.00028124498
-0.0052695428 -0.0023068825 -0.00028238981
-0.0040564174 -0.0012574999 0.00075923675
0.0062552225 -0.0025150008 -0.00029984722
0.006255222 -0.0025150015 -0.00075374031
-0.006255223 -0.0025150012 -0.00026202272
-0.0052695405 0.00022863605 -0.00075374031
-0.0075820847 -0.00076212059 -0.0057465658
-0.005792717 -0.0025149998 -0.0065333126
-0.0057623885 -0.0025150008 -0.0062382822
-0.0057407767 -0.001752878 -0.0065652668
-0.0062552188 -0.0017528778 -0.006540875
0.0067480598 -0.0025150008 -0.005254847
0.006255223 -0.0025150012 -0.005254847
0.0072408933 -0.00076212059 -0.0065408768
0.0072265523 -0.0022245706 -0.0065030567
0.0037531343 -0.0025150012 -0.0052548475
0.0037531347 -0.0025150015 -0.0047631301
0.0042459709 -0.0025150012 -0.0047631301
0.0042459709 -0.0025150008 -0.0052548479
0.0032602989 -0.0025150012 -0.0047631296
-0.0075820889 -0.0012574993 -0.0042335875
-0.0062990081 0.0012558897 0.00020838529
-0.006255216 0.0023168488 -0.00032254215
-0.0073108841 0.0016473547 -0.00041041081
-0.006255222 0.0025150015 -0.0057465653
-0.0075820889 0.0017528778 -0.0052548479
-0.0075820861 0.0017528781 -0.0057465672
0.0075694546 0.0022101523 -0.0037418706
0.0075441781 0.0021720454 -0.0022667176
0.0067480588 0.0025150012 -0.0022667171
0.0067480588 0.0025150012 -0.0017371755
0.006255223 0.0025150015 -0.0017371754
0.0067480598 0.0025150012 -0.0047631301
0.0075820857 0.00076212059 -0.0047631301
0.0032602993 0.0022482583 -0.0065408787
0.0027693834 0.0022371644 -0.0065384824
0.0042459704 0.0025149998 -0.0065408777
0.0042425217 0.0017424851 -0.006546034
0.0047388081 0.0022482586 -0.0065408768
0.0075441785 0.0021720454 -0.0012454579
0.0075820857 0.00022863626 -0.00075374031
0.0073925392 0.00022863635 -0.00045114476
0.0065964172 0.0012956066 0.00075923675
0.0075820917 0.0012574998 -0.0012454577
0.007579173 0.0017352903 -0.0012454577
0.0075441781 0.0021720454 -0.00075374031
-0.006255222 0.0025150012 -0.002758435
-0.0067480588 0.0025150012 -0.0022667171
-0.0057623866 0.0025150008 -0.005254847
-0.0052695516 0.0025150012 -0.0052548475
-0.0052695516 0.0025150012 -0.0037418706
-0.0075820889 0.0002286363 -0.0027584336
-0.0075820889 -0.0012574994 -0.00075374031
-0.0075820885 -0.00076212059 -0.0062382803
-0.0013015918 0.0012936514 0.0017426715
-0.0013169759 0.0012889783 0.0012525988
0.0012510443 0.0013036279 0.001250955
0.0012510446 0.0013036281 0.0017426729
0.00094776129 0.0013273611 0.0017111518
0.0027674627 0.0015242428 -0.00026202272
0.0037531334 0.0012854438 0.0012509546
0.002236716 0.0015242428 -0.00026202272
-0.0012510453 0.0025150015 -0.0017371757
-0.0037531343 0.0025150015 -0.0017371756
-0.0037531345 0.0025150015 -0.0022667176
-0.0032602989 0.0025150012 -0.0022667171
-0.0027674634 0.0025150015 -0.0017371754
-0.001298831 0.0012911224 0.00022333767
-0.0013183624 0.0012906196 0.00075499457
-0.0015846571 0.001280364 0.00075923675
-0.0012510439 0.0023279339 -0.00028953119
-0.0017438795 0.0023279341 -0.00028953142
-0.0017438803 -0.00026674208 -0.00075374055
-0.0022367178 0.0013500433 -0.00024581235
-0.0027674604 0.00022863605 -0.00075374055
-0.0027674632 0.0013500435 -0.00024581212
-0.0032603045 -0.00026674208 -0.00075374055
-0.003753135 -0.00026674205 -0.00075374055
-0.0012392501 -0.0013012511 0.00022857403
-0.0017438795 -0.0013287415 -0.00027024536
-0.0022367199 -0.00026674205 -0.00075374055
0.0047388072 -0.0023168486 -0.00032254169
0.0027674632 -0.0025150015 -0.0042335875
0.0027674632 -0.0025150015 -0.0047631296
0.0037531347 -0.0025150015 -0.0042335875
0.0017438809 -0.0025150012 -0.0047631301
-0.00075820944 -0.002222186 -0.0065508331
-0.00077084574 -0.0025150001 -0.0065282695
-0.00075820868 -0.0025150012 -0.0047631301
-0.0017438804 -0.0025150012 -0.0047631296
-0.0017438808 -0.0025150008 -0.0052548479
-0.0047388053 0.0025150015 -0.0047631306
-0.0042459704 0.0025150012 -0.0047631301
-0.0047388063 0.0025150012 -0.0052548475
-0.0042459704 0.0025150008 -0.0052548479
0.00674807 0.0023138004 -0.00028169155
-0.0012510433 -0.00026674205 -0.00075374055
-0.00075820833 -0.00026674208 -0.00075374031
0.00094776129 0.0013233196 0.0022997225
0.0047388058 0.0025150015 -0.0032501526
0.0052695512 0.0025150012 -0.0027584354
0.0047388053 0.0025150012 -0.002758435
0.0037531345 0.0025150012 -0.0027584345
0.0037531343 0.0025150015 -0.0022667176
0.0037531343 0.0025150015 -0.0032501526
0.0027674632 0.0025150015 -0.0047631301
0.005762388 0.0025150008 -0.0012454579
0.0057623871 0.0025150012 -0.0017371753
0.0052695521 0.0025150012 -0.0012454579
0.0012510453 0.0025150012 -0.0037418699
0.00075820868 0.0025150012 -0.0032501533
0.0042459704 0.0025150012 -0.0057465648
0.0047388058 0.0025150015 -0.0042335875
0.0042459704 0.0025150012 -0.0047631301
0.0047388053 0.0025150015 -0.0047631296
0.0047388058 0.0025150012 -0.0052548475
0.0012510448 0.0025149998 -0.0065408768
0.0017392852 0.0022378657 -0.0065374412
0.0012510447 0.0022482583 -0.0065408782
0.0032602986 0.0025150008 -0.0052548475
0.0017438808 0.0025150008 -0.0052548479
0.00026537306 0.0025150015 -0.0042335875
0.00075820868 0.0025150012 -0.0042335875
-0.0017438808 -0.0025150008 -0.0037418704
0.0032602989 -0.0025150012 -0.0042335875
0.0027674632 -0.0025150012 -0.0027584345
0.0037531347 -0.0025150001 -0.0065030535
0.0032538613 -0.0022288461 -0.0065273205
0.0037531352 -0.0022482586 -0.0065030563
0.0037482958 -0.0017431488 -0.0065392675
0.0047388053 -0.0025150015 -0.0057465648
0.0057623875 -0.0025150012 -0.0032501526
0.0057623885 -0.0025150008 -0.0027584345
0.006255223 -0.0025150012 -0.0037418704
0.0057623885 -0.0025150012 -0.0042335885
0.0057623889 -0.0025150008 -0.0037418704
0.0052695516 -0.0025150015 -0.0032501526
0.00026537338 0.00022863605 -0.00075374078
-0.00026537359 -0.00026674205 -0.00075374055
0.0017438792 -0.00026674222 -0.0065786978
0.0012510446 -0.00026674219 -0.006578695
0.00026537318 -0.00026674219 -0.0065786969
-0.00026537312 -0.00026674219 -0.0065786969
0.00026537344 0.00022863617 -0.006578695
0.00075820903 0.00022863619 -0.0065786941
-0.0002653733 0.00022863614 -0.0065786941
-0.00026537332 -0.00076212035 -0.006578695
0.00075820915 0.00076212041 -0.006578695
0.00075820915 0.0012574993 -0.0065786955
0.0037531343 -0.0012574994 -0.0065408787
0.0032527177 -0.00025015496 -0.0065582311
0.0032603 -0.00076212059 -0.0065408759
0.0032602991 -0.0017528777 -0.0065408768
0.0042482526 -0.0017501231 -0.0065404233
0.0027674646 0.0017528778 -0.0065408791
0.0022367171 0.0017528778 -0.0065408787
0.0022367174 0.0022482581 -0.0065408782
0.0017382147 0.0017458698 -0.0065447874
-0.0027674639 0.0012574994 -0.0065408768
-0.0032602991 0.0012574996 -0.0065408763
-0.0012510434 -0.0007621203 -0.0065786936
-0.0012510447 -0.00026674219 -0.0065786946
-0.00075820938 -0.00076212041 -0.0065786964
-0.0022367167 -0.0022482579 -0.0065408773
-0.0027674648 0.00076212059 -0.0065408745
-0.0022367162 -0.00026674216 -0.006578695
-0.0012510446 0.0012574997 -0.0065786974
-0.0027674641 -0.00076212035 -0.0065786946
-0.0017438796 0.00076212035 -0.0065786927
-0.0012510446 0.00022863617 -0.006578695
-0.0017438791 0.00022863619 -0.0065786932
-0.0042516175 0.0022182597 -0.0065207602
-0.0022367167 0.0025150015 -0.0057465639
-0.0037531343 0.0025150015 -0.0057465648
0.0012510448 -0.0025150001 -0.0065030535
0.0012510439 -0.0012574997 -0.0065786964
0.0017433142 -0.0022363144 -0.0065380568
0.002767463 -0.0025150012 -0.0037418704
0.0032602986 -0.0025150008 -0.0037418704
0.0075820861 -0.00076212047 -0.0057465639
0.0075820871 0.0002286363 -0.0062382817
0.0075791725 0.00022570515 -0.0065379683
0.0062552216 -0.00026674228 -0.0065408805
0.0057623922 0.00022863632 -0.0065408754
0.0072408952 0.00022863626 -0.0065408773
0.0052695521 -0.00026674228 -0.0065408759
-0.0047359345 -0.00077713182 -0.0065701008
-0.0052695535 0.00022863626 -0.0065408782
-0.004245969 0.00076212059 -0.0065408759
-0.0052695521 -0.0025150012 -0.0062382827
-0.00026978116 -0.0022287618 -0.0065523121
-0.0022367162 -0.0025150015 -0.00075374031
-0.0012510453 -0.0025150015 -0.00075374031
-0.0042459709 -0.0025150012 -0.00075374055
-0.0047388053 -0.0025150015 -0.00075374031
-0.0042548901 -0.0025150008 -0.0002731476
-0.0052785282 -0.0013307036 -0.00026401342
-0.0040648417 -0.0012744359 0.00018766779
-0.0052695521 -0.0025150012 -0.00026202272
0.0002653733 0.0013500436 -0.00024581212
-0.00094776129 -0.0012956063 0.00075923675
-0.00075820915 -0.0023149436 -0.00029039104
0.00029949247 -0.0015509172 -0.00035658386
-0.0027674634 -0.0025150012 -0.0037418706
-0.0027674632 -0.0025150015 -0.004233588
-0.0042459709 -0.0025150008 -0.0052548475
-0.0047388058 -0.0025150012 -0.0052548475
-0.0047388063 -0.0025150015 -0.0047631296
-0.0037531343 -0.0025150015 -0.0047631301
-0.0047388053 -0.0025150015 -0.0042335875
-0.0042459709 -0.0025150012 -0.0042335875
-0.0042459699 -0.0025150012 -0.003250153
-0.0042459709 -0.0025150008 -0.0037418706
0.0017438806 -0.0025150012 -0.0017371753
0.00026537306 -0.0025150012 -0.002758435
0.00075820868 -0.0025150012 -0.003250153
0.00075820874 -0.0025150008 -0.002758435
-0.00026537306 -0.0025150012 -0.0027584345
0.00075820868 -0.0025150012 -0.0022667171
0.0017438808 -0.0025150008 -0.002758435
0.0012510451 -0.0025150015 -0.0032501521
-0.0007582088 -0.0025150008 -0.002758435
-0.00026537306 -0.0025150015 -0.00075374031
0.0012510453 -0.0025150015 -0.0017371756
-0.00026537309 -0.0025150012 -0.0037418699
0.00026537306 -0.0025150015 -0.0042335875
-0.0067480593 -0.0025150008 -0.0027584345
-0.006255223 -0.0025150012 -0.0027584345
-0.0047477745 -0.0022363758 -0.006551858
-0.0042442908 -0.001742087 -0.0065699918
-0.006255222 -0.0025150015 -0.0032501528
-0.0052695512 -0.0025150015 -0.0047631301
-0.0047388053 -0.0025150015 -0.0032501528
-0.0075820875 -0.0012574994 -0.0017371759
0.0037531343 0.0025150012 -0.0012454579
0.0042447262 0.0013468304 -0.00025148154
0.0037347532 0.0012817486 0.00022281753
0.0047388063 0.001345144 -0.00025445782
0.0047388067 0.00022863605 -0.00075374055
0.0042459709 0.0025150012 -0.00075374031
0.0042459704 0.0025150008 -0.00026202272
0.0047388058 0.0025150012 -0.00026202272
0.004246776 0.0023128486 -0.00029501878
0.0047401856 0.002308073 -0.0002943452
0.0032602984 0.0023138006 -0.00028169155
0.0037509028 0.0023146071 -0.00028783223
0.0067480751 0.00022863607 -0.00075374031
0.0065964172 0.0012956066 0.00022969488
0.0075820908 -0.00076212123 -0.00045114476
0.0075820889 -0.0012574994 -0.00075374031
0.0073925382 -0.00076212123 -0.00045114476
0.0072544762 -0.001633441 -0.00038791611
0.0072517861 -0.0013109363 -0.00027245702
0.0075820913 -0.0016905237 -0.00041675894
0.0072471248 -0.0023062003 -0.00032627233
0.0042459713 -0.0025150012 -0.003250153
0.0042459709 -0.0025150008 -0.0027584345
0.0067480602 -0.0025150012 -0.0047631301
0.0067480598 -0.0025150012 -0.0042335875
0.006255222 -0.0025150015 -0.0057465653
0.0032652444 0.0017371384 -0.0065507456
0.0042459704 -0.0025150012 -0.0022667171
0.00075820874 -0.0025150008 -0.0052548479
0.0032602986 -0.0012574998 -0.006540881
0.0037461619 -0.00026104826 -0.0065447879
-0.0075687724 0.0021648365 -0.0037265355
-0.0075820917 -0.00026674234 -0.0052548489
-0.0062442767 -0.0012406069 -0.0065560844
-0.0067480612 0.00022863627 -0.0065408782
-0.0075820889 -0.00026674228 -0.0032501523
-0.0075820866 0.00076212047 -0.0047631268
-0.0075820861 0.00076212047 -0.0042335885
0.00026537306 0.0025150015 -0.0057465634
0.0032602986 -0.0025150008 -0.0062382822
0.0052695516 0.0025150012 -0.0062382827
0.0052650021 0.0017490675 -0.0065431427
-0.0047388053 0.0025150012 -0.0037418706
-0.0037531343 0.0025150015 -0.003250153
-0.0062552169 0.00076212059 -0.0065408768
-0.0057661803 -0.00026674228 -0.0065522259
-0.005762388 0.0007621207 -0.0065408759
-0.0057623885 0.0022482583 -0.0065030567
-0.0062552239 0.0017528782 -0.0065030549
-0.0052695507 0.0012574994 -0.0065408773
-0.0047388053 0.0025150015 -0.0057465639
-0.0042459704 0.0025150012 -0.0057465648
-0.0075820927 -0.00026674234 -0.0037418704
-0.003753135 0.0025150015 -0.0042335871
-0.0027674632 0.0025150015 -0.004233588
-0.0017135525 0.0025149998 -0.0065333135
-0.0037531345 0.0025150012 -0.005254847
-0.0032602986 0.0025150008 -0.0052548479
0.006255223 0.0025150015 -0.0042335875
0.005762388 0.0025150008 -0.0037418704
0.0017438809 0.00022863607 -0.00075374055
0.0012510429 0.00022863605 -0.00075374031
0.0012510431 -0.00026674205 -0.00075374055
0.0012476747 0.0013023801 0.000226893
0.0017438794 0.0013500433 -0.00024581235
-0.0057623903 0.0023168491 -0.00032254192
-0.005762388 0.0015242425 -0.00029984722
-0.005762388 0.0025150003 -0.00029984722
-0.0075820875 0.0017528778 -0.0037418692
-0.0075820857 0.0017528777 -0.0042335889
0.005762388 -0.0025150012 -0.00075374031
0.0022367162 -0.0025150015 -0.00075374031
0.0037531343 -0.0025150015 -0.00075374031
0.0057623903 -0.0023168488 -0.00032254192
0.006255223 -0.0025150015 -0.0022667171
0.0075820889 -0.00076212059 -0.002758434
0.0075820861 -0.0017528781 -0.0017371752
0.0075820847 -0.0017528777 -0.0022667171
0.0017417131 -0.002311405 -0.00029660529
0.0027674632 -0.0015460172 -0.00033226819
0.0027674648 -0.0022996182 -0.00030971458
0.0032602975 -0.0022996182 -0.00030971435
0.0032602996 -0.0015460176 -0.00033226819
0.0040943278 -0.0012575 0.0022722136
0.0040943278 -0.0012575 0.0017426719
0.0015846571 -0.001280364 0.0017426719
0.0042459709 -0.0025150003 -0.00029984722
0.0040943283 -0.0012575 0.00075923675
0.006255236 0.00022863605 -0.00075374125
0.0032602989 0.0025150012 -0.0017371759
0.0027674651 0.0023138004 -0.00028169132
0.0032603077 0.00022863607 -0.00075374078
0.0067480598 0.0025150012 -0.00075374031
0.0057623875 0.0025150008 -0.0027584345
0.0071271649 0.0025150001 -0.0047631296
-0.0057623885 -0.0025150012 -0.0017371755
-0.0052695516 -0.0025150015 -0.00075374031
-0.0057623875 -0.0025150012 -0.00075374031
-0.0052695521 -0.0025150012 -0.0012454577
-0.0047388058 -0.0025150012 -0.00026202272
-0.0057623936 -0.0023068825 -0.00028238981
-0.0062482487 -0.0022460683 -0.0065447907
0.006748057 -0.00026674234 -0.0065408787
0.0067480598 -0.0022482583 -0.0065030567
0.0037531345 -0.0025150015 -0.0057465648
0.0032602986 -0.0025150008 -0.0052548475
-0.0057623917 0.001350043 -0.00024581235
-0.0067480593 0.0025150008 -0.0062382817
-0.0075820861 0.0017528778 -0.0047631273
-0.0075820889 0.0017528777 -0.0062382817
-0.0075820875 0.0012574994 -0.0057465648
-0.0047388053 -0.0025150012 -0.0012454579
0.0075694569 0.0022177733 -0.004758087
0.0075796135 0.0017379668 -0.0032526196
0.0075791739 0.0017352903 -0.002758435
0.0075791716 0.0017352905 -0.0022667167
0.0075808894 0.001745658 -0.0042312006
0.0075811637 0.0017473013 -0.0037418695
0.006255223 0.0025150012 -0.0012454579
0.0071555986 0.0025150005 -0.0057607489
0.0075820857 0.00076212059 -0.0042335885
0.0032602986 0.0025150008 -0.0062382822
0.0075441781 0.0021720454 -0.0017371755
0.0075820857 0.00076212059 -0.00075374008
0.0075795632 0.0017071515 -0.00044105831
-0.0067480588 0.0025150008 -0.0052548479
-0.006255222 0.0025150015 -0.0032501526
-0.0067480593 0.0025150008 -0.002758435
-0.0057623885 0.0025150008 -0.0037418704
-0.0075820885 0.00076212059 -0.0027584336
-0.0067413226 -0.00077228225 -0.0065484429
-0.0067480598 0.0025150012 -0.0042335875
0.001584657 -0.0012803638 0.0012509546
-0.0032602989 0.0025150008 -0.002758435
-0.0032602984 0.0025150012 -0.0017371756
-0.0032602986 0.0025150008 -0.0012454579
-0.003753135 0.0025150012 -0.0012454579
-0.0032602984 0.0025150012 -0.00075374031
-0.0022367164 0.0025150012 -0.0012454581
-0.0017438808 0.0025150012 -0.00075374031
-0.0022367164 0.0025150015 -0.00075374031
-0.0017438808 0.0025150008 -0.0012454577
-0.0038162004 0.0012856338 0.00076135737
-0.0040895892 0.00127179 0.00075923675
-0.0038304864 0.0012855977 0.00021441234
-0.0037531422 0.00022863605 -0.00075374055
-0.002239014 0.0023200822 -0.00028609275
-0.0017438808 0.0025150008 -0.00026202272
-0.003260307 0.00022863607 -0.00075374031
0.0075820866 0.00022863623 -0.0017371757
0.0075820889 0.0012574994 -0.0017371753
0.0047388049 -0.0025150012 -0.0037418699
0.0042459704 -0.0025150008 -0.0037418704
0.0037531345 -0.0025150015 -0.0032501526
0.0022367164 -0.0025150015 -0.0047631296
0.0012510451 -0.0025150012 -0.0052548475
0.0017438808 -0.0025150008 -0.0052548479
0.0017438806 -0.0025150012 -0.0042335875
0.00026537309 -0.0025150012 -0.0062382827
-0.00026537309 -0.0025150012 -0.005254847
-0.0032602979 -0.0025149998 -0.0065408782
-0.00075820868 -0.0025150012 -0.0042335875
-0.0012510453 -0.0025150015 -0.004233588
-0.0012510453 0.0025150012 -0.00026202272
-0.0012510451 0.0025150015 -0.00075374008
-0.00094776123 -0.0012727424 0.0022495191
0.0017438808 0.0025150012 -0.00075374031
0.0012510451 0.0025150012 -0.00026202272
0.0052695516 0.0025150015 -0.0022667171
0.0047388058 0.0025150015 -0.0017371754
0.0042459709 0.0025150012 -0.0017371759
0.0027674627 0.0025150012 -0.0052548475
0.0017438806 0.0025150012 -0.004233588
0.00075820868 0.0025150008 -0.0037418699
0.0042459704 0.0025150008 -0.0052548479
0.0047388058 0.0025150015 -0.0057465639
0.0042459709 0.0025150008 -0.0062382831
0.0047388058 0.0025150012 -0.0037418704
0.0042459704 0.0025150012 -0.0042335889
0.0042459699 0.0025150008 -0.0037418706
0.00075820903 0.0025149998 -0.0065408773
0.0017473273 0.0025149998 -0.0065374393
0.00075157516 0.0022320633 -0.0065522259
-0.00026537327 0.0017528781 -0.0065786946
0.00026169236 0.0022256903 -0.0065618064
0.00026537335 0.0017528781 -0.0065786927
0.0022367167 0.0025150012 -0.005254847
0.00026537306 0.0025150012 -0.002758435
-0.00026537306 0.0025150012 -0.0027584345
0.00026537306 0.0025150015 -0.0032501528
-0.00075820868 0.0025150012 -0.003250153
0.0047388058 0.0025150012 -0.0012454579
-0.0022367167 -0.0025150012 -0.002758435
-0.0017438808 -0.0025150008 -0.002758435
0.0027674634 -0.0025150015 -0.0022667171
0.0042499616 -0.0022382301 -0.0065070377
0.006255223 -0.0025150015 -0.0042335871
0.0052695526 -0.0025150015 -0.0042335875
-0.00075820897 0.0023279344 -0.00028953142
-0.00075820932 -0.00026674222 -0.0065786992
0.0012510446 -0.0007621203 -0.0065786936
0.001251045 0.00022863614 -0.0065786941
-0.00026537312 -0.0012574998 -0.0065786978
0.00075820909 0.0017528781 -0.0065786955
0.0027674646 -0.0017528777 -0.006540875
0.0042459713 -0.0012574997 -0.0065408819
0.0042459704 -0.0025150001 -0.0065030535
0.0042459704 -0.0025150008 -0.0062382822
-0.0037531343 0.0012574994 -0.0065408759
-0.0017438802 -0.0022482586 -0.0065408787
-0.0012403735 -0.0017387648 -0.0065719709
-0.0022367164 0.0012574994 -0.0065408768
-0.0027674641 0.0017528778 -0.0065408768
0.00026537306 0.0012574997 -0.006578695
-0.00026537312 0.0012574997 -0.0065786946
-0.0012510441 0.0007621203 -0.0065786936
-0.0022218022 0.00074275507 -0.0065631969
-0.004724287 0.0022296112 -0.0065111024
-0.0047388053 -0.0025150012 -0.0027584345
-0.0042459709 -0.0025150012 -0.0022667171
-0.0042459704 -0.0025150008 -0.0027584345
0.0075820889 -0.0012574994 -0.0057465653
0.0075820889 -0.00076212059 -0.005254847
0.0062445919 0.00076069601 -0.0065504177
0.0047388081 -0.00076212047 -0.0065408768
-0.0052682194 -0.001255494 -0.0065707359
-0.0037531338 -0.0007621203 -0.0065786936
-0.0052695526 0.00076212047 -0.0065408768
-0.0052704136 -0.00027453669 -0.0065460368
-0.0042459685 0.0002286363 -0.0065408759
-0.0052695516 -0.0025150012 -0.0052548479
-0.002236716 -0.0025150015 -0.0017371756
-0.0017438808 -0.0025150012 -0.00075374055
-0.0022367164 -0.0025150012 -0.0012454579
-0.0042481162 -0.002300743 -0.00027843728
-0.0042459699 -0.00026674208 -0.00075374008
-0.0037700997 -0.0012710901 0.00022440474
-0.005762388 -0.0025150012 -0.0057465648
-0.005762388 -0.0025150008 -0.005254847
0.00093259697 0.0013070378 0.00017295824
0.00037910449 0.0015242422 -0.00026202272
-0.00026537367 -0.0013287419 -0.0002702456
-0.0032602991 -0.0025150012 -0.0022667171
-0.0032602989 -0.0025150012 -0.0017371755
-0.0027674632 -0.0025150015 -0.0022667171
-0.0027674632 -0.0025150015 -0.0017371754
-0.0027674634 -0.0025150015 -0.0047631296
-0.002767463 -0.0025150012 -0.0052548475
-0.0032602989 -0.0025150012 -0.0047631301
-0.0037531343 -0.0025150012 -0.002758435
-0.0047388053 -0.0025150012 -0.0037418699
-0.0052695521 -0.0025150012 -0.0037418706
-0.0037531343 -0.0025150015 -0.0042335875
-0.00075820868 -0.0025150012 -0.003250153
-0.001251045 -0.0025150012 -0.0037418699
0.00026537306 -0.0025150015 -0.0017371754
-0.00026537306 -0.0025150015 -0.0017371757
-0.00075820868 -0.0025150012 -0.0022667176
-0.0012510453 -0.0025150015 -0.0017371753
-0.0012510453 -0.0025150015 -0.0022667181
-0.00075820868 -0.0025150012 -0.0017371755
-0.0012510453 -0.0025150012 -0.0012454579
-0.00075820874 -0.0025150008 -0.0012454579
0.00075820868 -0.0025150012 -0.0042335875
0.00026537306 -0.0025150015 -0.0047631301
-0.005762388 -0.0025150012 -0.0022667171
-0.0057623871 -0.0025150008 -0.002758435
-0.0052695512 -0.0025150015 -0.004233588
-0.006255223 -0.0025150012 -0.0037418706
-0.0057623875 -0.0025150008 -0.0037418699
-0.0057623885 -0.0025150012 -0.0032501526
-0.0032602986 -0.0025150008 -0.0052548475
0.002236716 -0.0013287418 -0.00027024536
0.0022367162 0.0025150015 -0.0017371756
0.0022367162 0.0025150015 -0.0022667171
0.0027674632 0.0025150015 -0.0022667171
0.0052695516 0.0025150015 -0.00075374008
0.0075820885 -0.0017528777 -0.0012454574
0.0075778821 -0.0021932165 -0.00075374031
0.0075778812 -0.0021932165 -0.0012454581
0.0075820857 -0.00076212059 -0.00075374031
0.0075820885 -0.0007621207 -0.0012454579
0.0075820889 -0.00026674228 -0.0017371748
0.0075820861 -0.00076212047 -0.0017371762
0.0047388058 -0.0025150015 -0.0047631301
0.0057623875 -0.0025150012 -0.0057465648
0.005762388 -0.0025150008 -0.0052548475
0.0052695521 -0.0025150012 -0.0052548475
0.0052695516 -0.0025150015 -0.0057465639
0.006255223 -0.0025150015 -0.0047631296
-0.0075671044 0.0021676151 -0.0032571894
-0.0071271658 0.0025149996 -0.0037418704
-0.0075820889 -0.00026674228 -0.0042335889
-0.0075820861 0.00022863626 -0.0047631278
-0.0075820889 -0.00026674228 -0.0047631287
-0.0075820861 -0.00076212059 -0.0047631282
-0.0075820885 -0.0007621207 -0.0052548489
-0.007240897 -0.00026674228 -0.0065408773
-0.0075820889 0.00022863632 -0.0052548484
0.00075820874 0.0025150008 -0.0052548475
0.0052695526 0.0025149998 -0.0065408773
0.0052695516 0.0025150015 -0.0057465639
-0.0062552188 0.00022863627 -0.0065408768
-0.0062504243 0.0012454406 -0.0065384875
-0.0052695516 0.0025150015 -0.0057465648
-0.0075820889 0.0007621207 -0.0062382817
-0.0075820875 -0.00076212076 -0.0037418713
-0.0032602986 0.0025150008 -0.0062382822
-0.0017412103 0.0022455752 -0.0065403474
-0.0017438808 0.0025150008 -0.0062382817
-0.0037531345 0.0025150015 -0.0047631296
-0.0032602984 0.0025150012 -0.0057465648
0.0047268337 0.0015242427 -0.00028193044
0.0062552234 0.0025150012 -0.0052548475
0.0057623885 0.0025150012 -0.0047631301
0.006255222 0.0025150012 -0.0037418699
-0.001584657 0.0012803638 0.0012509546
-0.002767463 0.0025150012 -0.0012454577
-0.0052665155 0.0023163406 -0.00030589895
0.0012510453 -0.0025150015 -0.00075374031
0.0047388053 -0.0025150015 -0.00075374031
0.0037531347 -0.0025150015 -0.0022667171
0.0032602984 -0.0025150012 -0.00075374031
0.006583781 -0.0012447978 0.0012509546
0.006583781 -0.0012447978 0.0017426719
0.0063075116 -0.0012964815 0.0012548675
0.0052695512 -0.0015460172 -0.00033226819
0.0047388058 -0.0015460172 -0.00033226819
0.005762388 -0.0025150012 -0.0022667171
0.0052695516 -0.0025150015 -0.0022667171
0.006255223 -0.0025150015 -0.0017371754
0.0075820927 -0.0012574998 -0.0027584345
0.0075820857 -0.00076212047 -0.0022667167
0.0070134331 -0.0025150001 -0.00075374031
0.0032602989 -0.0025150012 -0.0017371756
0.0022367171 -0.0015460172 -0.00033226819
0.006304279 0.0012911225 0.0022722154
0.0063231438 -0.0012916359 0.0017434598
0.0038411848 -0.001283313 0.0017475521
0.0038464521 -0.0012838807 0.0012509546
0.0040943283 -0.0012574998 0.0012509546
0.004245976 0.00022863607 -0.00075374008
0.0037531373 0.00022863605 -0.00075374125
0.003753132 0.001285444 0.00075923675
-0.006255222 -0.0025150015 -0.00075374031
-0.0057623885 -0.0025150008 -0.0012454579
-0.0037531347 -0.0025150015 -0.00075374031
-0.0037531343 -0.0025150015 -0.0022667176
-0.0052695512 -0.0025150015 -0.0017371753
0.0062552169 -0.0023168488 -0.00032254169
0.0067480588 -0.0025150003 -0.00029984722
-0.0063003348 -0.0012918264 0.00075923675
-0.0057623875 -0.0025150008 -0.00026202272
-0.0057696095 -0.0022319269 -0.0065570865
0.0067480602 -0.0007621207 -0.0065408796
0.0032602989 -0.0025150012 -0.0057465644
0.0042459709 -0.0025150012 -0.0057465648
-0.0057623885 0.0025150008 -0.0012454579
-0.0075820885 0.0012574994 -0.004233588
-0.0075820875 0.00076212059 -0.0037418704
-0.0075593437 0.0021491821 -0.0042335875
-0.006255222 0.0025150012 -0.0062382817
-0.0067480588 0.0025150012 -0.0057465639
0.0075675109 0.0022072212 -0.0042074015
0.0075820889 0.00076212059 -0.0027584345
0.005762388 0.0025150012 -0.00075374031
0.0067480602 0.0025150012 -0.003250153
0.0075820899 0.0012574994 -0.0042335875
0.0032451339 0.0025149998 -0.0065333126
0.0075791716 0.0017352903 -0.0017371756
0.0075820861 0.00076212059 -0.0017371759
0.0073925392 0.00076212123 -0.00045114476
0.0075820889 0.0012574994 -0.00075374031
-0.0062552239 0.0025150015 -0.004233588
-0.0047388058 0.0025150015 -0.0022667171
-0.0052695516 0.0025150015 -0.0017371753
-0.003753135 0.0025150015 -0.00075374031
-0.0042459704 0.0025150012 -0.00075374031
-0.0052695484 0.0013500436 -0.00024581212
0.00026537306 0.0025150015 -0.0022667171
-0.0022367167 0.0025150015 -0.0017371754
-0.0012510451 0.0025150012 -0.0012454581
-0.0032602991 0.002322813 -0.00028998009
-0.0027674632 0.0025150012 -0.00026202272
-0.0032508208 0.0025150005 -0.00028566294
-0.0022367164 0.0015242427 -0.00029984722
-0.0027674648 0.002322813 -0.00028997986
-0.0022367164 0.0025150012 -0.00026202272
0.0052695516 -0.0025150012 -0.0037418699
0.0037531343 -0.0025150012 -0.0037418704
0.002236716 -0.0025150012 -0.0052548475
0.0027674634 -0.0025150015 -0.0032501526
0.0022367167 -0.0025150012 -0.0037418706
0.0017438808 -0.0025150008 -0.0037418706
-0.0022367162 -0.0025150012 -0.0052548475
0.00026537312 -0.0025150001 -0.0065030535
-0.00026537309 -0.0025150012 -0.0062382817
-0.0037531338 -0.0025149998 -0.0065408782
-0.0032602986 -0.0025150008 -0.0062382822
-0.0027674625 -0.0025149998 -0.0065408773
-0.0027674639 -0.0022482579 -0.0065408768
0.00026537306 0.0025150015 -0.0017371756
0.00075820874 0.0025150008 -0.00026202272
0.00026537306 0.0025150012 -0.00026202272
0.00075820868 0.0025150012 -0.00075374031
0.00026537306 0.0025150015 -0.00075374031
0.0012510445 0.0023279341 -0.00028953119
0.0047388058 0.0025150015 -0.0022667176
0.0052695512 0.0025150015 -0.0032501526
0.005762388 0.0025150012 -0.0022667176
0.0017438806 0.0025150012 -0.0022667171
0.0022367167 0.0025150012 -0.0027584345
0.0017438808 0.0025150008 -0.002758435
0.0012510451 0.0025150012 -0.0012454579
0.0007582088 0.0025150012 -0.0017371756
0.0007582088 0.0025150008 -0.0012454579
0.0012510453 0.0025150015 -0.0017371753
0.0032602989 0.0025150012 -0.0032501533
0.0032602989 0.0025150008 -0.002758435
0.0037531347 0.0025150015 -0.0017371756
0.0017438806 0.0025150012 -0.003250153
0.0042459704 0.0025150012 -0.0032501526
0.0037531345 0.0025150012 -0.0037418704
0.0032602989 0.0025150008 -0.0037418699
0.00026537315 0.0025149998 -0.0065408773
-0.00075820897 0.0017528782 -0.0065786964
0.0017438806 0.0025150012 -0.0057465648
0.00026537309 0.0025150012 -0.0037418704
-0.001251045 -0.0025150012 -0.0027584345
0.0037531345 -0.00026674205 -0.00075374008
0.0067480598 -0.0025150008 -0.0037418704
0.0075820889 -0.0017528778 -0.0027584354
0.006255223 -0.0025150015 -0.0032501528
-0.00037910452 0.0015242421 -0.00029984722
-0.00075820874 0.0025150008 -0.00026202272
-0.0017438799 -0.00026674222 -0.0065786955
0.0012403734 0.0017387648 -0.0065719704
0.0022367167 -0.0017528778 -0.0065408759
0.0027599761 -0.0022421428 -0.0065394752
0.003753135 -0.00076212047 -0.0065408759
-0.0022367164 -0.0025149998 -0.0065408773
-0.0032681045 0.0022381716 -0.0065386547
-0.0032603 0.0017528777 -0.0065408759
-0.00075820915 0.00076212041 -0.0065786969
-0.0002653733 0.00076212035 -0.0065786946
0.0075820885 -0.0007621207 -0.0062382808
0.0047388058 -0.00026674228 -0.0065408796
-0.0037531359 -0.0012574997 -0.0065786964
-0.0037517436 -0.0017326012 -0.006552326
-0.0032607254 -0.0012356632 -0.0065625529
-0.0032603003 -0.00076212041 -0.0065786964
-0.0057638744 -0.00077482255 -0.0065609016
-0.005764619 0.00022594647 -0.0065422128
-0.006255223 -0.0025150012 -0.0052548475
-0.00026537306 -0.0025150015 -0.0022667176
-0.0042459778 0.00022863607 -0.00075374078
-0.0037747966 -0.0012738309 0.00075923628
-0.0040564174 -0.0012575 0.0012509541
-0.0037690389 -0.0012732219 0.0022669237
-0.0040564178 -0.0012575001 0.0021587408
-0.0037692927 -0.0012581248 0.0026839424
-0.00094776129 -0.0012604313 0.00022387574
-0.002767463 -0.0025150012 -0.0012454579
-0.0032602989 -0.0025150008 -0.0012454581
-0.0022367167 -0.0025150015 -0.0022667171
-0.0027674632 -0.0025150012 -0.0027584345
-0.0037531345 -0.0025150015 -0.0032501535
-0.0032602986 -0.0025150008 -0.002758435
-0.0042459704 -0.0025150012 -0.0047631301
0.00026537306 -0.0025150012 -0.0037418704
0.00075820874 -0.0025150008 -0.0037418699
-0.00075820874 -0.0025150008 -0.0037418699
0.00075820868 -0.0025150012 -0.0017371755
0.00026537306 -0.0025150015 -0.0022667171
-0.00026537306 -0.0025150012 -0.0012454579
-0.0017438806 -0.0025150012 -0.0017371755
0.0012510453 -0.0025150012 -0.0037418699
0.0007582088 -0.0025150012 -0.0047631296
0.00026537306 -0.0025150012 -0.0052548475
-0.0042459699 -0.0025150008 -0.0062382817
-0.0057623885 -0.0025150012 -0.004233588
-0.0052695516 -0.0025150015 -0.0032501521
-0.0032602989 -0.0025150012 -0.0057465648
-0.0022367169 -0.0017528781 -0.0065408773
0.0047388058 0.0025150015 -0.00075374031
0.0052695516 0.0025150015 -0.0017371757
0.0075820927 -0.0012574998 -0.0012454579
0.0075820885 -0.00026674228 -0.0022667167
0.0075820847 0.00022863621 -0.0022667171
0.0042459704 -0.0025150012 -0.004233588
0.0047388063 -0.0025150012 -0.0052548475
0.0057623885 -0.0025150012 -0.0047631301
-0.006748056 -0.00026674234 -0.006540881
0.00075820868 0.0025150012 -0.0047631301
0.005762388 0.0025150012 -0.0057465644
-0.0072408956 0.00022863627 -0.0065408731
-0.0057623885 0.0025150008 -0.0062382822
-0.0057574413 0.0012492159 -0.0065392354
-0.0075820866 0.00076212047 -0.0032501535
-0.0075820861 0.00022863626 -0.0042335894
-0.0075820861 -0.00076212059 -0.0042335913
-0.0042459709 0.0025150008 -0.0062382831
-0.0037531345 0.0025150012 -0.0062382827
0.0052695395 0.00022863605 -0.00075374055
0.0047388072 -0.00026674205 -0.00075374101
0.0052695414 -0.00026674205 -0.00075374078
0.0052695484 -0.001328742 -0.0002702456
0.0052695516 0.0025150015 -0.0047631301
0.0052695521 0.0025150012 -0.0052548475
0.0002653735 -0.00026674205 -0.00075374101
0.00075820863 -0.00026674208 -0.00075374078
0.00075820892 0.00022863607 -0.00075374055
-0.0042405552 0.0025150008 -0.00026742625
-0.0052695521 0.0025150008 -0.00029984722
0.0042459704 -0.0025150012 -0.00075374031
0.0032602986 -0.0025150003 -0.00029984722
0.0037515219 -0.0023155513 -0.0003223808
0.0065808077 -0.0012507753 0.00078593637
0.0062733893 -0.0012893069 0.0002290695
0.0057623936 -0.0013287414 -0.00027024536
0.006255223 -0.0025150012 -0.0027584345
0.0067480598 -0.0025150008 -0.0027584345
0.0052695521 -0.0025150012 -0.0012454579
0.0057623885 -0.0025150012 -0.0017371753
0.0052695526 -0.0025150015 -0.0017371753
0.0070134331 -0.0025150001 -0.002758435
0.0067480588 -0.0025150012 -0.0017371756
0.0032602986 -0.0025150008 -0.0012454579
