# .PCD v0.7 - Point Cloud Data file format
VERSION 0.7
FIELDS x y z
SIZE 4 4 4
TYPE F F F
COUNT 1 1 1
WIDTH 1169
HEIGHT 1
VIEWPOINT 0 0 0 1 0 0 0
POINTS 1169
DATA ascii
-0.0077306633 -0.0025149998 -0.00072682695
-0.0087740654 -0.0017557542 -0.0065870667
-0.0082523655 -0.0021896104 -0.0065666474
-0.0082523627 -0.0017557538 -0.0065870704
-0.0087654432 -0.0021928963 -0.0065625217
-0.001754813 -0.00075924501 -0.0065870699
-0.00075883814 -0.0012812265 -0.0065870704
-0.0047427383 -0.00023726416 -0.0065870699
-0.0052644396 0.00023726415 -0.0065870676
-0.0047509163 0.00023235522 -0.0065854257
-0.0092415642 -0.002209946 -0.0065496303
0.0072563901 0.0025149998 -0.0047289422
0.0067821168 0.0025149998 -0.0042525004
0.0087740663 0.0025149998 -0.0042525004
0.0087740663 0.0025149998 -0.0047289426
0.0092536099 0.0021907398 -0.0065685371
0.0082523664 0.0025150001 -0.006539423
0.0072563891 0.0017557542 -0.006587069
0.00076367776 0.0022206001 -0.0065763718
0.0022290871 0.0017557542 -0.0065870672
0.0022290871 0.001281227 -0.006587069
0.0017548132 0.001281227 -0.0065870676
0.0022290866 0.00075924501 -0.0065870713
0.0027507886 0.0012812265 -0.0065870676
-0.0057387138 0.0002372642 -0.006587069
0.0077306647 0.0025149998 -0.005777115
0.0082523655 0.0025150003 -0.0057771141
-0.00023713693 -0.0025150001 -0.006539423
0.0042210375 -0.00075924495 -0.0065870686
0.00023713693 -0.0021946945 -0.0065751551
0.00073917321 -0.0021955625 -0.0065649864
-0.00023713696 -0.0021946945 -0.0065751551
-0.0007588382 -0.0022091945 -0.0065817744
0.0032724894 -0.0020879246 -0.006539423
0.0072563887 -0.00075924548 -0.0065394207
0.0067821159 -0.00075924548 -0.0065394207
0.0092483405 0.0025150001 -0.006539423
0.011240293 0.00075924443 -0.006253561
0.011240291 -0.0012812263 -0.0065394212
-0.0012805391 0.001281227 -0.0065870676
-0.00075883797 0.0012812265 -0.0065870681
-0.0012805392 0.00075924501 -0.0065870681
-0.0017548134 0.00075924495 -0.006587069
-0.0017548135 0.001281227 -0.0065870672
-0.00073573255 0.0021986489 -0.0065614106
-0.00075883814 0.0025150001 -0.006539423
0.00023713693 0.001281227 -0.0065870667
0.0007588382 0.0012812265 -0.0065870681
0.0092483405 -0.0025149998 -0.0042524999
0.0087740663 -0.0025149998 -0.0042524999
0.0082523655 -0.0025150003 -0.0042524999
0.0097226137 -0.0025149998 -0.0022514425
0.0072473562 -0.0025149998 -0.0062172571
0.0062604155 -0.0025150008 -0.0052530295
0.0067821164 0.0025150003 -0.0012509134
0.0042210375 0.0025149998 -0.00025038468
0.0047427388 0.0025150003 -0.00025038468
0.0082523646 0.0025150003 -0.00072682695
0.0051772757 0.0012889218 0.0026623525
0.00491664 0.0012970441 0.0022271157
0.0049324483 0.0013067779 0.002696228
0.0052644401 0.0025149998 -0.00025038468
0.00491664 0.0012970441 0.0012742311
0.0099123241 0.0012337737 0.002512981
0.010155246 0.0012765975 0.0026733449
0.0077282628 -0.0022795401 -0.00029983814
0.0082696117 -0.0025149996 -0.00031102262
0.0077306638 -0.0025149998 -0.00034567295
0.0062791635 0.0021949706 -0.0065682302
0.011208672 -0.0021902141 -0.00072576827
0.011240295 0.00075924443 -0.0042525013
0.011050581 -0.0025150001 -0.0022514423
0.010244315 -0.0025150003 -0.0027278843
-0.0062604155 -0.0025150003 -0.0062535573
-0.0062604155 -0.0025150008 -0.0052530291
-0.0047427383 -0.0025150008 -0.0052530286
-0.0097226147 -0.0025149998 -0.0062535582
-0.0097226137 -0.0025149998 -0.005777115
-0.0092483396 -0.0025149998 -0.0062535577
-0.0092483405 -0.0025149998 -0.005777115
-0.010766017 -0.0022302829 -0.0065394212
0.0082523599 0.00075924484 -0.0065870704
0.0087740663 0.00075924507 -0.0065870681
0.0087532466 0.00025809713 -0.0065766079
0.0042191008 0.0017518805 -0.0065860949
0.0047427388 0.0017557538 -0.0065870686
0.0062604141 0.00075924484 -0.0065870681
0.0057387142 0.001281227 -0.0065870686
0.0057387128 0.00075924501 -0.0065870672
0.0057387133 0.00023726415 -0.0065870676
0.0062423064 -0.00022691076 -0.006582737
0.0057387138 -0.00023726415 -0.0065870672
0.0057512419 -0.00073507114 -0.0065807756
0.0067896051 -0.0001998014 -0.0065720198
-0.010244315 0.0025150003 -0.0037760576
0.011098009 0.0025149998 -0.0022514421
0.010244315 0.0025150003 -0.0037760574
0.0082523646 0.0025150008 -0.0012509136
0.0092483405 0.0025149998 -0.0022514423
0.0082523646 0.0025150003 -0.0022514423
-0.0022290868 0.0025150003 -0.0032519714
-0.0017548132 0.0025150003 -0.0032519712
-0.0017548134 0.0025149998 -0.0027278846
0.0047427383 0.0025150008 -0.0052530295
0.0062604151 0.0025150003 -0.0042524999
0.0047427397 0.0025150003 -0.0042525008
0.0052644396 0.0025149998 -0.0047289417
0.0062604151 0.0025150003 -0.0047289426
0.0057387133 0.0025149998 -0.0047289426
0.0052644401 0.0025150003 -0.0052530286
-0.0047427397 0.0025150003 -0.0017749997
-0.004221037 0.0025149998 -0.0017749999
-0.0037467631 0.0025149998 -0.0017750001
-0.00075883814 0.0025150003 -0.0062535587
-0.00023713693 0.0025150001 -0.006539423
-0.00023713699 0.0025149998 -0.0062535573
0.00023713699 0.0025149998 -0.0062535573
-0.0042210375 0.0025150003 -0.0012509134
-0.0037467633 0.0025150003 -0.0012509131
-0.0032724892 0.0025150003 -0.0012509134
-0.0057387138 0.0025150003 -0.0012509136
-0.0012805394 0.0025149998 -0.0027278846
-0.0012805393 0.0025149998 -0.0022514423
-0.00075883814 0.0025150003 -0.0027278846
-0.0017548132 0.0025149998 -0.0022514428
-0.0047427383 0.0025150001 -0.006539423
-0.004221037 0.0022302829 -0.0065394212
-0.004221038 0.0025150001 -0.006539423
-0.0032724896 0.0025149998 -0.0017749999
-0.0027507888 0.0025150003 -0.0027278848
-0.0037467636 0.0025149998 -0.0022514425
0.00023713699 0.0025150003 -0.0012509134
-0.00023713702 0.0025150003 -0.0012509136
-0.00023713696 0.0025149998 -0.00072682695
0.0023950834 -0.0012456366 0.00075609959
0.0026559327 -0.0012812262 0.00075014425
0.0022290878 -0.0022664401 -0.00025945972
0.0026160949 0.0012888195 0.00075014425
0.002617761 0.001290486 0.0012695829
0.0027507893 0.0022777379 -0.00025038468
0.0042210394 0.00023726394 -0.00072682719
0.0049125599 0.0012995953 0.00021991017
0.0062581976 0.0022790688 -0.00027353875
0.0047427388 0.0025150001 -0.006539423
0.0042210375 0.0025150001 -0.006539423
0.0077205012 0.002209946 -0.0065496308
0.0082642222 0.0022184202 -0.0065453765
0.0077306633 0.0025149998 -0.0062535582
0.0027507881 0.0025150001 -0.006539423
0.0022019858 0.0022031676 -0.0065666465
0.0027584385 0.0022241604 -0.0065424945
0.0022290871 0.0025150001 -0.006539423
-0.00075883814 -0.0025150008 -0.0052530291
0.00075883808 -0.0025150003 -0.0042524999
-0.0042210375 0.001755755 -0.0065394212
-0.0077306614 -0.00075924495 -0.0065870681
-0.0072563891 -0.001281227 -0.0065870686
-0.0072563891 -0.00075924495 -0.0065870686
-0.0087740645 -0.001281227 -0.0065870686
-0.0082523646 -0.0012812265 -0.0065870672
0.0067648706 -0.0021008663 -0.0065394235
0.006247934 -0.0021453674 -0.0065394216
0.0062604141 -0.0017557552 -0.0065394207
0.0062147775 -0.00074760581 -0.0065699881
0.0057387138 -0.0012812264 -0.0065394212
0.0047427388 -0.0022302831 -0.0065394207
0.0047427383 -0.00075924478 -0.0065870686
0.0027507886 0.00023726413 -0.006587069
0.0017548135 -0.00023726413 -0.0065870686
-0.0032724887 -0.00075924495 -0.0065870699
0.00075883843 -0.00075924484 -0.0065870699
0.00023713696 0.00023726413 -0.006587069
-0.00023713693 0.00075924501 -0.0065870686
0.0012805397 -0.001281227 -0.0065870676
0.0062604151 -0.0025150003 -0.005777115
0.0057387124 -0.0025149998 -0.0047289422
0.0052644396 -0.0025150003 -0.0052530295
-0.0017141612 -0.0025150001 -0.0065666484
-0.0037467633 -0.0025150003 -0.0052530291
-0.0032724894 -0.0025150003 -0.0052530291
-0.0027507883 -0.0025150003 -0.0047289422
-0.0027507888 -0.0025150008 -0.0052530286
-0.0037467636 -0.0025150001 -0.006539423
-0.0022290875 -0.0025149998 -0.0057771159
-0.0027507888 -0.0025150003 -0.0057771155
-0.0022290871 -0.0025150003 -0.0052530286
0.0047427393 -0.0025150003 -0.0057771155
-0.0092483405 -0.0025150001 -0.006539423
-0.0087740654 -0.0025149998 -0.005777115
-0.010766018 -0.0025149998 -0.0037760574
-0.010244315 -0.0025150003 -0.0037760574
-0.0082523646 -0.0025150008 -0.0052530291
-0.0092483396 -0.0025150003 -0.0052530277
-0.010766017 -0.0025149998 -0.0047289417
0.011192862 -0.0022302854 -0.0032519712
0.011192862 -0.0022302857 -0.002727885
0.011192859 -0.0022302857 -0.0037760572
0.010244314 -0.0025150003 -0.0042525004
0.0097226147 -0.0025149998 -0.0037760579
0.011192861 -0.0022302857 -0.0042525013
0.0087740673 -0.0025150003 -0.0032519712
0.0097102402 -0.0017392498 -0.0065394212
0.0097226147 -0.0012812263 -0.0065394212
0.010260124 -0.0022302847 -0.0062323851
0.010244314 -0.0025150008 -0.00525303
0.010230764 -0.0025150001 -0.0057635023
0.011240293 -0.00075924495 -0.0052530356
0.010766018 -0.0012812263 -0.0065394212
0.0092551149 0.00026663975 -0.0065779919
0.0097226137 -0.00075924542 -0.0065394207
0.0082523655 -0.0025150003 -0.0047289426
-0.010244316 -0.0025150003 -0.0017749999
-0.010244315 -0.0025150003 -0.0027278848
-0.0097226137 -0.0025149998 -0.0027278846
-0.0097226147 -0.0025150003 -0.0012509136
-0.0097226156 -0.0025150003 -0.0032519712
-0.0082523646 -0.0025150003 -0.0022514423
-0.0087740673 -0.0025149998 -0.0022514423
-0.0077306633 -0.0025150003 -0.0012509134
0.011240288 0.00023726394 -0.0022514418
0.01124029 0.00075924443 -0.0017750005
0.011240292 -0.001281227 -0.002727885
0.011240294 -0.0017557559 -0.0042525013
0.00023713696 0.0025149998 -0.00025038468
-0.00023713682 0.0022777384 -0.00025038468
-0.0012805396 0.00075924443 -0.00072682672
-0.00075883802 0.0013615306 -0.00022106501
-0.0012743194 0.0013683528 -0.00023163925
-0.0017548134 0.0025150003 -0.0012509134
-0.0012805394 0.00023726394 -0.00072682695
-0.0032724887 -0.0013286785 -0.00025038468
-0.0057387138 -0.0025149998 -0.00072682695
-0.0052644401 -0.0025149998 -0.00072682695
0.0051506143 -0.00133817 0.00075014425
0.00017091761 -0.0012758549 0.0017488755
-0.00012177302 -0.0012863568 0.0022348419
0.00075883814 -0.0025150008 -0.0012509136
0.0012805394 -0.0025149998 -0.00072682695
-0.00023713679 -0.0022664401 -0.00025945972
0.002653522 -0.0012828351 0.0022255003
0.0024101736 -0.0012380875 0.0022097903
0.0026491587 -0.0012513993 0.00265183
0.0027507886 -0.0025150003 -0.00025038468
0.002750789 -0.0022664396 -0.00025945948
0.0027507886 -0.0025150003 -0.00072682695
0.0057387138 -0.0025149998 -0.00029802881
0.0062604151 -0.0025150003 -0.00072682695
0.0067821159 -0.0025149998 -0.00029802881
0.0017548132 -0.0025149998 -0.00025038468
-0.00023713699 -0.0025149998 -0.0057771145
0.0062604151 -0.0025150003 -0.0042525004
0.0062604151 -0.0025150003 -0.0037760574
0.0067821164 -0.0025149998 -0.0037760574
0.0067821164 -0.0025149998 -0.0042525004
0.0072563905 -0.0025150003 -0.0032519712
0.0047427383 -0.0025150003 -0.0047289426
0.0042210375 -0.0025149998 -0.0047289417
0.00075883843 -0.00023726391 -0.00072682672
0.0022290866 -0.00023726396 -0.00072682649
0.010244315 -0.0025150003 -0.0017749998
0.011240291 -0.00023726391 -0.0032519698
0.0077416068 -0.0012556755 0.00076663657
0.011240287 -0.00023726393 -0.0027278839
0.010766016 0.0015849251 -0.00032661529
0.010766018 0.0025149998 -0.00072682695
0.0097226147 0.0025149998 -0.00072682695
0.011240293 0.00075924443 -0.0027278857
0.01069906 -0.0025149998 -0.0017862102
0.0062604132 0.00023726391 -0.00072682672
0.005208544 0.001272753 0.00022265455
0.0062604146 0.0025150003 -0.005777115
0.0062604146 0.0025150008 -0.0052530295
0.0082523655 0.0025150003 -0.0062535577
0.0077306638 0.0022861122 -0.0002840159
0.0072563896 0.0022861122 -0.0002840159
0.0026203638 0.0012930902 0.0022271157
0.0023750179 0.0013250292 0.0026229287
0.0026120199 0.0013023167 0.002668266
0.0023429126 0.0013381699 0.0022271152
0.0023429128 0.0013381697 0.0017506729
0.0049166395 0.0012970441 0.0017506734
0.0052012019 0.0012741968 0.0017489085
0.0012805393 0.0022777384 -0.00025038468
0.00014775465 -0.0012775767 0.0027145527
7.9045647e-05 -0.0012812265 0.0030847115
-7.1141076e-05 -0.0012574999 0.0026559134
0.0023370252 0.0013204978 0.0012479445
0.0032724899 0.0025149998 -0.00025038468
0.0032724899 0.0025149998 -0.00072682695
0.0067821168 0.0025149998 -0.0037760574
0.0062604151 0.0025150003 -0.0037760576
0.0067821168 0.0025149998 -0.00025038468
-0.00017677486 0.0012725985 0.00075014425
-0.00019372885 0.0012731837 0.00022444269
-0.00023713685 0.00023726396 -0.00072682672
-0.00075883849 0.0022777377 -0.00025038468
0.00011518079 0.0012812268 0.0022271147
-0.00017677486 0.001272599 0.0022271152
9.4854753e-05 0.001278063 0.0026940287
-0.00014615383 0.0012812271 0.0027016129
-4.7427391e-05 0.0012812265 0.0030847115
-0.0032724896 -0.0025149998 -0.00072682695
-0.0047427393 -0.0025150008 -0.0012509134
-0.0023808549 -0.0012622452 0.0017506734
-0.0023808547 -0.0012622454 0.0012742307
-0.00076070573 -0.0022646599 -0.00026013842
-0.0017548131 -0.0025150003 -0.0012509134
-0.0052644401 -0.0025149998 -0.0022514425
-0.0027507886 -0.0025150003 -0.0022514428
-0.0037467633 -0.0025150003 -0.003251971
-0.0037467636 -0.0025149998 -0.0022514423
-0.0037467636 -0.0025149998 -0.0027278846
-0.0022231585 -0.0017478456 -0.0065850825
-0.0037467638 -0.0025149998 -0.0042525004
-0.0067821168 -0.0025149998 -0.0027278846
-0.0067821173 -0.0025150003 -0.0032519712
-0.0072563905 -0.0025149998 -0.002727885
-0.0067821168 -0.0025149998 -0.0022514425
-0.0062604146 -0.0025150003 -0.001775
-0.0047427388 -0.0025150003 -0.0022514423
-0.0072563905 -0.0022619208 -0.00027307239
-0.0072563891 0.0025149998 -0.00072682695
-0.0074460995 0.0012812265 0.00075014425
-0.0037467638 0.0025149998 -0.00025038468
-0.0047427388 0.0025150003 -0.00025038444
-0.0052644401 0.0023028601 -0.00026720017
-0.0057387142 0.0025149998 -0.00025038468
-0.0057364539 0.0023037242 -0.00026966911
-0.0082523646 0.0025150008 -0.0012509134
-0.0082523655 0.0025150003 -0.0017749999
-0.0087740663 0.0025149998 -0.0022514423
-0.0082523655 0.0025150003 -0.0022514423
-0.0062604155 0.0025150008 -0.0012509131
0.011098009 0.0025149998 -0.0047289426
0.011192862 0.001755755 -0.0037760576
0.0097226147 0.0025149998 -0.0022514425
0.011192864 0.001755755 -0.0022514409
0.011192859 0.001755755 -0.002727885
0.011223797 0.0012688475 -0.0022514411
-0.0051966864 0.0013219009 0.00075014425
-0.0057387128 0.0013464733 -0.0002444291
-0.0052089151 0.0013090043 0.00019816845
-0.0057387124 -0.0022619208 -0.00027307239
-0.0057387119 -0.0013370527 -0.00024477928
-0.01124029 -0.00023726413 -0.0065394212
-0.0097226137 0.00023726416 -0.0065394212
-0.0087740663 0.0016827506 -0.0065394226
-0.0083156014 0.0023884589 -0.006539423
-0.011223796 0.0022179068 -0.0057771141
-0.011240288 0.001281227 -0.0062535629
-0.010244316 0.0025150008 -0.0052530295
-0.011098009 0.0025149998 -0.0057771155
-0.0092483396 0.0025149998 -0.0042525004
-0.0082523637 0.0025150008 -0.0032519707
-0.0087740673 0.0025150003 -0.0032519712
-0.0097226147 0.0025149998 -0.0047289426
-0.011240288 0.001281227 -0.0047289412
-0.011240293 0.00023726396 -0.002727885
-0.0087740663 0.0025149998 -0.0062535591
-0.010766016 0.00023726415 -0.0065394212
-0.010244316 0.00075924542 -0.0065394207
-0.011192861 -0.0022302857 -0.0062535596
-0.0097226137 -0.00075924495 -0.0065870672
-0.0082523637 -0.00075924484 -0.0065870704
-0.0062604127 -0.0012812265 -0.0065870704
-0.0077306614 -0.00023726415 -0.0065870676
-0.0072563891 0.00023726419 -0.0065870686
-0.010740148 -0.0012553433 -0.0065625217
-0.01124029 -0.00023726396 -0.0017750006
-0.011240291 -0.00075924443 -0.0017750005
-0.011240293 -0.00075924495 -0.0012509129
-0.011240293 -0.00023726394 -0.0037760558
-0.01124029 -0.00075924495 -0.0032519707
-0.011240295 -0.001281227 -0.0022514407
-0.011240291 -0.001281227 -0.002727886
-0.011240291 0.0012812278 -0.003251971
-0.011240292 0.0012812277 -0.0012509134
-0.01124029 0.00075924443 -0.0017750011
-0.011240294 0.00023726394 -0.0017750012
-0.010244315 0.00023726391 -0.00072682695
-0.0098807057 -0.0013128616 0.00022605783
-0.0087740654 -0.0022619208 -0.00027307239
-0.010244315 -0.0025149996 -0.00029802881
-0.010766017 0.0025149998 -0.0022514423
-0.0097226137 0.0025149998 -0.0022514425
-0.0082523646 0.0025150003 -0.0027278843
-0.0087740663 0.0025149998 -0.0027278846
-0.0087740691 -0.00023726393 -0.00072682672
-0.0082523637 -0.0022619201 -0.00027307239
-0.0082523646 -0.0025150003 -0.00072682672
-0.0072563887 0.00023726394 -0.00072682672
-0.0067821154 0.00023726394 -0.00072682672
-0.0077306628 0.0025150003 -0.003251971
-0.0077306642 0.0025149998 -0.0037760576
-0.0072563901 0.0025150003 -0.0032519712
-0.0072563901 0.0025149998 -0.0037760576
-0.0037349055 0.00074738223 -0.006545376
-0.0032651934 0.0012739259 -0.0065430859
-0.0037467631 0.0012812263 -0.0065394212
0.0077306633 0.0025149998 -0.0047289426
0.0067821173 0.0025149998 -0.0047289426
0.0017548134 0.0022065579 -0.0065805702
-0.0022290868 0.00075924501 -0.0065870686
-0.0022290871 0.00023726415 -0.0065870686
0.00023713693 -0.0025150001 -0.006539423
-0.00075883814 -0.0025150001 -0.006539423
0.00023713696 -0.0025149998 -0.0062535573
0.0022290868 -0.001281227 -0.0065870667
0.0022290866 -0.00075924495 -0.0065870699
0.0012805394 -0.0025150001 -0.006539423
0.0082345819 -0.00072563294 -0.0065632439
0.0077306633 -0.0012812263 -0.0065394212
0.0077306633 -0.001755755 -0.0065394212
0.010244315 0.0025150008 -0.00525303
0.0097226147 0.0025149998 -0.0062535577
0.0092483405 0.0025149998 -0.0057771145
0.0087740682 0.0025149998 -0.0062535577
0.0087740663 0.0025149998 -0.005777115
0.0087740663 0.0025150001 -0.006539423
0.0092483396 0.0025149998 -0.0062535591
0.01124029 0.00075924443 -0.0057771173
0.01124029 -0.00075924548 -0.0065394207
0.010766014 -0.00075924542 -0.0065394207
0.011240297 -0.00023726394 -0.0052530314
0.01124029 -0.001281227 -0.0062535596
0.011240287 -0.00075924443 -0.006253561
-0.0087740673 0.0025149998 -0.0042525004
-0.0062604151 0.0025150003 -0.0062535577
-0.0052644401 0.0025150001 -0.006539423
-0.0062604151 0.0025150001 -0.006539423
-0.0057387142 0.0025149998 -0.0042524994
-0.0057387142 0.0025149998 -0.0037760572
-0.0062604146 0.0025150003 -0.0037760574
-0.00023713701 0.001281227 -0.0065870676
0.00075883826 0.0017557538 -0.0065870676
0.00023713699 0.00075924495 -0.0065870676
0.0072563901 -0.0025149998 -0.0057771145
0.0067821168 -0.0025149998 -0.0062535577
0.0062604155 -0.0025150008 -0.003251971
0.0067821136 0.0022861122 -0.0002840159
0.0062750075 0.0025149998 -0.00027970411
0.0042240997 0.002283351 -0.00026472914
0.0042210375 0.0025149998 -0.00072682672
0.0082523655 0.0025149996 -0.00029802881
0.0092483405 0.0025149998 -0.00029802881
0.0092483405 0.0025149998 -0.00072682695
0.0057257791 0.0025149996 -0.0002763723
0.0057387138 0.0025149998 -0.00072682695
0.0076954314 -0.0012839383 0.0022189475
0.0074461 -0.0012812265 0.0022271152
0.0074460995 -0.0012812265 0.002512981
0.0076961708 -0.0012812263 0.0026429195
0.0074099652 0.0012857456 0.0022316531
0.0077047921 0.0012570691 0.0022236507
0.0077088913 0.0012625565 0.0017522357
0.0076982728 0.0012372462 0.0026965856
0.0072563901 -0.0025149998 -0.00029802881
0.0062604155 -0.0025150008 -0.0012509131
0.0072529619 -0.0022691623 -0.00030319509
0.011240286 -0.0012812269 -0.0017750004
0.0057387142 0.0025149998 -0.0062535573
0.0057387138 0.0017557542 -0.0065870704
0.0062604151 0.0025150001 -0.006539423
0.011192864 -0.0022302857 -0.0022514411
0.01124029 0.00023726394 -0.0052530309
0.01124029 0.00023726394 -0.0057771164
0.01124029 -0.00023726394 -0.0057771169
-0.0082523655 -0.0025150003 -0.0062535587
-0.0057387138 -0.0025150001 -0.006539423
-0.0062604155 -0.0025150003 -0.005777115
-0.0057387138 -0.0025150003 -0.0052530291
-0.0097226147 -0.0025150001 -0.006539423
0.0087740682 0.001281227 -0.0065870672
0.0082523674 0.0012812265 -0.0065870676
0.0042210366 0.001281227 -0.0065870672
0.010244315 0.0025150003 -0.0022514423
0.011098009 0.0025149998 -0.0032519714
0.011098009 0.0025149998 -0.0012509136
0.011192858 0.0022302857 -0.0022514416
0.010766017 0.0025149998 -0.0017749999
0.0097226147 0.0025150003 -0.0032519707
0.0097226137 0.0025150003 -0.0012509136
0.0087740663 0.0025150003 -0.0032519719
0.0087740663 0.0025149998 -0.0022514425
0.0082523664 0.0025150003 -0.0027278848
-0.0027468363 0.0012713411 -0.0065751579
-0.0012737641 0.0017263792 -0.0065779919
-0.0017548134 0.0017150814 -0.006566646
-0.0012805394 0.0022302831 -0.0065394212
-0.00023713701 0.0025150003 -0.0052530291
-0.00075883814 0.0025150008 -0.0052530291
-0.00075883808 0.0025150003 -0.005777115
-0.0012805394 0.0025150001 -0.006539423
-0.0012805393 0.0025149998 -0.0057771159
-0.00075883814 0.0025150008 -0.0032519712
-0.00075883814 0.0025150003 -0.0037760574
-0.00075883814 0.0025150003 -0.0042524994
-0.00023713696 0.0025149998 -0.0037760574
-0.00023713698 0.0025150003 -0.003251971
-0.0052644401 0.0025149998 -0.0037760576
-0.0052644396 0.0025150003 -0.003251971
-0.0052644401 0.0025149998 -0.0022514423
-0.0017548132 0.0025149998 -0.0017749998
-0.00075883814 0.0025150003 -0.0022514421
0.0047427393 0.0025150003 -0.005777115
0.00075883814 0.0025150008 -0.0032519714
0.00075883814 0.0025150003 -0.0022514423
0.0012805393 0.0025150003 -0.003251971
0.00075883814 0.0025150003 -0.0027278843
0.0037467631 0.0025149998 -0.0042525004
0.0037467636 0.0025150003 -0.0052530295
0.0027507888 0.0025150008 -0.0052530295
-0.0012805394 0.0025149998 -0.00025038468
-0.0017548135 0.0025149998 -0.00025038468
-0.0012805394 0.0025149998 -0.00072682695
-0.0017548132 0.0025149998 -0.00072682672
-0.0022290873 0.0025149998 -0.00072682695
-0.0022290871 0.0025149998 -0.0027278846
-0.0012805394 0.0025150003 -0.0032519712
-0.0012805394 0.0025149998 -0.0037760574
-0.0032724894 0.0025149998 -0.0022514425
-0.0022290873 -0.0025149998 -0.0047289426
-0.0012805394 0.0022777384 -0.00025038468
0.0062604151 0.0025150008 -0.0012509136
0.0023325649 0.00130711 0.00022605783
0.0047427369 0.00023726391 -0.00072682695
0.0052012028 0.0012741968 0.0012707019
0.0077306642 0.0025150001 -0.006539423
0.0022290873 -0.0025149998 -0.0017749999
0.0027507883 -0.0025150003 -0.0017749999
0.0047427388 -0.0025150008 -0.003251971
0.0022290873 -0.0025149998 -0.0022514428
0.0022290873 0.0025149998 -0.0062535577
0.0017548135 0.0025149998 -0.0062535577
0.0007588382 0.0025150003 -0.0017749997
-0.0017548132 -0.0025150003 -0.0052530286
-0.0022290873 -0.0025149998 -0.0042524999
-0.00023713699 -0.0025150003 -0.0052530291
-0.0042210375 -0.0025150001 -0.006539423
-0.0027507886 -0.0025150003 -0.0062535577
-0.0027507881 -0.0025150001 -0.006539423
0.00075883826 -0.0025150003 -0.005777115
0.0027507888 -0.0025150008 -0.00525303
0.0037467633 -0.0025150003 -0.0052530291
0.0037467636 -0.0025149998 -0.0042525004
0.0007588382 -0.0025150003 -0.0037760576
0.0012805393 -0.0025149998 -0.0037760576
0.0012805393 -0.0025149998 -0.0042525004
0.0012805394 -0.0025149998 -0.0047289426
-0.0057331347 -0.0021912048 -0.0065646446
-0.0062884395 -0.002202244 -0.0065697418
-0.0077306633 -0.001281227 -0.0065870676
-0.0077306633 -0.0017557542 -0.0065870676
-0.0072563882 -0.00023726416 -0.0065870667
0.0042144954 -0.0012648635 -0.0065525649
0.0037559432 -0.001250612 -0.0065578641
0.004221037 -0.001755755 -0.0065394212
0.0047427374 -0.00023726416 -0.0065870699
0.004221038 -0.00023726415 -0.006587069
0.0047750752 -0.0012553437 -0.0065697418
0.0052506421 -0.0007445779 -0.0065827374
0.0052415431 -0.0012648635 -0.0065525649
0.001754813 -0.00075924501 -0.006587069
0.0022290866 -0.00023726416 -0.0065870676
-0.0037467633 -0.00075924501 -0.0065870699
-0.004221037 -0.001281227 -0.0065870695
-0.0027507881 -0.00023726418 -0.006587069
-0.0067821173 -0.001281227 -0.0065870676
-0.0072563901 -0.0017557542 -0.006587069
0.0012805392 -0.00075924501 -0.0065870699
0.00075883843 -0.0012812265 -0.0065870686
0.00075883814 -0.00023726413 -0.0065870686
-0.00023713701 -0.00075924507 -0.006587069
0.0057387142 -0.0025149998 -0.005777115
0.0057387133 -0.0025149998 -0.0062535591
-0.0027507883 -0.0025150003 -0.0042524999
-0.0022290871 -0.0025149998 -0.0037760579
-0.0027507886 -0.0025150003 -0.0037760572
-0.0017548132 -0.0025149998 -0.0037760572
-0.0012805393 -0.0025150003 -0.0032519712
-0.0012805394 -0.0025149998 -0.0037760576
-0.00023713693 -0.0025149998 -0.0027278846
-0.00075883808 -0.0025150003 -0.0027278843
-0.0007588382 -0.0025150008 -0.0032519712
0.0042210375 -0.0025149998 -0.0062535573
-0.0077229706 -0.0021764184 -0.006580628
0.0072563905 -0.0025149998 -0.0037760574
0.0077306633 -0.0025150003 -0.003251971
-0.0087740663 -0.0025149998 -0.0042524994
-0.0087740663 -0.0025149998 -0.0037760574
-0.010244315 -0.0025150003 -0.0042525004
-0.0087740663 -0.0025150003 -0.0052530291
-0.0097226156 -0.0025149998 -0.0047289426
-0.01124029 -0.00075924443 -0.0042525027
0.0097226147 -0.0025149998 -0.0042525004
0.0092483405 -0.0025149998 -0.0037760574
0.0087740663 -0.0025149998 -0.0037760576
0.0082523655 -0.0025150003 -0.0037760576
0.01124029 -0.00075924443 -0.0042524999
0.0097226147 -0.0025149998 -0.0047289422
0.010244314 -0.0012812265 -0.0065394207
0.010244315 -0.00075924554 -0.0065394207
0.0097226147 -0.00023726416 -0.0065394212
0.010244315 -0.00023726419 -0.0065394207
0.0097107571 0.000269888 -0.0065602656
0.0087740663 -0.0025149998 -0.0057771159
0.0092483405 -0.0025149998 -0.005777115
0.003746764 -0.0022302831 -0.0065394212
-0.0087740663 -0.0025150003 -0.0012509136
-0.0097226128 -0.0025149998 -0.0037760574
-0.0092483405 -0.0025149998 -0.0022514423
-0.0072563905 -0.0025149998 -0.0022514425
-0.0087740654 -0.0025149998 -0.0017749998
0.011240297 -0.001281227 -0.0047289412
-0.0017548134 0.0022777384 -0.00025038468
-0.0012805393 0.0025149998 -0.0017749998
-0.00075883814 0.0025150003 -0.0017749997
-0.0027507877 0.00023726391 -0.00072682672
-0.002385804 0.0012688471 0.00021362887
0.00023713679 0.0022777384 -0.00025038468
-0.00075883814 0.0025150008 -0.0012509136
-0.0027507886 0.0025150008 -0.0012509136
-0.0007588389 0.00023726391 -0.00072682672
-0.0012805399 -0.00023726396 -0.00072682695
-0.0017548135 0.00023726394 -0.00072682695
-0.00075883896 -0.00023726391 -0.00072682695
-0.0037467638 0.0025149998 -0.0042524999
-0.0037467636 0.0025149998 -0.0037760574
-0.0032724896 0.0025149998 -0.0037760576
-0.0032724896 0.0025149998 -0.0042524999
-0.0047427383 0.0025150003 -0.0037760572
-0.0052644401 0.0025149998 -0.0057771145
-0.0047427388 0.0025150003 -0.005777115
-0.0052644406 0.0025150003 -0.0052530291
-0.0026243159 -0.0012495916 0.00019429484
0.0052644396 -0.0025149998 -0.00029802881
0.0051506143 -0.0013381697 0.0012742307
0.0051506143 -0.0013381697 0.0017506729
0.0049324487 -0.0013286792 0.0017506734
0.00017677485 -0.001272599 0.0022271157
-0.00075883826 -0.0025150008 -0.0012509134
0.0017548132 -0.0025149998 -0.0022514423
0.0007588382 -0.0025150003 -0.0022514423
0.00075883826 -0.0025150003 -0.00072682695
-0.00023713701 -0.0025149998 -0.00025038468
0.0026203638 0.0012930902 0.0017506734
0.0049377177 -0.0013286792 0.0022059402
0.0049798754 -0.0013761321 0.0026082692
0.0051296465 -0.0013361718 0.0026734665
0.0051506143 -0.0013381697 0.0022271152
0.0062604151 -0.0025149996 -0.00029802881
0.0026559334 -0.0012812265 0.0017506734
0.0012805392 -0.0013314699 -0.00023917411
0.0017548135 -0.0025149998 -0.00072682695
0.0024187968 -0.0012337737 0.0025606251
0.0017580841 -0.0013303148 -0.0002438128
0.0017548138 -0.0022664401 -0.00025945972
0.0023871786 -0.0012432641 0.0002006474
0.0062604146 -0.0025150003 -0.0047289422
0.0072563896 -0.0025150003 -0.0052530295
0.0052644401 -0.0025149998 -0.0047289422
0.0017548141 -0.00023726394 -0.00072682649
0.0087740673 -0.0015849251 -0.00032661529
0.0074460995 -0.0012812265 0.00075014425
0.0077306642 -0.00023726396 -0.00072682672
0.0067821168 -0.0022637814 -0.00030643656
0.0082523627 0.0013464735 -0.0002444291
0.0082523646 0.0025150003 -0.0017749998
0.0077306633 0.0025150003 -0.0012509134
0.0077306642 0.0025149998 -0.0017749998
0.0073986724 0.0012682845 0.00019573863
0.0067821154 0.0013464733 -0.0002444291
0.0067821168 0.00023726396 -0.00072682672
0.0052623544 0.0022688734 -0.00026923278
0.0057387142 0.0025149998 -0.0037760572
0.0057387142 0.0025150003 -0.0032519712
0.0067821164 0.0025150003 -0.0032519712
0.0027507888 0.0025150003 -0.00072682672
0.0012805394 0.0025149998 -0.00025038468
0.0027507886 0.0025150003 -0.00025038468
0.0057387142 0.0025149998 -0.0027278846
0.0062604146 0.0025150003 -0.0027278848
-0.00017677483 0.001272599 0.0017506734
0.00011518077 0.0012812268 0.0017506734
-0.0042210375 -0.0025150003 -0.0012509134
-0.0047427393 -0.0025150003 -0.00072682672
-0.0052644401 -0.0025150003 -0.0012509136
-0.00075883849 -0.0013314702 -0.00023917435
-0.0017548132 -0.0025150003 -0.0032519707
-0.0032724899 -0.0025149998 -0.0047289417
-0.0077306642 -0.0025149998 -0.0022514423
-0.0092562446 0.0025149996 -0.00025832513
-0.0087740663 0.0025149998 -0.00029802881
-0.0072527397 0.0023069398 -0.00028581242
-0.0082523646 0.0025150003 -0.00072682695
-0.0092483405 0.0025150003 -0.0012509134
-0.0072563896 0.0025150003 -0.0012509134
-0.0072563901 0.0025149998 -0.0017749998
-0.0077306628 0.0025149998 -0.0017749999
-0.0067821159 0.0025149998 -0.0022514425
-0.0062604155 0.0025150003 -0.0022514428
-0.0062604151 0.0025150003 -0.0027278846
0.011192861 0.001755755 -0.0017750009
-0.0042210375 -0.0013370526 -0.00024477928
-0.0052644387 -0.0022619208 -0.00027307239
-0.0092483414 0.00023726416 -0.0065394212
-0.0097226156 0.00075924554 -0.0065394207
-0.0092483414 0.00075924548 -0.0065394207
-0.010766017 0.0025149998 -0.0062535577
-0.011050581 0.0010914152 -0.006539423
-0.011240291 0.00023726394 -0.0032519705
-0.0097226147 0.0025149998 -0.0062535577
-0.0082523646 0.0025150003 -0.0037760581
-0.0077306624 -0.0025149998 -0.0027278843
-0.011240294 -0.0012812278 -0.0032519707
-0.011192861 -0.0022302857 -0.0057771164
-0.0097226128 -0.001281227 -0.006587069
-0.0082523627 -0.0002372641 -0.0065870686
-0.01124029 -0.00023726391 -0.0032519691
-0.011240289 0.001281227 -0.0017750008
-0.011240292 0.00075924443 -0.002251443
-0.011240292 0.00023726391 -0.0012509136
-0.011240291 0.00023726394 -0.0022514425
-0.0097226175 0.00023726394 -0.00072682672
-0.0092483424 -0.0013370526 -0.00024477951
-0.0087740663 0.0025149998 -0.0017750001
-0.0067821168 0.0013464733 -0.0002444291
-0.0077306647 0.0025149998 -0.0027278846
-0.0092483405 0.0025149998 -0.0022514423
-0.0072563905 -0.00023726394 -0.00072682672
-0.0087740663 -0.0025149998 -0.0062535582
-0.0067821159 -0.00023726416 -0.0065870672
-0.0012710541 -0.002197067 -0.0065751551
-0.0012805394 -0.0025150001 -0.006539423
0.001754813 -0.001281227 -0.0065870676
0.00221752 -0.0017256627 -0.0065766084
0.0037467638 -0.0002372642 -0.0065870686
0.0027182398 -0.0012719225 -0.0065786606
0.0077385679 -0.00072497386 -0.0065553021
0.0072563901 -0.0012812263 -0.0065394212
0.0072563905 -0.001755755 -0.0065394212
0.0062604141 -0.0012812265 -0.0065394207
0.0097226137 0.0025150003 -0.0052530295
0.011240296 0.00023726397 -0.0062535596
0.011240282 -0.00023726396 -0.0062535582
0.01124029 -0.00023726416 -0.0065394212
-0.0087740663 0.0025149998 -0.0047289426
-0.0087740654 0.0025150003 -0.0052530295
-0.0082523646 0.0025150008 -0.0052530281
-0.0087740673 0.0025149998 -0.0037760576
-0.0062604146 0.0025150008 -0.0052530281
-0.0057387142 0.0025150003 -0.0052530291
-0.0057387138 0.0025150001 -0.006539423
-0.0057387138 0.0025149998 -0.0062535582
-0.0047427393 0.0025150003 -0.0062535577
-0.0042210375 0.0025149998 -0.0062535591
-0.0087740663 0.0025149998 -0.005777115
-0.007256391 0.0025150003 -0.0052530291
-0.0062604151 0.0025150003 -0.0042525004
-0.0062604155 0.0025150003 -0.0047289426
-0.0022290875 -0.00023726415 -0.0065870686
-0.0012805394 0.00023726413 -0.006587069
0.0012805397 0.001281227 -0.006587069
0.0012805394 0.0017557542 -0.0065870676
0.0067821159 -0.0025149998 -0.00072682672
0.0077306642 -0.0025149998 -0.0057771145
0.0067821159 -0.0025149998 -0.0057771159
0.0067821164 -0.0025150003 -0.0032519712
0.0067821168 -0.0025149998 -0.0027278843
0.0082523637 -0.0025150008 -0.0032519714
0.0077306628 -0.0025149998 -0.002727885
0.0082523646 -0.0025150003 -0.0027278843
0.0037467636 0.0025149998 -0.00072682695
0.0042210375 0.0025150003 -0.0012509134
0.0037467638 0.0025150003 -0.0012509136
0.004221037 0.0025149998 -0.0017749998
0.0027507888 0.0025150008 -0.0012509134
0.0047444296 0.0022768907 -0.00026399712
0.007411608 0.0012898541 0.0017463418
0.0051982203 0.0012758549 0.0022289136
0.0074169142 0.0012593251 0.0026522486
0.011240291 -0.001755756 -0.0012509136
0.0057331342 0.0021912048 -0.0065646446
0.0062604141 0.0017557538 -0.0065870686
0.0047427388 0.0012812265 -0.0065870704
0.011191668 -0.0022286903 -0.0012497115
0.01124029 -0.0017557559 -0.0022514409
0.010758721 -0.00022996373 -0.0065430859
0.011240296 -0.00075924443 -0.0057771206
-0.0057387142 -0.0025149998 -0.0062535573
-0.0052644401 -0.0025149998 -0.0057771159
-0.0052644406 -0.0025149998 -0.0062535582
-0.006782115 -0.0025149998 -0.0057771159
-0.0062604151 -0.0025150003 -0.0037760576
-0.0062604151 -0.0025150003 -0.0042525004
-0.0067821173 -0.0025149998 -0.0042524999
-0.0072563901 -0.0025149998 -0.0037760576
-0.0072563901 -0.0025150003 -0.0052530286
-0.007256391 -0.0025149998 -0.0062535577
-0.0072563901 -0.0025149998 -0.0057771159
-0.0057387138 -0.0025149998 -0.0047289422
-0.0052644401 -0.0025149998 -0.0042524999
-0.0052644401 -0.0025149998 -0.0047289426
-0.0072563891 -0.0025149998 -0.0042524999
-0.0077306624 -0.0025150003 -0.0032519712
-0.0047427393 -0.0025150003 -0.0057771145
-0.0052644401 -0.0025150003 -0.0052530295
-0.0047427393 -0.0025150003 -0.0047289422
-0.0097226147 -0.0025150003 -0.0052530286
0.0037538768 0.002197067 -0.0065751546
0.0032724899 0.0025150001 -0.006539423
0.0042040991 0.0022201145 -0.0065496303
0.004221037 0.0025150003 -0.0052530286
0.011130843 0.0025149998 -0.00070483726
0.011098009 0.0025149998 -0.001775
0.010766017 0.0025149998 -0.0022514425
0.010766016 0.0025149998 -0.002727885
0.010766017 0.0025149998 -0.0037760576
0.0087740663 0.0025150003 -0.0012509136
0.0092483405 0.0025149998 -0.0017749997
0.0097226147 0.0025149998 -0.0017750001
0.0087740663 0.0025149998 -0.002727885
-0.0037467629 0.001755755 -0.0065394212
-0.00023713696 0.0025149998 -0.0057771145
0.00023713696 0.0025149998 -0.0057771145
-0.0022290868 0.0022302831 -0.0065394212
-0.0027507886 0.0025150001 -0.006539423
-0.0027507883 0.0022302831 -0.0065394207
-0.0022290873 0.0025150001 -0.006539423
-0.0022164399 0.0017272835 -0.0065553025
-0.0027507888 0.0025150003 -0.0037760574
-0.0027507888 0.0025150003 -0.0042525004
-0.0037467636 0.0025149998 -0.0047289417
-0.0032724896 0.0025150003 -0.00525303
-0.0017548132 0.0025149998 -0.0042525004
-0.0022290871 0.0025149998 -0.0042524999
0.0032724899 0.0025149998 -0.0027278846
0.0037467638 0.0025150003 -0.003251971
0.0027507883 0.0025150008 -0.0032519712
0.0032724896 0.0025150003 -0.0032519712
0.0027507888 0.0025150003 -0.0027278846
0.0057387133 0.0025149998 -0.0042525004
0.0052644401 0.0025149998 -0.0037760579
-0.004221037 0.0025150003 -0.0032519707
-0.0047427388 0.0025150003 -0.0027278843
-0.004221037 0.0025149998 -0.0027278843
-0.0037467636 0.0025149998 -0.002727885
-0.0052644401 0.0025149998 -0.0027278843
-0.0057387138 0.0025150003 -0.003251971
-0.0022290873 0.0025149998 -0.0022514423
-0.0022290871 0.0025149998 -0.0017749999
-0.00023713696 0.0025149998 -0.0022514423
0.0047427393 0.0025150003 -0.0062535582
0.0042210375 0.0025149998 -0.0062535582
0.0037467636 0.0025150001 -0.006539423
0.00023713702 0.0025150003 -0.003251971
0.004221037 0.0025149998 -0.0037760574
0.0037467636 0.0025149998 -0.0037760576
0.0027507883 0.0025150003 -0.0062535582
0.0032724896 0.0025150003 -0.0052530295
0.0032724901 0.0025149998 -0.0057771145
0.004221038 0.0025149998 -0.0047289422
0.0037467638 0.0025149998 -0.0047289417
-0.0022290878 0.0022777384 -0.00025038468
-0.0027507881 0.0022777379 -0.00025038444
-0.0047427393 0.0022302831 -0.0065394207
0.0017548134 0.0025149998 -0.0022514423
0.0027507886 0.0025150003 -0.0022514423
0.0017548135 0.0025149998 -0.0027278846
0.0047427383 0.0025150008 -0.003251971
0.0047427393 0.0025150003 -0.0037760579
0.0082523637 0.0025150008 -0.0032519712
0.0047427388 0.0025150003 -0.00072682695
0.0072563901 0.0025150003 -0.0012509136
0.0072563891 0.0025149998 -0.0022514423
0.0062604155 0.0025150003 -0.0017749998
0.0062604141 0.0025150003 -0.00072682695
0.001766837 0.0013547444 -0.00023159524
0.004221038 -0.00023726396 -0.00072682672
0.0052644378 0.00023726394 -0.00072682649
0.0032724889 -0.0025149998 -0.00025038468
0.0047427393 -0.0025150003 -0.0022514421
0.0062604151 -0.0025150003 -0.0017749999
0.0062604146 -0.0025150003 -0.0022514423
0.0072563901 -0.0025149998 -0.0022514423
0.0042210375 -0.0025149998 -0.0022514423
0.0042210375 -0.0025149998 -0.0027278843
0.0022290873 0.0025149998 -0.0057771159
-0.0007588382 -0.0025150003 -0.0042525004
-0.0017548134 -0.0025149998 -0.0047289426
-0.0017548132 -0.0025149998 -0.0057771159
-0.0032724894 -0.0025150001 -0.006539423
-0.0032724896 -0.0025149998 -0.005777115
-0.0052644401 -0.0025150001 -0.006539423
-0.0047427393 -0.0025150003 -0.0062535573
-0.0047427388 -0.0025150001 -0.006539423
-0.0022290871 -0.0025149998 -0.0062535577
0.0022290873 -0.0025149998 -0.0062535573
0.0017548132 -0.0025149998 -0.0057771145
0.0017548132 -0.0025149998 -0.0062535577
0.0017548134 -0.0025150003 -0.00525303
0.00075883814 -0.0025150008 -0.0032519712
0.0017548134 -0.0025149998 -0.0027278846
0.0027507888 -0.0025150003 -0.0022514425
0.0032724901 -0.0025149998 -0.0027278846
0.0032724896 -0.0025149998 -0.0022514423
0.0037467631 -0.0025149998 -0.0047289422
0.0042210375 -0.0025149998 -0.0042525004
0.0037467636 -0.0025150003 -0.003251971
0.0032724896 -0.0025150003 -0.0032519712
0.0017548132 -0.0025149998 -0.0042524999
0.0027507888 -0.0025150003 -0.0047289422
0.0022290873 -0.0025149998 -0.0047289426
0.0022290873 -0.0025149998 -0.0042525004
-0.004764298 0.00073120522 -0.0065567465
-0.0047427393 0.0017557552 -0.0065394207
-0.0047427388 0.0012812265 -0.0065394207
0.005256535 -0.0022223743 -0.0065394212
0.0052644406 -0.00023726416 -0.006587069
0.0052644396 0.00023726415 -0.0065870672
0.0022290873 0.00023726415 -0.0065870676
-0.0037467638 -0.00023726416 -0.0065870686
-0.0052644396 -0.00075924501 -0.0065870699
-0.0052644401 -0.0017557542 -0.0065870686
-0.0057387156 -0.001281227 -0.0065870672
-0.0052644401 -0.001281227 -0.0065870662
-0.0047615315 -0.0017378473 -0.0065807761
-0.0027507886 -0.00075924484 -0.0065870686
-0.001754813 -0.001281227 -0.0065870686
-0.0022290873 -0.001281227 -0.0065870676
-0.0027507883 -0.0012812265 -0.006587069
-0.0017548125 -0.0017557542 -0.0065870686
-0.0017573765 -0.0022225888 -0.0065703257
-0.0022217908 -0.0022339332 -0.0065430854
-0.0062604141 -0.0017557538 -0.0065870676
-0.0062604132 -0.00023726416 -0.0065870686
-0.0062604165 0.00023726415 -0.0065870681
-0.0007588382 -0.00075924484 -0.006587069
-0.00023713699 -0.001281227 -0.0065870686
-0.00023713693 -0.00023726416 -0.0065870676
0.0052644401 -0.0025149998 -0.005777115
0.0042210375 -0.0025149998 -0.0057771145
-0.0072516464 -0.0021852038 -0.0065846844
0.0077306633 -0.0025149998 -0.0042524999
0.0072563887 -0.0025149998 -0.0027278843
0.0077306633 -0.0025149998 -0.0022514423
0.0077306628 -0.0025149998 -0.0017749999
0.0072563901 -0.0025149998 -0.0017749997
-0.0082523655 -0.0025150003 -0.0037760574
-0.010766017 -0.0025149998 -0.0042524999
-0.011232383 -0.001747847 -0.0027278846
0.0077306633 -0.0025149998 -0.0037760579
0.0087740663 -0.0025149998 -0.0027278846
0.0092483414 -0.0025150003 -0.0052530291
0.0092483405 -0.00023726413 -0.0065394212
0.010253801 0.00027522646 -0.0065632435
-0.0092483405 -0.0025149998 -0.0037760576
-0.0097226137 -0.0025149998 -0.0042525004
-0.0092483405 -0.0025150003 -0.0032519707
-0.0072563901 -0.0025149998 -0.0017749999
-0.0074089826 -0.0012812263 0.0002011999
0.011240295 -0.001281227 -0.0042525013
-0.0022290885 0.00023726394 -0.00072682695
-0.0027507893 -0.00023726391 -0.00072682626
0.00012730509 0.0012812269 0.00021101232
-0.0012805394 0.0025150003 -0.0012509134
-0.0007588382 0.0025150003 -0.00072682695
-0.0027507888 0.0025150003 -0.001775
-0.0022290873 0.0025150003 -0.0012509134
-0.0047427383 0.0025150008 -0.0052530291
-0.0042210375 0.0025150003 -0.0052530286
-0.0032724899 0.0022777384 -0.00025038444
-0.0032724894 0.0013464735 -0.0002444291
-0.0026866214 0.0012798306 0.0002134461
0.0049324478 -0.0013286792 0.0012742307
0.0051906644 -0.001312862 0.00018635415
0.0057387128 -0.0013370526 -0.00024477951
-0.00023713696 -0.0025149998 -0.0017749998
-0.0007588382 -0.0025150003 -0.001775
-0.00023713701 -0.0025150003 -0.0012509136
-0.00075883814 -0.0025150003 -0.00072682695
-0.0027507886 -0.0025150008 -0.0012509134
-0.0022290873 -0.0025149998 -0.0017749997
-0.0032724899 -0.0025150003 -0.0012509131
-0.0017548134 -0.0025149998 -0.0017749998
0.0017548134 -0.0025149998 -0.0017749998
-0.00075883826 -0.0025150003 -0.0022514425
0.0032724894 -0.0025149998 -0.00072682695
0.0047427383 -0.0025150003 -0.00072682672
0.0047427388 -0.0025150003 -0.0017749998
0.0057366947 -0.0022555264 -0.00028282311
0.0012805394 -0.0025149998 -0.0017749999
0.00023713682 -0.00023726396 -0.00072682649
0.002682124 -0.0012812263 0.00021467987
0.0032724896 -0.0013286785 -0.00025038444
0.0032724906 -0.00023726394 -0.00072682672
0.0032724892 0.00023726396 -0.00072682649
-0.0012805394 -0.0025149998 -0.00072682695
-0.0012805394 -0.0025149998 -0.0027278843
-0.0012805394 -0.0025150003 -0.0012509136
0.0082523637 -0.0022777382 -0.00031844783
0.0087740645 -0.0013370526 -0.00024477951
0.0082523646 -0.001337053 -0.00024477951
0.0082523618 -0.00023726391 -0.00072682672
0.0082523627 0.00023726391 -0.00072682672
0.0074250209 -0.0012706815 0.00014135684
0.0067821154 -0.0013370526 -0.00024477951
0.0062581999 -0.0022577816 -0.00029491191
0.0082523646 -0.0025150003 -0.0017749999
0.0077306628 -0.0025150003 -0.0012509136
0.0077306628 0.0025149998 -0.0022514421
0.010753645 -0.0025149996 -0.0022514423
0.0077306628 0.00023726394 -0.00072682649
0.0072563859 -0.00023726396 -0.00072682649
0.0057387142 0.0025150003 -0.0052530291
0.0077306642 0.0025149998 -0.0027278846
0.0012805394 0.0025149998 -0.00072682672
0.0037467636 0.0025149998 -0.0022514423
0.0042210375 0.0025149998 -0.0027278846
0.004221037 0.0025149998 -0.0022514425
0.007256391 0.0025149998 -0.0027278846
0.0067821168 0.0025149998 -0.0027278846
0.00075883826 0.0025150003 -0.00025038468
-0.0042210375 -0.0025149998 -0.0017749999
-0.0057387142 -0.0025150003 -0.0012509134
-0.0052644396 -0.0025149998 -0.0017750001
-0.0052644401 -0.0025149998 -0.0037760579
-0.0027507886 -0.0025150008 -0.0032519714
-0.0032724899 -0.0025150003 -0.003251971
-0.0082388138 0.0025150001 -0.00026399712
-0.0077306647 0.0025149998 -0.00072682672
-0.0097226147 0.0025150003 -0.0012509134
-0.0087740663 0.0025149998 -0.00072682695
-0.0067821168 0.0025150003 -0.0012509134
-0.0067821168 0.0025150003 -0.0032519707
-0.0062604155 0.0025150008 -0.003251971
-0.0047427346 -0.00023726391 -0.00072682672
-0.0051885564 -0.001281227 0.00022605783
-0.0057387105 -0.00023726394 -0.00072682672
-0.0042210375 0.0025149998 -0.0037760572
-0.008765175 0.00020167454 -0.0065602656
-0.0107229 0.0012467153 -0.0065394235
-0.0097226137 0.0025149998 -0.0057771159
-0.0082523646 -0.0025150003 -0.0027278846
-0.0082523655 -0.0025150003 -0.005777115
-0.0062604137 0.0013464735 -0.0002444291
-0.0077306633 0.0025149998 -0.0022514423
-0.0067821168 0.0025149998 -0.0027278843
-0.0092483405 0.0025149998 -0.0027278846
-0.0072563901 0.0025149998 -0.0042525004
-0.0072563901 0.0025149998 -0.0047289417
-0.0067821168 0.0025149998 -0.0047289417
-0.0067821168 0.0025149998 -0.0037760574
-0.0087740663 -0.0025150001 -0.006539423
-0.0027431385 0.0017496322 -0.0065424945
0.0087829586 0.0021946938 -0.0065602656
-0.0067821154 -0.00075924495 -0.0065870676
-0.0067742118 0.00023133254 -0.006585082
0.0027033614 -0.002187144 -0.0065394212
0.0032724894 -0.00023726415 -0.0065870672
0.0037467626 -0.00075924507 -0.0065870681
0.0032654626 -0.00073639752 -0.0065817735
0.0027507883 -0.00023726413 -0.0065870704
0.0032724894 -0.0012812263 -0.0065394212
0.0067821168 -0.0012812263 -0.0065394212
0.0097226147 0.0025149998 -0.0047289422
0.0092483414 0.0025150003 -0.0052530291
-0.0082523655 0.0025150003 -0.0047289426
-0.0057387133 0.0025149998 -0.005777115
-0.0082470961 0.0025150001 -0.0062323827
-0.0082523646 0.0025150003 -0.005777115
-0.0077306628 0.0025149998 -0.0062535582
-0.0057387138 0.0025149998 -0.0047289417
-0.0067821173 0.0025150003 -0.0052530291
-0.001754813 0.00023726415 -0.0065870676
0.0012826954 0.0022130287 -0.0065805702
0.0067821164 -0.0025150003 -0.0012509134
0.0067821164 -0.0025149998 -0.0017749998
0.0077306633 -0.0025150003 -0.0052530295
0.0067821173 -0.0025150003 -0.0052530286
0.0062604146 -0.0025150003 -0.0027278846
0.0057387138 -0.0025149998 -0.002727885
0.0077306633 0.0025149998 -0.00072682695
0.0087740663 0.0025149998 -0.00072682695
0.0037467636 0.0025149998 -0.0017749999
0.0032724896 0.0025149998 -0.0017749998
0.0032724896 0.0025150003 -0.0012509134
0.007417643 0.0012812263 0.0012742307
0.011240288 -0.0012812278 -0.0012509127
0.0052644392 0.001281227 -0.0065870695
0.01118996 -0.0022264118 -0.0017759729
0.011240288 -0.0017557559 -0.0017750007
-0.0057387138 -0.0025149998 -0.0057771145
-0.0067821168 -0.0025149998 -0.0062535577
-0.0067821164 -0.0025150003 -0.0052530286
-0.0077306633 -0.0025149998 -0.005777115
-0.0062604155 -0.0025150003 -0.0047289422
-0.0067821164 -0.0025149998 -0.0037760574
-0.0072563905 -0.0025150003 -0.0032519712
-0.0082523655 -0.0025150003 -0.0042524999
-0.0037467638 -0.0025149998 -0.0057771145
-0.0042210375 -0.0025149998 -0.005777115
-0.0042210375 -0.0025150003 -0.0052530295
-0.0092483405 -0.0025149998 -0.0047289426
0.0032780692 0.0021939962 -0.0065646446
0.004221038 0.0025149998 -0.005777115
0.010244315 0.0025150003 -0.0027278848
0.011098009 0.0025149998 -0.0027278843
0.011192861 0.0022302857 -0.0017749999
0.0092483405 0.0025150003 -0.0012509134
0.0087740663 0.0025149998 -0.0017749999
-0.0017548134 0.0022302829 -0.0065394212
-0.0032724894 0.0022302831 -0.0065394212
-0.003746764 0.0022302831 -0.0065394212
-0.0022252151 0.0012773534 -0.0065860935
-0.0017548132 0.0025150001 -0.006539423
-0.0022290871 0.0025149998 -0.0062535591
-0.0037467638 0.0025149998 -0.0062535591
-0.003746764 0.0025149998 -0.005777115
-0.0032724896 0.0025149998 -0.0062535577
-0.0042210375 0.0025149998 -0.0057771145
-0.0032724894 0.0025149998 -0.005777115
-0.00075883814 0.0025150003 -0.0047289422
-0.0017548132 0.0025149998 -0.0047289426
-0.0022290873 0.0025149998 -0.0037760576
-0.0027507886 0.0025150003 -0.0047289417
-0.0017548135 0.0025149998 -0.0037760574
-0.0027507888 0.0025150008 -0.0052530295
0.0052644401 0.0025149998 -0.0042524999
-0.0042210375 0.0025149998 -0.0022514428
-0.0057387142 0.0025149998 -0.0027278846
0.00023713696 0.0025149998 -0.0027278846
0.00023713696 0.0025149998 -0.0017749998
0.001754813 0.0025149998 -0.0042525004
0.0027507881 0.0025150003 -0.0042525004
0.0017548134 0.0025150003 -0.003251971
0.0012805394 0.0025149998 -0.0037760576
0.0017548134 0.0025149998 -0.0037760576
0.00075883814 0.0025150003 -0.0042524999
0.004221037 0.0025149998 -0.0042524999
0.0027507886 0.0025150003 -0.005777115
0.0032724899 0.0025149998 -0.0062535582
-0.0022290871 0.0025149998 -0.00025038468
0.0022290882 0.0022777384 -0.00025038468
0.0022290873 0.0025149998 -0.0027278846
0.0027507886 0.0025150003 -0.001775
0.0017548134 0.0025149998 -0.0017749998
0.0012805394 0.0025149998 -0.0027278846
0.0047427393 0.0025150008 -0.0012509136
0.0052644401 0.0025150003 -0.003251971
0.0052644401 0.0025149998 -0.0027278843
0.0062604155 0.0025150008 -0.0032519707
0.0072563905 0.0025149998 -0.0017749997
0.004742736 -0.00023726394 -0.00072682695
0.0047427393 -0.0025150003 -0.0027278848
0.0057387133 -0.0025150003 -0.0032519714
0.0032724892 -0.0022664401 -0.00025945972
0.0057387138 -0.0025149998 -0.0022514423
0.0052644401 -0.0025149998 -0.0027278843
0.0047427393 -0.0025150003 -0.0037760572
0.0017548134 0.0025150003 -0.00525303
0.0007588382 0.0025150003 -0.0057771155
0.0012805396 0.0025150003 -0.0052530291
0.0012805394 0.0025149998 -0.0057771159
0.0047427388 0.0025150003 -0.0027278841
0.0022290873 0.0025149998 -0.0047289422
0.0027507883 0.0025150003 -0.0047289436
0.0047427393 0.0025150003 -0.0047289426
-0.0007588382 -0.0025150003 -0.0037760572
