# .PCD v0.7 - Point Cloud Data file format
VERSION 0.7
FIELDS x y z
SIZE 4 4 4
TYPE F F F
COUNT 1 1 1
WIDTH 1198
HEIGHT 1
VIEWPOINT 0 0 0 1 0 0 0
POINTS 1198
DATA ascii
-0.00071717508 -0.0021607156 -0.0086691463
-0.033277027 -0.0037452434 -0.0037861769
-0.032416422 -0.0037452425 -0.0027808449
-0.032846723 -0.0037452378 -0.0023499983
-0.03284673 -0.0037452416 -0.0027808468
-0.037580092 -0.0037452336 -0.0072329775
-0.037149787 -0.0037452392 -0.0066585131
-0.037580092 -0.003745235 -0.0052223448
-0.037149794 -0.0037452392 -0.0052223466
-0.037580092 -0.0037452332 -0.0057968134
-0.041165981 -0.0031690458 -0.0052223462
-0.039683819 -0.0032650796 -0.0046478752
-0.039683811 -0.0032650791 -0.0052223369
-0.036719479 -0.0037452336 -0.0062276628
-0.0047333739 -0.0033130902 -0.0057968032
-0.0053071063 -0.0033130967 -0.0057968036
-0.004159634 -0.0033130976 -0.0052223406
-0.0037293178 -0.0033130958 -0.0046478705
-0.0037293194 -0.0033130995 -0.0042170212
-0.0032990223 -0.0033131014 -0.0046478724
-0.0041596354 -0.0033130939 -0.0066585075
-0.0053071063 -0.003313099 -0.0062276553
-0.0037293159 -0.0033130995 -0.0027808459
-0.0037293225 -0.0033130907 -0.0023500065
-0.0032990112 -0.0033130962 -0.0023500039
0.0012909154 0.000288098 0.0038255323
0.0012909157 0.00072024111 0.0038255272
0.0012909194 0.00072024448 0.0041127717
-0.0037293255 -0.0053297561 0.0041127643
-0.00086061057 -0.004033328 0.0012404229
-0.0011474867 -0.0053297612 0.0012404267
-0.00086061453 -0.0046095303 0.0015276638
-0.0037293271 -0.005329757 0.0038255388
-0.0037293176 -0.0047535691 0.0038255355
-0.003729318 -0.0047535724 0.0041127624
-0.0040161926 -0.0057619032 0.0038255332
-0.018646609 -0.0053297668 0.0041127624
-0.019220348 -0.0057618995 0.0038255295
-0.019220358 -0.0060500032 0.0041127624
-0.01922035 -0.0057619018 0.0041127596
-0.0014343493 0.0031690421 0.0032510669
-0.001290923 0.0027369042 0.0032510641
-0.012192014 -0.0033130972 -0.0012010629
-0.011761705 -0.0033130986 -0.001775532
-0.011761715 -0.0033130916 -0.0012010655
-0.011761707 -0.0033131009 -0.0023499962
-0.010757659 -0.0033130962 -0.0027808552
-0.010757655 -0.003313093 -0.002350003
-0.010183915 -0.0033130986 -0.0027808477
-0.0113314 -0.0033130986 -0.0023499955
-0.010183918 -0.0033131 -0.0032117004
-0.011331403 -0.0033131009 -0.0017755339
-0.0091798659 -0.0046095178 0.0012404313
-0.0091798669 -0.0051857117 0.0015276629
-0.0091798687 -0.0047535719 0.0015276577
-0.013769807 -0.0060500028 0.004112768
-0.013769813 -0.0057619037 0.0041127726
-0.014056677 -0.0060499948 0.0041127708
-0.012765761 -0.0033130995 -0.0046478682
-0.012192022 -0.0033131014 -0.0046478775
-0.012192019 -0.0033131023 -0.0052223406
-0.011331404 -0.0033130967 -0.0046478757
-0.012192018 -0.0033130972 -0.0027808503
-0.011761708 -0.0033130888 -0.0027808486
-0.011761704 -0.0033131018 -0.0032116969
-0.012192021 -0.0033130976 -0.0032117022
-0.012765759 -0.0033130995 -0.003211709
-0.0097536165 -0.003313099 -0.0052223392
-0.0097536184 -0.0033130981 -0.0046478729
-0.010183926 -0.0033130902 -0.0042170174
-0.00086061138 0.0005761896 0.0012404243
-0.0032990158 -0.0017285761 -0.00048297667
-0.0027252675 -0.0021607103 -0.00048297667
-0.0027252692 -0.0017285722 -0.00048298063
-0.0032990107 -0.0012964248 -0.00048297457
-0.0037293166 -0.0012964332 0.0012404211
-0.0037293236 -0.0017285657 0.0012404295
-0.013769811 -0.0057618991 0.0015276652
-0.013769809 -0.0053297649 0.0012404243
-0.013769808 -0.0060499939 0.001527661
-0.013769808 -0.005329764 0.0015276633
-0.014200112 -0.0060499967 0.0015276647
-0.014200116 -0.0057618991 0.001527654
-0.014056676 -0.0053297644 0.0012404202
-0.014200114 -0.0053297672 0.001527661
-0.026392125 -0.0057619093 0.0038255295
-0.026392134 -0.0057618986 0.0041127726
-0.026392132 -0.0060500037 0.0041127652
-0.026392125 -0.0053297593 0.0041127671
-0.026679002 -0.0053297593 0.0038255383
-0.026678994 -0.0060499986 0.0015276656
-0.026392123 -0.0057619102 0.0015276661
-0.026678996 -0.0057619056 0.0015276582
0.0012909225 -0.00072023435 0.0041127717
0.0012909254 -0.00014404824 0.0041127643
0.0012909161 -0.00014404557 0.0038255304
-0.0037293222 -0.0041773785 0.0041127708
-0.0037293267 -0.004177385 0.0038255332
-0.0061677308 -0.003745235 0.003825529
-0.0065980344 -0.0041773757 0.0038255295
-0.006167728 -0.0041773748 0.0038255318
-0.0087495651 -0.0057619098 0.0015276549
-0.0061677215 -0.0033130967 -0.004217016
-0.006741466 -0.0033130934 -0.0042170151
-0.0067414613 -0.0033131 -0.0046478715
-0.0067414735 -0.0033131018 -0.0037861725
-0.0061677224 -0.0033130939 -0.0037861706
-0.006167721 -0.0033130934 -0.0057968087
-0.006741466 -0.003313093 -0.0057968087
-0.0061677261 -0.0033131014 -0.0052223383
-0.0067414651 -0.0033130972 -0.0052223341
-0.007315211 -0.003313093 -0.0057968087
-0.0081758285 -0.0033131018 -0.0017755346
-0.0077455188 -0.0033131004 -0.0017755327
-0.0077455114 -0.0033130981 -0.0023499955
-0.008749567 -0.0033130967 -0.0017755311
-0.0087495651 -0.0033130981 -0.0023500032
-0.010183915 -0.0033130934 -0.0023500053
-0.0097536128 -0.0033130962 -0.0017755302
-0.0093233064 -0.003313099 -0.0012010683
-0.009323311 -0.0033130981 -0.0046478733
-0.0087495632 -0.0033131 -0.0046478752
-0.009323311 -0.0033130962 -0.0052223359
-0.0034424467 -0.0012964327 0.0015276563
-0.0034424546 -0.0017285778 0.0015276629
0.034281079 0.0017285659 0.0038255341
0.034281086 0.0017285723 0.0041127643
0.03428109 0.0012964304 0.0038255295
0.032129548 0.0017285665 0.0038255379
0.034281082 0.001296423 0.0041127708
0.039301321 -0.00014404976 0.0038255374
0.039301317 -0.00072024018 0.0038255262
0.039157879 -0.00072023924 0.0041127624
0.044321559 0.0002880895 -0.0010574453
0.044321563 0.00028808962 -0.00077020703
0.044321567 -0.00014404953 -0.0010574509
0.044321563 0.0007202336 -0.00077021006
0.044273745 0.0012964346 -0.0011531971
0.044178128 0.0012964284 -0.0023499993
0.044321563 0.0012964309 -0.00048297667
0.043747827 -0.0021607131 -0.00048298342
0.04370001 -0.0026888838 -0.00048298249
-0.024814336 -0.0027369075 -0.0086691435
-0.024240596 -0.0027369075 -0.0086691426
-0.027683048 0.0033130981 -0.0086691473
-0.027683053 0.0027368993 -0.0086691547
-0.028256794 0.0027369088 -0.0086691529
-0.028256783 0.0033130893 -0.0086691454
-0.040305369 0.005761907 -0.0086691435
-0.040305372 0.0060499958 -0.0078074466
-0.042743772 -0.0025928635 -0.0086691547
-0.042743769 -0.0025928612 -0.0082382951
-0.042743772 -0.0026888857 -0.0077595757
-0.044235505 -0.0021895226 -0.0077787186
-0.044321571 -0.0012964257 -0.0086691547
-0.044178132 -0.0021607107 -0.0086691529
-0.043747813 0.0053297589 -0.0086691529
-0.04374782 0.0047535757 -0.0086691454
-0.043174084 0.0047535766 -0.0086691491
-0.04374782 0.0041773766 -0.0086691491
-0.043174088 0.0041773752 -0.0086691491
-0.043747816 -0.00014404219 -0.0086691547
-0.04374782 -0.00072024018 -0.0086691463
-0.042313468 0.0037452336 -0.008669151
-0.042313464 0.0041773748 -0.0086691529
-0.041739728 0.0037452418 -0.0086691482
-0.039731629 0.0047535659 -0.0086691435
-0.039731633 0.004177385 -0.0086691491
-0.039157886 0.0047535668 -0.0086691491
-0.03915789 0.0041773804 -0.0086691473
-0.040305372 0.0021607114 -0.0086691556
-0.039731622 0.0027368998 -0.0086691491
-0.039731625 0.0021607208 -0.0086691473
-0.04030538 0.0027369037 -0.0086691435
-0.041165978 -0.002592864 -0.0086691435
-0.044178132 0.0041773743 -0.0086691435
-0.044178132 0.0037452388 -0.008669151
-0.043747816 0.0037452346 -0.0086691445
-0.040305372 0.0033130941 -0.0086691454
-0.039731625 0.0033130897 -0.0086691435
-0.041739725 -0.0017285659 -0.0086691491
-0.042313471 -0.0017285759 -0.0086691529
-0.041739725 -0.0012964241 -0.0086691435
-0.042313468 -0.0012964257 -0.0086691473
-0.041739728 0.0021607154 -0.0086691473
-0.042313471 0.0027369047 -0.0086691529
-0.04231346 0.0021607161 -0.0086691445
-0.041739721 0.0027369019 -0.0086691473
-0.040735677 -0.002160717 -0.0086691547
-0.040305365 -0.0017285754 -0.008669151
-0.040735681 -0.0017285715 -0.0086691435
-0.040305369 -0.0021607198 -0.0086691501
-0.041165989 -0.0017285771 -0.0086691426
-0.041165989 -0.0021607089 -0.0086691482
-0.041739721 -0.0021607089 -0.0086691529
-0.043747816 0.0021607175 -0.0086691491
-0.043174088 0.0021607203 -0.0086691454
-0.043174084 0.0027368991 -0.0086691547
-0.04374782 0.0027369054 -0.0086691454
-0.027683055 0.0060500014 -0.0042170249
-0.027252747 0.0060500032 -0.0042170226
0.034424521 0.0031690532 0.0032510618
-0.034137648 0.0033130909 0.0038255299
-0.034711391 0.0025928565 0.0038255355
-0.034137648 0.0031690432 0.0041127596
-0.034281082 0.0031690446 0.003251058
-0.043747824 0.0057619056 -0.00048298226
-0.044178121 0.0057619032 -0.00048298109
-0.044178128 0.0057619037 -0.00077021401
-0.043747827 0.0057619009 -0.00077021006
-0.040735677 0.0060499986 -0.0010574516
-0.041165978 0.0057619084 -0.00048297341
-0.041165985 0.0060499972 -0.0010574467
-0.040735669 0.0057619074 -0.00048298296
-0.03915789 0.0060500065 -0.0057968097
-0.039731629 0.00605 -0.0057968032
-0.039731629 0.0060500028 -0.0052223373
-0.04102255 0.006049999 -0.0047914954
-0.040305372 0.0060500028 -0.0047914963
0.041165985 0.00605 -0.0078074429
0.00028687547 0.0060500065 -0.00077021914
-0.00014343037 0.0060499972 -0.00077021634
-0.0012909238 0.00057618914 0.00080957171
-0.039588194 -0.00014405185 0.001527654
-0.037006348 -0.0047535752 0.0015276573
-0.034281082 -0.0047535771 0.0015276573
-0.034424514 -0.004033335 0.001240422
-0.0392057 -0.0047055599 0.0041127671
-0.033277035 -0.0037452397 -0.00077020796
-0.034281086 -0.0037452355 -0.00077020866
0.042313475 0.0002880987 -0.00048298482
0.042743776 0.00028809952 -0.00048298505
0.04231346 -0.00014404499 -0.00048297364
0.040735684 -0.0031690444 -0.0082382997
0.040305372 -0.0031690476 -0.0082383025
0.040305361 -0.003169049 -0.0085255336
0.040735677 -0.0027369093 -0.0086691435
0.040305369 -0.0027369065 -0.0086691454
0.040735681 -0.0031690542 -0.0078074513
0.043174081 -0.0027369107 -0.0042170165
0.043174077 -0.0027369042 -0.0046478715
0.032272983 -0.0037452425 -0.0046478692
0.032846726 -0.0037452434 -0.0046478682
0.031699233 -0.0037452332 -0.0046478673
0.03227298 -0.0037452397 -0.0037861667
0.032846719 -0.0037452406 -0.0037861743
0.032272991 -0.0037452416 -0.0032116971
0.03284673 -0.0037452402 -0.0042170221
-0.010183919 -0.0021607114 -0.0086691473
-0.0093233045 -0.0021607114 -0.0086691473
-0.0097536137 -0.0033130967 -0.0082383025
-0.010183917 -0.003313092 -0.0082382979
-0.0021515335 -0.0033130962 -0.0082383025
-0.0017212224 -0.0033130897 -0.0086691426
-0.0081758192 -0.0033130967 -0.0066585164
-0.0077455137 -0.0033130995 -0.0062276595
-0.0077455211 -0.0033130967 -0.0066585084
-0.0077455183 -0.0033131018 -0.0072329785
-0.0067414735 -0.003313093 -0.0062276544
-0.023236547 -0.0031690439 -0.0052223424
-0.023236552 -0.0031690449 -0.0046478733
-0.022806244 -0.0031690467 -0.0052223355
-0.023666851 -0.0031690444 -0.0052223369
-0.026248688 -0.0031690528 -0.004217017
-0.02682244 -0.0031690416 -0.004217024
-0.026822433 -0.0031690514 -0.0037861706
-0.026822437 -0.0031690523 -0.0046478724
-0.026248692 -0.0031690481 -0.0046478766
-0.027252747 -0.0031690537 -0.0042170263
-0.022806242 -0.0031690528 -0.0062276591
-0.022232501 -0.0031690425 -0.0062276581
-0.022232499 -0.0031690467 -0.006658515
-0.024240596 -0.0031690462 -0.0046478715
-0.024814332 -0.0031690532 -0.0046478687
-0.024814339 -0.0031690532 -0.0052223429
-0.024240596 -0.0031690416 -0.0052223392
-0.024814345 -0.0031690518 -0.0042170216
-0.025244638 -0.00316905 -0.0042170235
-0.024814345 -0.0031690486 -0.0037861727
-0.0040161926 -0.0041773762 0.001240422
-0.0040161973 -0.0037452411 0.0015276554
-0.0040161903 -0.0037452388 0.0012404253
-0.0040161926 -0.0041773752 0.0015276624
-0.0041596293 -0.0033130976 -0.00048298226
-0.0047333646 -0.0033131004 -0.00048297271
-0.0061677261 -0.0041773799 0.0012404253
-0.0061677201 -0.0033130907 0.0012404304
-0.0061677233 -0.0037452402 0.0015276573
-0.0063111624 -0.003745242 0.0012404313
-0.0065980307 -0.0041773831 0.0012404271
-0.006598033 -0.003745243 0.0016712812
-0.0065980265 -0.0041773757 0.0015276596
-0.0065980279 -0.0046095173 0.0012404243
-0.0065980349 -0.005329757 0.0015276647
-0.00631116 -0.0057618986 0.0015276624
-0.006311161 -0.0053297672 0.0015276656
-0.0065980358 -0.0057619018 0.0015276535
-0.0063111675 -0.0054738154 0.0012404276
-0.0063111549 -0.0060500037 0.0015276568
-0.0061677243 -0.0033131 -0.0017755302
-0.0061677294 -0.0033130897 -0.0012010704
-0.0067414702 -0.0033130948 -0.0012010687
-0.0017212284 -0.0033131 -0.00077021564
-0.0021515314 -0.0027369098 -0.0004829797
-0.0021515351 -0.0033130953 -0.0012010704
-0.0012909208 -0.0033130972 -0.0017755302
-0.00071717851 -0.0033130981 -0.0023500042
-0.0017212284 -0.0033130976 -0.0027808496
-0.0012909133 -0.0033130986 -0.0027808528
0.0012909191 -0.0033131004 -0.0042170198
0.0017212214 -0.0033131009 -0.0037861669
0.0017212236 -0.0033130907 -0.0042170263
0.00028687087 -0.0033131018 -0.0037861702
-0.00014343185 -0.0033131023 -0.0037861655
0.00028686601 -0.0033130948 -0.0032117052
0.0002868766 -0.0033130976 -0.0042170179
0.00071717752 -0.0033131018 -0.0042170151
0.0012909212 -0.0033130986 -0.0046478794
-0.007745516 -0.0033130948 -0.0057968111
-0.007745516 -0.0033130972 -0.0052223341
-0.0087495688 -0.0033130925 -0.0052223364
-0.0093233064 -0.0033130953 -0.0057968106
-0.0081758257 -0.0033130944 -0.0023500035
-0.0087495586 -0.0033131014 -0.0027808547
-0.0081758238 -0.0033130902 -0.0027808561
-0.0081758182 -0.0033130948 -0.0032117085
-0.0077455193 -0.0033130907 -0.0037861739
-0.0077455137 -0.0033130925 -0.0032117034
-0.0087495614 -0.0033131009 -0.0012010704
-0.0081758266 -0.0033130893 -0.001201065
0.0087495651 -0.0033130976 -0.0057968134
0.0087495605 -0.0033130907 -0.0052223415
0.0093233064 -0.0033130939 -0.0052223462
0.043747813 0.004177385 -0.0086691491
0.043747827 0.0037452369 -0.0086691435
0.044178128 0.0037452395 -0.0086691547
0.043747816 0.00028808997 -0.0086691445
0.043747816 -0.00014405174 -0.008669151
0.043174077 0.0002880973 -0.0086691547
0.04374782 0.0017285721 -0.0086691435
0.043174081 0.0012964343 -0.0086691519
0.043174077 0.00072023366 -0.008669151
0.04374782 0.00072023919 -0.0086691491
0.042743776 0.003313089 -0.0086691435
0.042313468 0.0033130967 -0.008669151
0.031842683 -0.004033335 0.0038255355
0.031699244 -0.0037452327 0.0038255309
0.032129552 -0.0037452434 0.0038255323
0.032129548 -0.0041773831 0.0041127643
0.032129552 -0.0041773836 0.0038255313
0.032129545 -0.0047535766 0.0015276549
0.031699236 -0.0057619023 0.0015276652
0.03169924 -0.0053297658 0.0015276549
0.031699244 -0.0047535705 0.0015276568
0.032272976 -0.0037452397 -0.0012010657
0.03169924 -0.0037452444 -0.0012010578
0.032272987 -0.0037452397 -0.0017755344
0.043700002 -0.0026888959 -0.0037861743
0.044178121 -0.0025928514 -0.0037861643
0.044178128 -0.0025928561 -0.0057968078
0.044178128 -0.0025928509 -0.0046478757
0.044178125 -0.0025928589 -0.0032117066
0.044321571 -0.0017285773 -0.0023499946
0.044178132 -0.0025928603 -0.0027808556
0.044178125 -0.0025928542 -0.0023499988
0.044178125 -0.0025928598 -0.0017755362
0.044178132 -0.0025928519 -0.0012010636
0.034281079 0.00072024274 0.0041127605
0.034281079 0.00072024151 0.0038255267
0.036432613 0.0017285699 0.0041127596
0.036719482 0.0017285708 0.0041127661
0.036719486 -0.0037452388 0.0041127717
0.037006363 -0.0027369088 0.0041127717
0.037101984 -0.0033611157 0.0041127726
0.036719475 -0.0057618995 0.0041127698
0.037006356 -0.0060499962 0.0041127717
0.036719482 -0.00605 0.0041127596
0.032129548 -0.0031690495 0.0038255374
0.032129548 -0.0027369028 0.0038255295
0.031699244 -0.002736907 0.0041127643
0.031699244 -0.0027369102 0.0038255281
0.032129552 -0.0046095299 0.0038255309
0.031555805 -0.0047535705 0.0041127717
0.031699244 0.0027369033 0.0028202129
0.044178125 0.0021607117 -0.0032117032
0.044178132 0.00057618553 -0.0037861734
0.043747816 0.00057619083 -0.0042170212
0.043174084 -0.0027368991 -0.0052223448
0.04159629 -0.0031690523 -0.0052223406
0.041739725 -0.0021607145 -0.0086691473
0.041165985 -0.001728568 -0.0086691491
0.041165985 -0.0012964243 -0.0086691445
0.040735677 -0.0012964346 -0.0086691529
0.040735677 -0.0021607205 -0.0086691547
0.042743769 -0.0017285743 -0.0086691454
0.043747824 -0.0017285689 -0.0086691445
0.043174073 -0.0017285724 -0.0086691547
0.038297277 -0.0012964271 -0.0086691435
0.037723541 -0.0012964224 -0.0086691519
0.038727585 -0.001296429 -0.0086691454
0.039157894 -0.0017285773 -0.0086691426
0.042743776 0.0021607091 -0.0086691435
0.043174081 0.0027369112 -0.0086691501
0.043174084 0.0021607205 -0.0086691445
0.042743769 0.0017285687 -0.0086691547
0.042313464 0.0021607168 -0.0086691463
0.041739736 0.0027369102 -0.0086691547
0.041739725 0.0021607117 -0.0086691519
0.041739725 0.0033130965 -0.0086691482
0.036719482 -0.0021607119 -0.0086691454
0.03671949 -0.0017285722 -0.0086691519
0.037149791 -0.0017285708 -0.008669151
0.036719486 -0.00072024413 -0.0086691435
0.036719479 -0.0012964346 -0.0086691426
0.036289182 -0.0012964297 -0.0086691435
0.035285126 -0.0012964292 -0.0086691491
0.035715427 -0.0012964269 -0.0086691547
0.035285126 -0.0017285701 -0.0086691473
0.03528513 -0.00072023948 -0.0086691491
0.036289178 -0.00072023831 -0.0086691435
0.035715435 -0.0017285659 -0.0086691435
0.037149787 0.00072023977 -0.0086691529
0.038297269 0.00072024344 -0.0086691529
0.03772353 0.0002880923 -0.008669151
0.038297269 0.00028809812 -0.008669151
0.038727582 0.0033130934 -0.0086691491
0.038297273 0.0033130958 -0.0086691463
0.038297277 0.0037452388 -0.0086691473
0.037723526 0.0033130918 -0.0086691529
0.037149794 0.0033131009 -0.0086691454
0.038727585 0.0017285724 -0.0086691547
0.038727582 0.0012964224 -0.0086691473
0.038727578 0.0027369019 -0.0086691473
0.040735669 0.0041773864 -0.0086691491
0.042313471 0.0037452325 -0.0086691529
0.039731637 0.0037452353 -0.0086691491
0.041165981 0.0037452402 -0.0086691473
0.040735677 0.0037452437 -0.0086691473
0.040735673 0.0033131002 -0.008669151
0.040305365 0.0037452327 -0.008669151
0.042743772 0.0057619098 -0.0082383044
0.044178125 0.0057619112 -0.0052223443
0.044321567 0.0053297682 -0.0052223383
0.044321563 0.004753571 -0.0042170184
0.044321559 0.0041773827 -0.0046478724
0.039588198 -0.0033130925 0.0041127643
0.039157879 -0.0037452425 0.0041127717
0.039301317 -0.0041773794 0.0041127605
0.039301321 -0.0047535705 0.0041127689
0.039588191 -0.0027369056 0.0041127698
0.039588198 -0.0051857163 0.0015276647
0.039301317 -0.0057619005 0.0015276661
0.039301328 -0.0053297589 0.0015276563
0.04370001 -0.0026888931 -0.00077021657
0.043174084 -0.0027369047 -0.00048298179
0.043700006 -0.002688894 -0.0066585112
0.043174081 -0.0027369056 -0.0066585131
0.044178132 -0.0002881001 -0.0072329761
0.044178125 0.0012964305 -0.008238296
0.044178128 0.0017285714 -0.0078074522
0.044321567 0.003745232 -0.0057968046
0.044178132 0.0037452332 -0.0072329789
0.041739728 0.0027369019 -0.0042170207
0.044178132 -0.00072023715 -0.0082383025
0.014773848 0.0060500056 -0.00048297946
0.015777903 0.0060500009 -0.0007702068
0.015347603 0.00605 -0.0004829776
0.016208215 0.0060500032 -0.0007702061
0.016781947 0.006050006 -0.00048297504
0.016208204 0.0060500065 -0.001201058
0.01678195 0.0060500056 -0.00077021844
0.018933484 0.0037452376 0.0015276629
0.01922035 0.0037452418 0.0012404295
0.01922035 0.0037452416 0.0015276582
0.018933486 0.0037452346 0.0012404262
0.017355688 0.0053297644 -0.00048297225
0.016781947 0.0047535719 -0.00048297667
0.016781949 0.0053297649 -0.00048298063
0.01635164 0.0037452427 0.0015276643
0.01663851 0.0037452388 0.0015276531
0.016351646 0.0031690488 0.0022457414
0.016781956 0.0057619046 -0.00048298365
0.016208215 0.005761907 -0.00048297411
0.018216301 0.0041773804 -0.00048297341
0.017786002 0.0047535663 -0.00048298133
0.017786004 0.0041773771 -0.00048297714
0.017785998 -0.00014404114 -0.00048297853
0.017786 0.00028809241 -0.00048297597
0.016638514 4.6566129e-09 0.00080957171
0.016638519 -3.259629e-09 0.00023510866
0.022232497 -0.0031690523 -0.0078074406
0.022232497 -0.0031690453 -0.0072329738
0.022806238 -0.0031690495 -0.0062276656
0.021658763 -0.0031690467 -0.0057968032
0.021658761 -0.0031690439 -0.0052223396
0.021228453 -0.0031690462 -0.0052223457
0.018790046 0.0047535738 -0.00048297853
0.025244644 0.006050006 -0.0052223378
0.024240594 0.006050006 -0.0062276619
0.025674945 0.006050006 -0.0057968129
0.025244646 0.0060500051 -0.005796806
0.024192782 0.00057618681 0.00076170219
0.024097167 0.0023047635 0.00080957031
0.044321559 0.0041773813 -0.0017755295
0.044321563 0.0037452341 -0.0032117036
0.044178136 -0.0012964255 -0.0078074415
0.044321563 -0.0017285736 -0.0037861683
0.044321559 0.0033130939 -0.002780847
0.044178121 0.0027369054 -0.0027808452
0.041739721 0.001296422 -0.00048298435
0.041165989 0.00072024006 -0.00048297574
0.041739717 0.00072024227 -0.00048298296
0.041165985 0.0012964275 -0.00048298365
0.044321563 0.004177378 -0.0027808538
0.044321559 0.0053297635 -0.002780857
0.042743776 0.0057619037 -0.0023500063
0.042743772 0.0057619088 -0.0027808445
0.043174073 0.0057619065 -0.0027808519
0.037006356 0.002160708 0.0038255281
0.039301325 0.0025928607 0.004112768
0.039157882 0.0017285732 0.0041127689
0.039588198 0.0025928533 0.0041127717
0.03169924 0.0021607203 0.0015276545
0.032129545 0.0027849243 0.0016234107
0.031699233 0.0027369088 0.0022457428
0.040735673 0.0060500042 -0.00077020936
0.041165985 0.0060499958 -0.00048298063
0.040735673 0.0060500051 -0.00048298226
0.040735681 0.0057619051 -0.00048298086
0.041165989 0.0057619014 -0.00048298086
0.040735673 0.0047535715 -0.00048297294
0.039157894 -0.00014404685 0.0041127698
0.039588198 -0.00072023971 0.0041127624
0.044321567 -0.0012964327 -0.00048297946
0.043747827 -0.0017285699 -0.0004829762
0.044321571 0.0053297621 -0.0046478673
0.044178132 0.0053297593 -0.0066585126
0.043747816 0.0057619032 -0.0066585154
-0.039157886 -0.0012964325 0.0015276638
0.044321567 -0.0001440465 -0.00077021611
0.044321559 -0.00072024157 -0.00048297993
0.044321567 -0.00072023226 -0.0010574488
-0.039588198 -0.0027369042 0.0038255262
-0.039157886 -0.003745235 0.0038255272
-0.039157882 -0.0033130939 0.0038255369
-0.039205693 -0.0027849209 0.003825536
0.04374782 0.0057619107 -0.0017755327
0.04159629 0.0060499995 -0.0017755379
0.041596293 0.0060499986 -0.0012010599
0.043747827 0.0047535715 -0.00048298063
0.043174081 0.0047535719 -0.00048297504
0.043747816 0.0041773859 -0.00048297271
0.036719479 0.0027368991 0.0022457414
0.036719482 0.0027368993 0.0016712742
0.036719482 0.0031690542 0.0016712714
0.043174081 0.0041773776 -0.00048298063
0.04226565 0.004753571 -0.00038723461
0.042743776 0.0047535691 -0.00048297388
0.043174084 0.0053297677 -0.0004829769
0.042313468 0.0041773831 -0.00048298109
0.041739732 0.0041773818 -0.00048297271
0.043747824 0.0033130916 -0.00048298342
0.043174081 0.0033130958 -0.0004829769
0.043174081 0.0027368981 -0.0004829769
0.042743776 0.0027369112 -0.00048297481
0.044273756 0.002112692 -0.00048297714
0.044178136 0.0027369112 -0.00077020633
-0.024097158 -0.0047535715 0.0012404313
-0.024192786 -0.0041293665 0.0012404285
-0.023810292 -0.0043214299 0.0012404253
-0.026822435 -0.0031690435 -0.0072329757
-0.022232501 0.0057619014 -0.00048298202
-0.022232497 0.0060499972 -0.00048298435
-0.021658758 0.0060500065 -0.00077021448
-0.021228451 0.0060500023 -0.0007702068
-0.026822433 -0.0047535682 0.0038255365
-0.026392126 -0.0047535715 0.0041127661
-0.026392134 -0.0053297575 0.0038255323
-0.023810292 1.8626451e-09 0.00095318491
-0.023236545 -0.00072023482 -0.00048297853
-0.023714662 -0.00076825614 0.0012404304
-0.023666851 -0.0012964262 0.0012404202
-0.023236545 -0.0012964341 -0.00048297411
-0.024384035 0.0021607131 0.0041127689
-0.024240591 0.0027369044 0.0036819088
-0.024240602 0.0027369107 0.0032510702
-0.02639213 0.0027369082 0.0041127605
-0.026392128 0.0027369016 0.0036819163
-0.026392134 0.0021607196 0.0038255341
-0.017786004 0.0033131002 -0.00048297574
-0.017786004 0.0027369037 -0.00048297876
-0.018933479 0.0031690451 0.00023510819
-0.026248697 0.0060500028 -0.003786175
-0.013339493 0.0060500046 -0.0017755255
-0.013769801 0.006050006 -0.0012010599
-0.012765757 0.0060500037 -0.00077021914
-0.010757667 0.0060500046 -0.006658515
-0.011761703 0.0060500056 -0.008238296
-0.012192019 0.0060500065 -0.0078074485
-0.0077455156 0.0060500004 -0.0042170202
-0.0081758164 0.006050006 -0.0046478705
-0.0067414683 0.0060500065 -0.0046478785
-0.0073152091 0.0060499995 -0.0046478789
-0.0077455104 0.0060499934 -0.0046478705
-0.010757665 0.0053297654 -0.0086691454
-0.010183914 0.0057619079 -0.0086691529
-0.010183917 0.0053297607 -0.0086691501
-0.02280624 -0.0031690444 -0.0078074443
-0.022806235 -0.0031690467 -0.0072329747
-0.022232499 -0.00316905 -0.0072329803
-0.010757666 -0.00072023785 -0.0086691529
-0.010183917 -0.00014405313 -0.0086691482
-0.010614231 0.00086427922 -0.0091000032
-0.010757659 -0.00014404173 -0.0086691519
-0.0097536119 -0.00072023226 -0.0086691463
0.011331406 -0.0033130962 -0.00048297434
0.010757664 -0.0033130893 -0.00048297318
0.011331409 -0.0027369065 -0.00048297481
-0.0047333683 -0.0032650842 -0.0086212764
-0.0047333711 -0.0033131018 -0.008238297
-0.0053071063 -0.0033130981 -0.0082382951
-0.0041596317 -0.0032650777 -0.0086212754
-0.0037293267 -0.0027369019 -0.0086691491
-0.0041596238 -0.0027369075 -0.0086691473
-0.0041596298 -0.0021607077 -0.0086691482
-0.003729326 -0.0033130944 -0.0078074452
-0.0032990146 -0.0033130893 -0.0078074532
-0.0032990212 -0.0033130967 -0.0082382951
-0.0012909151 -0.0033130911 0.001527661
-0.0012622264 -0.0027080937 0.0015851106
-0.00086061773 -0.0033130967 0.0015276615
-0.00086061383 -0.0027368986 0.0015276638
0.0032990163 -0.0033130893 -0.0057968106
0.0037293273 -0.0033130902 -0.0057968055
0.0037293178 -0.0033130944 -0.0062276591
0.024240604 -0.0027369056 -0.008669151
0.024814332 -0.0037452378 -0.0085255317
0.0242406 -0.0037452327 -0.0085255317
0.042313468 -0.0027369014 -0.008669151
0.032272976 -0.0027369028 -0.0086691454
0.032416414 -0.0037452411 -0.0076638241
0.031699244 -0.0027369093 -0.0086691473
0.036289174 -0.0027369084 -0.0086691529
0.035715438 -0.0027369061 -0.0086691454
0.035285126 -0.0027369084 -0.0086691435
0.035285126 -0.0021607182 -0.0086691473
0.034854822 -0.0027369051 -0.0086691454
-0.0027252701 -0.0033130902 -0.0066585056
-0.0012909138 -0.0033131009 -0.0057968106
-0.00071717415 -0.0033130893 -0.0052223373
-0.0007171749 -0.0033130972 -0.0057968022
-0.0032990188 -0.0033131 -0.0062276628
-0.0027252808 -0.0033130902 -0.0062276646
-0.00014343341 -0.0021607131 -0.0086691529
-0.00014343484 -0.0033130986 -0.0042170235
-0.00071717094 -0.0033130958 -0.0042170254
-0.0040161912 -0.004177385 0.0041127633
-0.0040161889 -0.003745242 0.0041127689
-0.0040161926 -0.0047535691 0.0041127698
0.019220356 -0.0031690504 -0.0066585052
0.019650659 -0.0031690495 -0.0062276581
0.019220352 -0.0031690411 -0.0062276581
0.0021515335 -0.0033130925 -0.0017755367
0.0027252762 -0.0033131009 -0.0023500011
0.0021515309 -0.0033130897 -0.0023500053
0.0027252708 -0.003313092 -0.0017755271
0.012765761 -0.0033130962 -0.0082383044
0.01276576 -0.003265081 -0.0086212745
0.013769813 -0.0033130995 -0.0085255345
0.012220707 -0.0032842816 -0.0085829832
0.01176171 -0.0033130902 -0.0085255299
0.0081758285 -0.0033130907 -0.005222335
0.0081758182 -0.0033130986 -0.005796812
0.0077455207 -0.0033131009 -0.0052223341
0.0077455216 -0.0033131014 -0.005796812
-0.024240591 -0.0047535743 0.0015276582
-0.024097161 -0.005185721 0.0012404234
-0.023810288 -0.0047535743 0.0015276619
-0.023810294 -0.004177385 0.0015276545
0.019650662 0.0060500065 -0.0032117025
0.018216304 0.0060500037 -0.0023499937
0.019220348 0.0060500018 -0.0023499937
0.018216299 0.006050006 -0.003211702
0.016781958 0.006050006 -0.0078074429
0.016781954 0.006050006 -0.0086691491
0.017355699 0.0060500065 -0.0078074457
0.016781958 0.0060500065 -0.0066585061
-0.0021515384 0.006050006 -0.0037861667
0.0007171802 0.0060499967 -0.0004829797
0.00071717461 0.0057619074 -0.0004829769
0.0012909157 0.0060500051 -0.00048297923
0.00071717199 0.0060499976 -0.00077021611
0.0012909205 0.0060499962 -0.00077021075
0.0017212195 0.0060500014 -0.0012010629
0.00129092 0.0060499939 -0.0012010685
0.019220358 0.0037452425 0.0038255318
0.012192014 0.0060499953 -0.00048297225
0.012765763 0.0060499967 -0.00048298528
0.012765763 0.006049999 -0.00077020703
0.01376981 0.0060500046 -0.00077021029
0.026248688 0.0060499948 -0.00048297504
0.026248697 0.0060500051 -0.00077021471
0.026822435 0.0060499967 -0.00048297364
0.025244638 0.0060500056 -0.0004829769
0.025674945 0.0060499962 -0.00048298342
0.01147484 0.0032650745 0.0037297858
0.011331403 0.0031690542 0.003251059
0.011474839 0.0037452348 0.0038255309
0.014200117 0.0060500056 -0.0017755264
0.014200115 0.0060500014 -0.0012010608
0.014773861 0.0060499981 -0.0012010592
0.011761706 -0.0025928584 0.0012404206
0.016638517 0.0033130955 0.0041127689
0.016351642 0.0031690467 0.0041127717
0.016638514 0.0037452395 0.0041127661
0.016638516 0.0033130937 0.0038255295
0.010757657 0.005761907 -0.00048297783
0.010757664 0.0060499967 -0.00048297783
0.0113314 0.0057618995 -0.00048298412
0.010183919 0.0057619088 -0.00048298016
0.010757658 0.0053297677 -0.00048297388
0.0061677238 0.0057619028 -0.0086691547
0.0057374164 0.0053297589 -0.008669151
0.0057374206 0.0057619112 -0.0086691482
0.0032990123 0.00605 -0.0086691538
-0.00071717618 0.0060500004 -0.0042170216
-0.0012909247 0.0060500028 -0.0042170179
-0.0012909148 0.006050006 -0.0046478687
-0.0012909163 0.0060500004 -0.0032117043
-0.00071717758 0.0060500018 -0.0023500051
-0.001290914 0.0060500042 -0.0023499986
0.00028687553 0.0052817417 -0.00038722833
0.0202244 -0.0037452327 -0.00077020773
0.020224398 -0.003745236 -0.0004829762
0.020798149 -0.0037452444 -0.00048298109
0.021658756 -0.0037452434 -0.0007702068
0.021228446 -0.0037452332 -0.00077020843
0.019220348 -0.0033130916 -0.0004829783
0.018790044 -0.0033130986 -0.00048297434
0.019794092 -0.0037452355 -0.00048298389
0.016208211 -0.0033130948 -0.0062276619
0.015777906 -0.003313099 -0.0066585089
0.015777905 -0.0033130986 -0.006227666
0.018790049 -0.0032650777 -0.0078553157
0.017307881 -0.0032650786 -0.0066585112
0.01821631 -0.003313099 -0.0082382942
0.018216308 -0.0032650782 -0.0078553222
0.01922035 -0.003265081 -0.0078553231
0.018790049 -0.0031690495 -0.0072329808
0.01678195 -0.0033130893 -0.0082382951
0.016781958 -0.0033130939 -0.0078074513
0.017355694 -0.0033130934 -0.008238297
0.026392125 -0.0053297658 0.0015276554
0.026679004 -0.0060500046 0.0015276656
0.026679 -0.0057619042 0.0015276629
0.022232501 -0.0033130972 -0.00048298063
0.021515325 -0.0033130897 0.0012404267
0.021658754 -0.0033130995 0.0041127698
0.021515319 -0.0033130893 0.0038255313
0.021658758 -0.0037452416 0.0015276563
0.023810284 -0.0033130986 0.0038255374
0.015777903 -0.0033131 -0.0072329789
0.015347603 -0.0033131 -0.0072329822
0.016638516 -0.002592857 0.0012404309
0.01678195 -0.0033130995 0.0015276615
0.016208211 -0.0033130911 0.0015276535
0.013769805 -0.0033130953 -0.003211705
0.015347595 -0.0033130907 -0.0023499951
0.014773851 -0.0033130944 -0.0023500016
0.015347591 -0.0033130939 -0.0017755274
0.015777899 -0.0033131018 -0.0012010664
0.015347597 -0.0033130897 -0.0012010608
0.016208211 -0.0033130981 -0.0012010583
0.016208211 -0.0033130953 -0.00077020749
0.018790051 -0.0037452402 0.0038255369
0.018933482 -0.0037452327 0.0041127633
0.018790049 -0.003313099 0.0038255262
0.016781947 -0.0041773785 0.0041127708
0.021658756 0.0027369023 0.001240422
0.021658752 0.0023047598 0.0012404318
0.021658761 0.0027369037 0.00167127
0.018933484 0.0031690532 0.0022457484
0.019220354 0.0031690523 0.0022457452
0.01893349 0.0027369042 0.0022457428
0.017786004 0.0017285671 -0.00048297271
0.01821631 0.0012964275 -0.00048298319
0.018216312 0.0017285751 -0.00048297411
0.019220358 0.0031690458 0.00080957031
0.019220352 0.00331309 0.0012404206
0.022089064 -0.00014404289 0.0038255267
0.023810295 -0.00072024204 0.0038255337
0.023810295 -0.0012964285 0.0038255267
0.021658754 -0.0012964306 0.0038255285
0.023810295 0.00057619554 0.0012404285
0.023810292 0.00028809463 0.00095318723
0.024240594 0.00028809253 0.001527661
0.023810288 0.0023047621 0.0015276633
0.019507231 -0.0017285717 0.0015276624
0.021228446 -0.0012964259 0.0015276531
0.019507229 -0.0012964341 0.0015276619
0.019507227 -0.001296425 0.0012404304
0.021228453 -0.0005761853 0.0012404304
0.019507222 -0.0007202432 0.0012404262
0.018790051 0.0021607091 0.0038255318
0.016638512 0.0031690432 0.0028202068
0.016638521 0.0027369093 0.0022457452
0.016638514 0.0027369 0.0028202161
0.018933486 0.0031690474 0.0032510678
0.016351644 0.0027369107 0.0028202063
0.016351644 0.0031690495 0.0028202101
0.016638521 0.00326508 0.0016233996
0.016638517 -0.002592857 0.0038255299
0.016351651 -0.0021607105 0.0038255374
0.016351644 -0.0027369005 0.0038255285
0.01893349 -0.003313093 0.0041127671
0.026392123 0.001728572 0.0038255374
0.031699236 0.001728572 0.0041127689
0.028830526 0.00028809079 0.0038255351
0.028830534 0.00028809102 0.0041127633
0.028973961 -0.0001440437 0.0038255355
0.032129552 0.00072024344 0.0041127717
0.032129545 0.00072023238 0.0038255346
0.031699244 0.00028809556 0.0038255309
0.032129545 0.00028809067 0.0038255267
0.031699236 0.00072023348 0.0038255369
0.032129548 -2.7939677e-09 0.0038255299
0.031699248 -0.00014404522 0.0038255337
0.032129541 -0.00014404277 0.0015276535
0.033850778 -0.00014404987 0.0015276563
0.032129548 0.000288098 0.0015276615
0.03169924 0.00028808939 0.0015276643
0.033850774 0.00028810033 0.0015276573
0.023810288 -0.001728572 0.0041127698
0.021610947 -0.0026888903 0.0038255341
0.024240594 -0.0037452388 0.0041127726
0.024670903 -0.0017285771 0.0041127615
0.026392128 -0.0017285673 0.0041127605
0.026392134 -0.0012964285 0.0041127605
0.024192788 -0.00067222049 0.0041127652
0.022089066 0.00028809381 0.0041127633
0.023810294 0.0017285715 0.0038255346
0.023810288 0.0021607154 0.0038255262
0.022089062 -0.00014404126 0.0041127717
0.02165875 -0.00014404533 0.0041127643
0.021658758 0.0027369107 0.00368192
0.021658756 0.0027369035 0.0032510599
0.021658752 0.0022087246 0.0037297839
0.021515325 0.003169043 0.0032510655
0.021515317 0.0031690523 0.002820218
0.024240594 0.0027369056 0.0016712747
0.024097163 0.0031690493 0.0028202175
0.024097161 0.0027369014 0.0032510646
0.024240598 0.00028809195 0.0038255341
0.028256794 0.0053297663 -0.00048297644
0.027683051 0.0057618991 -0.00048297248
0.028256791 0.0057619051 -0.00048298342
0.026678998 0.0031690411 0.0028202091
0.026679004 0.0037452341 0.0038255295
0.026392132 0.0037452411 0.0015276531
0.02682244 0.005761907 -0.00048297993
0.027252743 0.0057619112 -0.00048297644
0.026678994 0.0037452334 0.0015276582
0.026679004 0.0037452397 0.0012404295
0.026392132 0.0037452392 0.0012404257
0.024211913 0.0021895231 0.0037680911
0.023810294 0.0027369056 0.0038255318
0.024220107 0.0027163266 0.003702431
0.031268932 -0.0037452388 -0.003786176
0.031268936 -0.0037452434 -0.0032117055
0.031699233 -0.0037452341 -0.0032116983
0.032129548 -0.0007202432 0.0015276577
0.017786002 0.0060500023 -0.00048297737
0.018216301 0.0060500051 -0.00077021751
0.016781954 0.0060500042 -0.0017755385
0.018790044 0.0060500009 -0.002780857
0.019220348 0.0060500009 -0.0027808486
-0.043747824 -0.0027369037 -0.0012010664
-0.043747816 -0.0027369028 -0.0017755337
-0.043174081 -0.0027369088 -0.0017755269
-0.044178125 -0.002736907 -0.001775533
-0.043747824 -0.0021607163 -0.00048297993
-0.039588191 -0.00028809544 0.0038255388
-0.039588194 -0.00014404824 0.0041127633
-0.039588191 0.00028808904 0.0041127643
-0.039588191 -0.0007202432 0.0038255281
-0.044321567 -0.00028809032 -0.0023500032
-0.044321563 -0.00072024157 -0.0017755313
-0.044321563 0.0027369009 -0.0052223392
-0.044321567 0.0027369005 -0.0057968115
-0.044321563 -0.00072024018 -0.0012010676
-0.044321556 0.00028809137 -0.00077021378
-0.044321559 0.00028809754 -0.00048297364
-0.039731633 0.0060500009 -0.0047914903
-0.037149791 0.0060500042 -0.0046478664
-0.038297269 0.0060500009 -0.0047914921
-0.037149798 0.0060500018 -0.0032116957
-0.037149794 0.0060499972 -0.0037861674
-0.038297277 0.0060499976 -0.0078074532
-0.038297273 0.0057619 -0.0086691491
-0.03915789 0.0060500051 -0.0072329827
-0.03915789 0.0060500046 -0.0078074438
-0.040305365 0.0060500042 -0.0072329785
-0.040735681 0.0060500018 -0.007807449
-0.041596286 -0.0031690444 -0.001775532
-0.041165978 -0.0031690425 -0.0017755325
-0.041596293 -0.0031690537 -0.0012010701
-0.041596293 -0.0031690509 -0.0023500016
-0.04159629 -0.0031690416 -0.0032116992
-0.041165978 -0.003169049 -0.0032116971
-0.04159629 -0.0031690444 -0.0037861655
-0.044321563 0.0021607112 -0.0017755292
-0.044321559 0.0017285706 -0.0023500016
-0.044321571 0.0017285747 -0.001775536
-0.044321563 0.003313096 -0.00077021215
-0.044321574 0.0033130902 -0.0012010643
-0.044321563 0.0027369084 -0.00077021378
-0.044321571 0.0041773776 -0.003786169
-0.042170029 0.006050006 -0.0062276633
-0.039157882 0.0021607196 0.0041127596
-0.044178125 0.0057619028 -0.0012010662
-0.043747827 0.0057619 -0.0012010601
-0.043747816 0.0037452411 -0.00048298505
-0.043747824 0.0041773813 -0.00048298063
-0.043747827 0.001728568 -0.00048298156
-0.043174077 0.0012964275 -0.00048297737
-0.043174081 0.0017285737 -0.00048298505
-0.026248693 0.0021607103 -0.0086691547
-0.026248693 0.00273691 -0.008669151
-0.026822438 0.0027369 -0.0086691547
-0.02682244 0.0021607177 -0.0086691463
0.00071717758 0.0053297579 -0.00048298109
-0.00068848929 0.0047247671 -0.0004255285
-0.00071717554 0.0053297565 -0.0004829776
-0.0012909214 0.005329757 -0.00048298156
-0.001290918 0.0047535752 -0.00048297853
-0.00071717898 0.0057619107 -0.00048297225
-0.001338735 0.0031690453 0.0028680866
-0.0012909187 0.0027369063 0.0028202143
-0.026822442 -0.0017285654 -0.0086691473
-0.027252736 -0.00316905 -0.0078074513
-0.027683042 -0.0027369098 -0.0086691556
-0.027683055 -0.0031690444 -0.0078074411
-0.032416418 -0.0037452378 -0.0052223429
-0.032846723 -0.0037452448 -0.0052223359
-0.032416418 -0.0037452448 -0.0046478664
-0.034854822 -0.0037452397 -0.0066585159
-0.041165993 -0.0031690458 -0.00077021611
-0.04159629 -0.00316905 -0.00048297294
-0.041165985 -0.0031690532 -0.00048297248
-0.032846723 -0.0037452346 -0.0046478696
-0.039157886 -0.0053297598 0.0015276656
-0.039157886 -0.0057619065 0.0015276535
-0.03772353 -0.0033130911 -0.00048298296
-0.037580103 -0.0037452392 -0.00048297993
-0.038297266 -0.0033130995 -0.00048297644
-0.03772353 -0.0027369061 -0.00048297644
-0.037006352 -0.0028809537 0.0012404262
-0.036719482 -0.0057619046 0.0015276545
-0.028256785 -0.0031690509 -0.0037861767
-0.028256787 -0.0031690523 -0.0042170156
-0.027683049 -0.0031690421 -0.0037861667
-0.043747827 0.0057619005 -0.0086691529
-0.043174081 0.0057619102 -0.0082383025
-0.042743776 0.0057618986 -0.0082383007
-0.042743776 0.0057618986 -0.0078074429
-0.041118175 0.0060500028 -0.0072808554
-0.041165989 0.0057619 -0.008238296
-0.041165981 0.0057619005 -0.0086691491
-0.041739732 0.005761907 -0.0086691491
-0.041165985 0.0053297654 -0.0086691445
-0.044321571 -0.00072023994 -0.007232985
-0.044321571 -0.00072023668 -0.0066585131
-0.044321571 -0.001296428 -0.0057968041
-0.044321571 -0.0012964236 -0.0072329789
-0.044321563 -0.00014405104 -0.0078074434
-0.044321563 -0.00072023296 -0.0078074485
-0.044321567 0.00028809113 -0.0072329775
-0.039731633 0.0060500065 -0.0066585108
-0.042743765 0.0057619102 -0.0072329761
-0.0087495595 0.0060499967 -0.0052223392
-0.008175821 0.0060500028 -0.0052223457
0.0032990219 -0.00014404941 -0.0086691473
0.0032990132 0.0012964294 -0.0086691547
0.0037293173 0.0017285683 -0.0086691538
0.0032990102 0.0017285753 -0.0086691538
0.0037293267 0.0012964264 -0.0086691529
0.0027252694 0.0017285751 -0.0086691547
0.0021515279 0.00072023965 -0.0086691482
0.00071717351 -0.00014404871 -0.0086691454
0.0012909154 -0.00072023203 -0.0086691491
-0.0032990142 0.0060500004 -0.0032117076
-0.0027252708 0.0060500004 -0.0027808556
-0.0032990163 0.0060500046 -0.0023500051
-0.0032990186 0.0060499958 -0.00278085
-0.0027252678 0.0060499958 -0.0023500058
-0.0037293248 0.0060500037 -0.003211708
-0.0041596256 0.0060500032 -0.0032117013
-0.0037293241 0.0060499986 -0.0027808538
-0.0041596326 0.0060499967 -0.0037861704
0.011331401 0.006049999 -0.0012010613
0.011331399 0.0060499967 -0.00077021075
0.014200114 0.0037452376 -0.0086691473
0.014773852 0.0041773822 -0.0086691529
0.014773848 0.003745236 -0.0086691454
-0.0017212228 0.0060500023 -0.008238297
0.02079815 0.0060500004 -0.0062276646
0.020224405 0.006050006 -0.0066585061
0.020224407 0.0060500018 -0.00622766
0.020224402 0.0060500056 -0.005796805
-0.041165981 0.00605 -0.0062276535
-0.035285126 0.0060500037 -0.0062276539
-0.03528513 0.00605 -0.0057968097
-0.035715438 0.0060500014 -0.0072329766
-0.006741466 0.0057619 -0.0086691556
-0.01176171 0.0057619023 -0.008669151
-0.011761711 0.0060499948 -0.0086691529
-0.0113314 0.0057619065 -0.0086691473
-0.012192018 0.0060499995 -0.0086691491
0.018216308 0.0033130979 -0.0086691547
0.018216306 0.0037452374 -0.0086691454
0.019220352 0.0034571365 -0.0090999985
0.017786004 0.0037452376 -0.0086691556
0.018790044 0.003745242 -0.008669151
0.01678195 0.0027369088 -0.0086691454
0.016208211 0.0027369021 -0.0086691547
0.016781954 0.0021607201 -0.0086691547
0.017355694 0.0017285665 -0.0086691529
0.017355701 0.0021607187 -0.0086691435
0.017785994 0.0021607159 -0.0086691454
0.017786 0.001728572 -0.0086691454
0.022806246 -0.0021607135 -0.0086691547
0.034854814 -0.002160718 -0.0086691435
0.034854818 0.0053297649 -0.0086691519
0.03528513 0.0057619093 -0.0086691473
0.035285123 0.005329757 -0.0086691491
0.03915789 0.003745239 -0.0086691454
0.03915789 0.0033130895 -0.0086691435
-0.0047333729 0.0060500056 -0.0062276633
-0.0057374174 0.0060500065 -0.0066585168
-0.0041596326 0.0060500037 -0.005796812
-0.0032990165 0.0060500046 -0.0057968078
-0.0067414679 0.006050006 -0.0057968041
-0.0073152054 0.0060500046 -0.0052223364
-0.0093233129 0.0060500065 -0.0082382951
-0.0097536137 0.0060500065 -0.0078074466
-0.0087495688 0.0060500037 -0.0066585047
-0.007315204 0.0060500028 -0.0062276563
-0.0061677238 0.0060499953 -0.0052223355
-0.0061677205 0.0060499939 -0.0057968153
-0.0061677285 0.0060499934 -0.0046478701
0.031699244 0.00072023994 -0.0086691435
0.031268939 0.00072024448 -0.0086691547
0.031699236 0.0012964321 -0.0086691556
0.042313464 0.0053297682 -0.0086691547
0.041165989 0.0057619056 -0.0086691529
0.041165989 0.0060500028 -0.0072329734
0.041165985 0.0060500014 -0.0082382988
0.042313468 0.0057619098 -0.0066585173
0.043747824 0.0057619032 -0.0078074438
0.0021515277 0.0021607163 -0.0086691426
0.0037293276 0.0027369037 -0.0086691473
0.0037293164 0.0021607112 -0.0086691454
0.0017212292 0.0060500028 -0.0082383007
0.00028687363 0.0060500032 -0.0085255299
0.00028686813 0.006050006 -0.0082382942
0.0041596279 0.0017285665 -0.0086691529
0.0021515337 0.0053297663 -0.0086691454
-0.003729325 0.0057619009 -0.0086691529
-0.0041596289 0.0057619074 -0.0086691547
0.0017212235 0.0057619102 -0.0086691473
-0.0027252694 0.00028809905 -0.0086691435
-0.0027252699 -0.00014404824 -0.0086691538
-0.0027252743 0.00072023895 -0.0086691491
0.00071717351 0.001296429 -0.0086691547
0.0012909235 0.001296423 -0.0086691454
-0.0032990156 -0.00072023738 -0.0086691491
-0.0032990212 -0.00014405092 -0.0086691473
-0.0027252738 -0.00072024111 -0.0086691529
0.00028687078 0.00028809253 -0.0086691547
0.0012909201 0.00028809218 -0.0086691519
-0.0047333748 -0.001296435 -0.0086691529
-0.0047333646 -0.00072024181 -0.008669151
-0.0041596312 -0.00072023575 -0.008669151
-0.0017212291 -0.0017285682 -0.0086691519
-0.0061677289 0.0012964299 -0.0086691435
-0.0061677224 0.00072023348 -0.0086691529
-0.0027252792 -0.0017285768 -0.0086691529
-0.0057374211 -0.0027369023 -0.0086691547
-0.0053071082 -0.002160717 -0.0086691435
-0.00071717147 -0.0027369051 -0.0086691529
-0.00129092 -0.0027369112 -0.0086691529
-0.00014343257 -0.0027369028 -0.0086691454
-0.00014344131 -0.0033130981 -0.0086691519
-0.0006966911 -0.0032925224 -0.0086486321
-0.0047333702 -0.002160708 -0.0086691473
-0.0032990109 -0.0027369009 -0.0086691491
-0.0032990158 -0.0032650782 -0.0086212773
-0.0027252764 0.0057618995 -0.008669151
-0.0021310374 0.0053091897 -0.0086486321
-0.002725271 0.0053297668 -0.0086691454
-0.0081758229 0.00057619222 -0.0090999939
-0.0093233073 0.00072023948 -0.008669151
-0.0093233045 0.0012964277 -0.0086691529
0.031699248 0.0060500028 -0.0086691529
0.0081758248 0.0041773822 -0.008669151
0.0077455207 0.0047535757 -0.0086691491
0.0077455202 0.0041773831 -0.0086691529
0.0081758257 0.0047535771 -0.0086691454
0.013769809 0.0057619102 -0.0086691501
0.014200109 0.0057619042 -0.0086691426
0.014200108 0.0060499944 -0.0086691435
0.014200113 0.0021607119 -0.0086691445
0.014200111 0.0017285763 -0.0086691454
0.013769805 0.0021607114 -0.0086691529
0.01477386 0.0021607187 -0.0086691501
0.014773859 0.0017285681 -0.008669151
-0.0007171731 0.001728574 -0.0086691435
-0.0021515319 0.00072023168 -0.0086691426
-0.0012909248 -0.0021607089 -0.0086691454
-0.0093233017 0.0060500042 -0.007232978
-0.0093233045 0.0060500065 -0.0057968032
-0.0097536147 0.0060500023 -0.0062276577
0.031268932 -0.003745236 -0.0072329822
0.031268936 -0.0026888843 -0.0086212782
0.029260833 -0.0031690462 -0.0078074499
0.028830538 -0.0031690532 -0.0078074522
0.029260842 -0.0027369033 -0.0086691445
0.030838624 -0.003745235 -0.0070893611
0.029260842 -0.0031690509 -0.0072329808
-0.033277027 -0.0037452416 -0.0032116962
-0.032416414 -0.0037452318 -0.0042170272
-0.032416422 -0.0037452374 -0.0032117078
-0.032416414 -0.003745236 -0.0023499988
-0.03528513 -0.0037452322 -0.00077020796
-0.035285134 -0.0037452369 -0.0012010618
-0.041596282 -0.0031690462 -0.0072329766
-0.041165985 -0.0031690486 -0.0072329799
-0.041596286 -0.0031690523 -0.0066585131
-0.037580099 -0.0037452322 -0.0066585112
-0.043747827 -0.0026888899 -0.0077595697
-0.044178125 -0.0027369056 -0.0072329785
-0.037580092 -0.0037452388 -0.004647871
-0.039683819 -0.0032650833 -0.005796805
-0.039683815 -0.0032650833 -0.0062276646
-0.039157886 -0.0033130958 -0.0057968134
-0.040735677 -0.0031690542 -0.0062276623
-0.044273749 -0.0022087344 -0.0072329799
-0.035715435 -0.0037452341 -0.0066585084
0.015347597 0.0017285664 -0.0086691529
0.013769801 0.0017285682 -0.0086691529
0.013339497 0.001296433 -0.0086691473
0.013769803 0.0012964295 -0.008669151
0.014200117 0.0012964222 -0.008669151
-0.004159634 -0.0033130995 -0.0046478724
-0.0041596321 -0.0033130986 -0.0072329734
-0.0041596345 -0.0033130934 -0.0078074494
-0.0032990149 -0.0033130944 -0.0027808477
-0.0027252797 -0.003313093 -0.0027808496
-0.0037293211 -0.0033130995 -0.0032117004
-0.0032990207 -0.0033130925 -0.0032116999
-0.0027252727 -0.0033130911 -0.0023500049
-0.0012704254 -0.0012758446 0.001650766
-0.0012431093 -0.0017285778 0.0016234042
-0.00086061569 -0.001728571 0.0015276563
-0.00086061319 -0.0012964327 0.001527661
-0.0012431114 -0.0012484167 0.0012404229
-0.0012909129 -0.00072023529 0.0012404318
0.0012909134 -0.0057619102 0.0041127652
0.001290915 -0.0053297593 0.0038255346
0.0012909201 -0.0053297589 0.0041127671
0.0012909165 -0.0057619032 0.0038255313
-0.0012909127 -0.005761907 0.0015276535
-0.0012909226 -0.006049999 0.0015276661
-0.0012909131 -0.0053297603 0.001527661
-0.0012909226 -0.0041773827 0.0015276647
-0.0012909157 -0.003745243 0.0015276577
-0.00086060911 -0.0037452336 0.0015276587
-0.0012909243 -0.0037452439 0.0038255276
-0.0012909169 -0.003313092 0.0041127633
-0.0012909189 -0.003745235 0.0041127717
-0.00086061505 -0.0037452425 0.0012404313
-0.0037293225 -0.0053297575 0.0015276545
-0.0037293178 -0.0057619107 0.0015276531
-0.0040161959 -0.0053297575 0.0015276633
0.0093233017 -0.0033130962 -0.0012010592
0.0097536184 -0.0033130962 -0.0012010611
0.0093233101 -0.0033131 -0.001775533
0.0087495698 -0.003313099 -0.001775533
0.0088930028 0.0031690444 0.0022457493
0.0091798706 0.0027369049 0.0016712733
0.0087495595 0.0032650847 0.0016233982
0.011474838 0.003169043 0.0028202101
0.0091798706 0.0025928584 0.0012404285
0.0088929962 0.0033131014 0.00080957403
0.0012909231 0.0017285714 0.0041127671
0.0012909158 0.0017285699 0.003825536
0.0012909202 0.0012964233 0.0038255281
0.0012909163 0.0021607114 0.0041127643
