# .PCD v0.7 - Point Cloud Data file format
VERSION 0.7
FIELDS x y z
SIZE 4 4 4
TYPE F F F
COUNT 1 1 1
WIDTH 1222
HEIGHT 1
VIEWPOINT 0 0 0 1 0 0 0
POINTS 1222
DATA ascii
0.0097647021 -0.0047171428 -0.00028944761
0.0087701492 -0.0050800005 -0.00028944761
0.0097647011 -0.00072571397 -0.00019931421
0.012205878 -0.0038100006 -0.00028944761
0.012205875 0.00072571408 -0.00019931328
0.012567534 0.0047171433 -0.001280928
0.012657948 0.0042635724 -0.001280929
0.013290846 0.0042635715 -0.00028944854
0.013290847 0.0038099992 -0.00028944761
-0.0062385602 0.0050800005 -0.00028944854
-0.011301738 0.0050800005 -0.00074012112
-0.010216772 0.0050800005 -0.001280929
-0.011301738 0.0050799996 -0.00037958287
-0.010759255 0.00508 -0.001280928
-0.010759254 0.00508 -0.0017315997
-0.010216771 0.00508 -0.0017316006
0.0016920317 0.0050800005 -0.030252747
0.0012657952 0.0050800005 -0.029763449
0.001717864 0.0047171423 -0.030304257
0.012205878 0.0047171423 -0.00019931328
0.011753808 0.0047171428 -0.00019931328
0.011301738 0.004263571 -0.00019931328
0.011753808 0.0042635724 -0.00019931328
0.012205877 0.004263571 -0.00019931328
0.010759256 0.0050800005 -0.0021822732
0.010216773 0.0050800005 -0.002723081
0.0097647011 0.0050800005 -0.0021822732
0.010216773 0.00508 -0.0021822732
0.0097647011 0.0050800005 -0.001280928
0.011301739 0.0050800005 -0.019307841
0.0097647021 0.0050800005 -0.00028944667
0.0093126344 0.0050800005 -0.00074012112
0.0087701501 0.00508 -0.00028944761
0.008227665 0.00508 -0.00028944667
0.0093126325 0.0050800005 -0.0021822723
0.010216773 0.0032657147 -0.00019931328
0.009764703 0.0027214284 -0.00019931328
0.010216772 0.0027214293 -0.00019931421
0.0097647021 0.003265715 -0.00019931328
0.011301739 0.00018142839 -0.00019931328
0.010759253 0.00018142826 -0.00019931328
0.010759256 0.00072571356 -0.00019931328
0.010216772 0.00018142886 -0.00019931328
0.010759253 -0.00072571379 -0.00019931328
0.011753808 0.003809999 -0.00019931328
0.012748362 0.003265715 -0.00019931328
0.0093126316 -0.0047171423 -0.00028944761
0.011753806 -0.00072571379 -0.00019931328
0.011753807 -0.0012700001 -0.00019931328
0.012748361 -0.0018142856 -0.00019931328
0.012205876 -0.0022678568 -0.00019931421
0.011753808 -0.0022678571 -0.00019931328
0.013290843 -0.0018142862 -0.00074012019
-0.0062385602 0.0050800005 -0.0038046958
-0.0047919364 0.0050800005 -0.0047060428
-0.0062385593 0.0050800005 -0.004706041
-0.006781043 0.0050800005 -0.0042553674
-0.009764703 0.0050800005 -0.0032638879
-0.011663394 0.00508 -0.002723081
-0.011301738 0.0050799996 -0.002723082
-0.010759255 0.0050800005 -0.0042553684
-0.010216772 0.0050800005 -0.0047060419
-0.0056960755 0.003265715 -0.00019931328
-0.0052440069 0.0032657147 -0.00019931328
-0.0066725467 0.00014514316 0.0017836476
-0.0066725463 0.00014514249 0.0012428388
-0.0062455153 0.00017445121 0.0017767129
-0.0062385597 0.00018142836 0.0022343202
-0.0066725467 0.00014514323 0.0022343202
-0.0062455158 0.00017445059 0.0012428388
-0.0058769034 -4.3428372e-10 0.0012428388
-0.0017178638 -0.00508 -0.00074012205
-0.0012657949 -0.0050800005 -0.00019931328
-0.0017178638 -0.00508 -0.00019931328
-0.0012657951 -0.0050800005 -0.00074012112
-0.0058769034 -0.00018142795 0.0017836476
-0.0063289739 -0.0005442854 0.0017836476
-0.0063289744 -0.00054428627 0.0012428397
-0.0058769044 -0.00018142871 0.0012428407
-0.0042494545 -0.0038100001 -0.00019931234
-0.0037069707 -0.003265715 -0.00019931328
-0.004249454 -0.0032657154 -0.00019931328
-0.0047919373 -0.0032657143 -0.00019931328
-0.0037069693 -0.0038099999 -0.00019931421
-0.0032549009 -0.0027214284 -0.00019931234
-0.003706971 -0.0027214289 -0.00019931328
-0.0042494531 -0.0027214284 -0.00019931328
-0.00370697 -0.0022678573 -0.00019931328
-0.0032549005 -0.0022678568 -0.00019931421
0.013290845 -0.0018142863 -0.0021822732
0.013652502 -0.0027214279 -0.0038046958
0.013290846 -0.0018142858 -0.0042553674
0.013652501 -0.0027214284 -0.0042553684
-0.012748362 -0.0038100006 -0.00019931328
-0.012205879 -0.0042635715 -0.00019931328
-0.0136525 -0.004263571 -0.00028944667
-0.012567534 -0.0047171419 -0.0012809271
-0.012567532 -0.0050800005 -0.0017316006
-0.012205878 -0.0050800005 -0.0021822723
-0.0093126306 -0.0032657145 -0.00019931234
-0.0097647021 -0.0027214282 -0.00019931234
-0.0097647021 -0.0032657138 -0.00019931421
-0.0093126316 0.003265715 -0.00019931328
-0.0097647021 0.0042635715 -0.00019931328
-0.009764703 0.00508 -0.00028944854
-0.011753809 0.0032657138 -0.00019931328
-0.011753806 0.0038100006 -0.00019931328
-0.012205879 0.0032657145 -0.00019931421
-0.011301739 0.0032657143 -0.00019931328
-0.01174559 0.0047006486 -0.00029764231
-0.010759254 0.0038099997 -0.00019931328
-0.010216772 0.0038099999 -0.00019931328
-0.012198925 0.0038030229 -0.00020624604
-0.01320043 0.00072571443 -0.0062383278
-0.013290842 0.0012699999 -0.0062383297
-0.013200433 0.00018142906 -0.0066890013
-0.013200429 0.00018142819 -0.0062383288
-0.013290845 0.0012699995 -0.0066890018
-0.013290845 0.0012699995 -0.0072298078
-0.013652501 0.0027214282 -0.0066890023
-0.013290845 0.0018142851 -0.0066890018
-0.013290847 0.0018142855 -0.0062383288
-0.0136525 0.0027214286 -0.00028944761
-0.01323918 -0.001840204 -0.0027230801
-0.013290845 0.0018142865 -0.012818154
-0.0087701501 -0.00508 -0.01119573
-0.0087701492 -0.0050799996 -0.010745056
-0.0093126334 -0.00508 -0.015702456
-0.0097647011 -0.0050800005 -0.015702456
-0.012205877 -0.0050800005 -0.017685419
-0.012567534 -0.0047171423 -0.013719496
-0.012567535 -0.0047171419 -0.014801111
-0.012567533 -0.0047171433 -0.015251783
-0.0018082779 -0.0012700005 -0.013539228
-0.0008137257 -0.0012699997 -0.01317869
-0.00027124173 -0.00027214247 -0.01317869
0.00027124156 -0.00027214241 -0.01317869
-0.0028028309 -0.00027214261 -0.014080034
-0.004280902 -0.0032736023 -0.015678944
-0.004430281 -0.003265715 -0.016243264
-0.004430281 -0.0027214282 -0.016243264
-0.0038877984 -0.0026851429 -0.015233758
-0.0029233838 -0.0027214282 -0.014140125
-0.0023079342 -0.0012795493 -0.013662569
-0.0028685869 -0.0017977925 -0.014129198
-0.0029233831 -0.0012699993 -0.014140124
-0.0037586358 -0.0018142854 -0.014775361
0.0033453139 -0.00027214349 -0.020930262
0.0037480665 0.00018967495 -0.020233773
0.0037973851 0.00018142877 -0.019848647
0.0028389974 0.00018142805 -0.021362908
0.0044302815 0.00018142826 -0.018406494
-0.011753808 -0.0050800005 -0.0062383288
-0.011301736 -0.0050800005 -0.0066890013
-0.0097647011 -0.0050799996 -0.0097535755
-0.0097647021 -0.0050799996 -0.0092127677
-0.010216773 -0.00508 -0.0092127696
-0.012567532 -0.0050800005 -0.010294384
-0.012205878 -0.0050799996 -0.010294383
-0.012205878 -0.0050800005 -0.0097535765
-0.012567532 -0.0050800005 -0.0092127677
-0.011301739 -0.0050800005 -0.0092127696
-0.011753808 -0.0050800005 -0.0092127686
-0.012567533 -0.0050800005 -0.0087620951
-0.011753808 -0.0050799996 -0.0066890009
-0.011753808 -0.00508 -0.0072298087
-0.013290847 -0.0022678564 -0.001280929
-0.013652501 -0.0027214282 -0.00028944761
-0.013652501 0.0018142854 -0.00028944761
-0.013290845 0.0012700004 -0.00074011926
-0.013282979 0.00070205005 -0.00023066532
-0.013290845 0.00127 -0.00028944761
-0.0136525 -0.003628572 -0.0018217349
-0.013290845 -0.0036739283 -0.0021822732
-0.013290845 -0.0027214289 -0.0032638889
-0.013290844 0.0012700004 -0.0057876566
-0.013652501 0.0027214284 -0.0062383288
-0.013200429 0.00018142888 -0.0057876566
-0.013652502 0.0027214286 -0.0057876557
-0.013290846 0.0012699994 -0.0042553674
-0.013652502 0.0027214277 -0.004706041
-0.013652502 0.0027214286 -0.0042553684
-0.013290846 0.0012699993 -0.0038046958
-0.013200431 0.0001814282 -0.0042553684
-0.013652502 0.0027214279 -0.0038046958
-0.013200431 0.00018142875 -0.0047060419
-0.013290846 0.0018142853 -0.0038046958
-0.012657948 -0.0042635719 -0.0066890013
-0.012657948 -0.004263571 -0.0062383288
-0.012567535 -0.0047171428 -0.0062383288
-0.012567534 -0.0047171433 -0.0066890013
-0.0136525 -0.0036285713 -0.0061481935
-0.013290843 -0.0037192856 -0.006148193
-0.013652499 -0.0034471422 -0.0052468488
-0.013290846 -0.0027214286 -0.0052468488
-0.0136525 -0.0034471429 -0.00470604
-0.013290847 -0.0022678568 -0.0052468479
-0.0136525 -0.0036285711 -0.0050665792
-0.013290845 -0.0036739283 -0.0037596282
-0.012657948 -0.0042635715 -0.0047060419
-0.012657947 -0.0042635715 -0.0052468488
-0.013290844 -0.0027214291 -0.00470604
-0.0012657949 -0.0050800005 -0.0017315997
-0.005696075 -0.0027214286 -0.00019931421
-0.0067810426 -0.0032657147 -0.00019931328
-0.0072331135 -0.0038099999 -0.00019931328
-0.0072331135 -0.003265714 -0.00019931328
-0.0062385597 -0.0047171423 -0.00019931328
-0.0056960769 -0.0050799996 -0.00019931328
-0.0062385588 -0.00508 -0.00019931328
-0.011301739 -0.0032657147 -0.00019931328
-0.011301738 -0.0027214289 -0.00019931328
-0.011753806 -0.003265714 -0.00019931234
-0.012205877 -0.0050799996 -0.00064998586
-0.012205879 -0.0050799996 -0.001280928
-0.010216773 -0.0047171414 -0.00019931234
-0.012205878 -0.00508 -0.0038046958
-0.012205877 -0.00508 -0.0032638879
-0.012205878 -0.0050799996 -0.0017315997
-0.011301738 -0.0050800005 -0.001280928
-0.011301738 -0.00508 -0.00064998493
-0.012657947 -0.0042635724 -0.002723081
-0.013290845 -0.0036739274 -0.0026780134
-0.00022603432 -0.0032203577 -0.030664794
-0.0012657953 -0.0018142863 -0.030304257
-0.0085893217 0.0042635719 -0.027600221
-0.0085893217 0.0039007138 -0.027600218
-0.00721503 0.0038099994 -0.028645784
-0.0022603481 -0.00508 -0.028681835
-0.0047015236 -0.0045357142 -0.029583178
-0.0042268508 -0.0042635715 -0.029740915
-0.0047015226 -0.004263571 -0.029583178
0.006781043 -0.0050800005 -0.025256719
0.0067810426 -0.0050800005 -0.024265239
0.0072331135 -0.0050800005 -0.024715913
0.004249454 -0.0050800005 -0.013719496
0.004249454 -0.00508 -0.01480111
0.0042494535 -0.0050800005 -0.015251784
0.00027124197 -0.00508 -0.028681835
0.0012657944 -0.0050800005 -0.029222639
0.00081372575 -0.0050800005 -0.02778049
0.00027124232 -0.00508 -0.027780486
0.001265794 -0.00508 -0.03021412
0.0056960755 -0.0050800005 -0.011736536
0.0072331126 -0.0050800005 -0.010745057
0.0056960764 -0.0050800005 -0.010745057
0.0067810435 -0.0050800005 -0.011195729
0.0027640818 -0.0027343873 -0.030188367
0.0028028314 -0.0032786739 -0.030188367
0.0022431267 -0.0032484352 -0.030252744
-0.013170292 -0.0022980955 -0.019758511
-0.012748362 -0.00072571379 -0.02020919
-0.012748362 -0.00027214352 -0.020209186
-0.0043511689 0.0046944642 -0.019319106
-0.0044302819 0.0047171428 -0.018767033
-0.0044302815 0.004263571 -0.018406494
-0.0047919368 0.0050800005 -0.017234745
-0.0052440069 0.0050800005 -0.014260303
-0.0076851817 0.00508 -0.017685419
-0.008227665 0.0050799996 -0.018226225
-0.008227665 0.00508 -0.018767033
-0.0052440064 0.0050800005 -0.020209186
-0.005696076 0.0050799996 -0.019758511
-0.0052440069 0.00508 -0.019758511
-0.0056960769 0.0050800005 -0.019307839
-0.0062385593 0.0050800005 -0.019758511
-0.0047919373 0.0050800005 -0.019758511
-0.0047919373 0.0050800005 -0.020209186
-0.0067810421 0.0050799996 -0.020209184
-0.0062385597 0.00508 -0.020209186
-0.0072331135 0.00508 -0.020749992
-0.0072331131 0.0050800005 -0.0212908
-0.006781044 0.0050799996 -0.020749994
-0.0072331131 0.0050799996 -0.020209186
-0.010216772 0.00508 -0.016784074
-0.010216773 0.0050799996 -0.016243264
-0.0097647021 0.00508 -0.017234745
-0.0097647002 0.00508 -0.016784072
-0.009764703 0.00508 -0.015702456
-0.010759256 0.0050800005 -0.015702458
-0.013290846 0.0047171433 -0.015702456
-0.011301737 0.00508 -0.016243264
-0.011301738 0.0050800005 -0.012818152
-0.010759257 0.00508 -0.013268824
-0.010759256 0.0050799996 -0.012818151
-0.010216773 0.00508 -0.015251786
-0.010216772 0.0050800005 -0.013268825
-0.010216772 0.00508 -0.012277344
-0.010216772 0.0050800005 -0.0062383288
-0.010216771 0.00508 -0.0066890013
-0.0097647011 0.0050799996 -0.0066890013
-0.0087701483 0.0047171423 -0.00028944761
-0.0093126334 0.0047171423 -0.00028944761
-0.0082276659 0.0042454284 -0.00023536757
-0.0072331126 0.0032657133 -0.00019931328
-0.0067810421 0.0047171423 -0.00028944761
-0.0067810426 0.0050800005 -0.00028944761
-0.0076851808 0.0042635719 -0.00028944854
-0.0067810426 0.00508 -0.0038046958
-0.0072331131 0.0050799996 -0.0032638889
-0.0072331135 0.0012699999 -0.00019931234
-0.0076851831 0.00072571443 -0.00019931328
-0.0072331131 0.0007257142 -0.00019931328
-0.012688085 0.0047473805 -0.0021822741
-0.013652502 0.0046264292 -0.0052468488
-0.013290845 0.0047171433 -0.0038046958
-0.013290845 0.0047171428 -0.003263887
-0.013290845 0.0046566669 -0.0087320507
-0.013652502 0.0046653063 -0.0083114225
-0.0136525 0.0046264292 -0.0087620951
-0.013652501 0.004263571 -0.0083114225
-0.013652501 0.0037840817 -0.0091612637
-0.013652502 0.0038100001 -0.0083114235
-0.013652501 0.0046264282 -0.0092127686
-0.013652501 0.003265714 -0.0077706161
-0.013652502 0.0027214289 -0.0083114225
-0.013652502 0.0032657147 -0.0083114244
-0.013652501 0.0027214279 -0.0077706161
-0.013652502 0.0032657147 -0.0092127686
-0.013652501 0.0046264292 -0.010294385
-0.013652501 0.0046264287 -0.0097535765
-0.013652501 0.0046264292 -0.011736536
-0.013652502 0.0032657143 -0.012277343
-0.013290845 0.0047171423 -0.0097535755
-0.012205877 0.0050799996 -0.011375999
-0.012205877 0.00508 -0.014981382
-0.01172367 0.0050800005 -0.013298869
-0.011663395 0.0050799996 -0.012818151
-0.013652502 0.0046264287 -0.002723081
-0.011663395 0.0050799996 -0.0032638879
-0.013290845 0.0047171428 -0.0042553684
-0.011663394 0.0050799996 -0.0042553684
-0.010759256 0.00508 -0.010294384
-0.010216772 0.00508 -0.0097535774
-0.010216772 0.0050800005 -0.010745056
-0.011301738 0.0050800005 -0.0097535755
-0.0052440064 0.0050800005 -0.0072298092
-0.0047919378 0.0050800005 -0.0066890009
-0.0052440073 0.00508 -0.0066890009
-0.0047919373 0.00508 -0.0072298087
-0.0052440059 0.00508 -0.0062383288
-0.0062385597 0.0050800005 -0.0072298083
-0.01209286 0.0046717855 -0.023228692
-0.011753809 0.0047171419 -0.02327376
-0.011211324 0.00508 -0.023273759
-0.011753809 0.0047171419 -0.023814563
-0.012712196 0.0047897138 -0.021290801
-0.0117086 0.00508 -0.021245733
-0.013165657 0.0032936253 -0.020722259
-0.01320043 0.0027214282 -0.020209186
-0.013110017 0.0027214289 -0.020749994
-0.013200429 0.003265714 -0.020209186
-0.013280207 0.0032550415 -0.019753207
0.0062385593 0.00018142811 0.0030455301
0.0066002142 0.00018142896 0.0030455301
0.0063289735 0.00054428534 0.0030455301
0.0062747253 -0.00025399972 0.0030455301
-0.0018082781 0.0012700002 -0.013539228
-0.0029233841 0.0012699998 -0.014140124
-0.0022844577 0.0012820949 -0.013611334
0.0097647021 0.0050799996 -0.026248202
0.010100526 0.0046912245 -0.025771772
0.010147222 0.0042565945 -0.025783658
0.010035944 0.0042635719 -0.026158066
0.011301738 0.00508 -0.022192145
0.010759254 0.0050800005 -0.022192145
0.010759256 0.0050800005 -0.022732953
0.011120912 0.00508 -0.023634296
0.011250074 0.00508 -0.023248006
0.011663395 0.0045357146 -0.02309349
0.0082276668 0.0050799996 -0.026698874
0.008227665 0.0050800005 -0.025797527
0.0082276659 0.0050800005 -0.02471591
0.0087701492 0.0050800005 -0.025256719
0.0087701492 0.0050799996 -0.025797527
0.005696076 0.00508 -0.021741472
0.0052440064 0.00508 -0.0212908
0.0056960755 0.00508 -0.0212908
0.0052440064 0.0050799996 -0.021741472
0.0037069698 0.00508 -0.0212908
0.0047919373 0.0050800005 -0.022192145
0.0056960764 0.0050800005 -0.022192145
0.0028028309 0.0050800005 -0.022192143
0.011301738 0.00508 -0.022732951
0.010216773 0.0050800005 -0.021741472
0.0087701483 0.0050800005 -0.021741472
0.0093126334 0.0050800005 -0.0212908
0.0093126316 0.00508 -0.022192145
0.0087701483 0.0050800005 -0.024265237
0.0082276659 0.0050800005 -0.020749994
0.010759256 0.0050800005 -0.021741472
0.010216773 0.0050800005 -0.020749992
0.010638704 0.0047171428 -0.025106495
0.012108507 0.0037681314 -0.023232162
0.0087701483 0.00508 -0.0212908
0.0072331131 0.0050799996 -0.027780488
-0.0097517837 -0.0032786727 -0.026647367
-0.009258383 -0.003701143 -0.027167574
-0.008666819 -0.0037322443 -0.027677478
-0.0092121717 -0.0022779363 -0.027179591
-0.0092282444 -0.0018142849 -0.027179589
-0.0092523564 -0.0012599204 -0.027189605
-0.0096742874 0.00018142805 -0.027059412
-0.0046789194 -0.0037873208 -0.029628247
-0.0062385593 -0.0041728569 -0.029042371
-0.0036843666 -0.0032430352 -0.030123983
-0.0027787213 -0.0027214291 -0.030196093
-0.0032419837 0.0027473471 -0.030149739
-0.001717864 0.00508 -0.029763449
-0.0022377446 0.0050799996 -0.029740915
-0.0036708044 0.0042454288 -0.030123986
-0.0042236215 0.0038100008 -0.029711939
-0.0067358366 0.0043089283 -0.029042371
-0.0062159565 0.0032430356 -0.029042367
-0.0061300634 0.0038099992 -0.029042369
-0.0086495979 -0.00030238132 -0.027600219
-0.0081914999 -0.0002721425 -0.027672326
-0.0086797355 -0.0007257142 -0.027600219
-0.0081824576 -0.00072571432 -0.027645286
-0.0086797355 -0.0018142856 -0.027600221
-0.0096742883 0.0022980946 -0.027119502
-0.0092987232 0.0022748346 -0.027170345
-0.0086495969 0.0022376184 -0.027600219
-0.0080468375 0.0022678571 -0.028141025
-0.0080468375 0.0018142854 -0.028141025
-0.0075721652 -0.0032430349 -0.028546633
-0.010103754 0.0017689284 -0.026225667
-0.012567533 0.0013062861 -0.022083983
-0.013290847 0.0022678566 -0.018226227
-0.012748361 0.0022678575 -0.021290801
-0.012593365 0.0018142862 -0.022089135
-0.012025049 0.0018142859 -0.023183629
-0.012183274 0.0018142851 -0.022710415
-0.011663392 0.0018142861 -0.024265237
-0.011301738 -0.0050799996 -0.018226227
-0.010216772 -0.0050800005 -0.016784072
-0.010216772 -0.00508 -0.016243264
-0.010759254 -0.0050799996 -0.018767033
-0.008227665 -0.0050800005 -0.016243264
-0.0087701501 -0.0050800005 -0.014801112
-0.0087701492 -0.00508 -0.015702456
-0.0097647021 -0.00508 -0.018767031
-0.0087701492 -0.00508 -0.017685417
-0.0093126325 -0.00508 -0.017685417
-0.011157075 0.0022860004 -0.025148559
-0.011120911 0.0012700004 -0.025166586
-0.010650759 0.0018142854 -0.025689367
-0.011663394 0.0036285708 -0.024535643
-0.011723671 0.0043542851 -0.024235196
-0.012025051 0.0043542851 -0.023724433
-0.010035944 0.0037192851 -0.026608739
-0.011256532 -0.0036739279 -0.02458071
-0.011735725 0.0037011425 -0.024211159
-0.011735725 0.0032475712 -0.024247214
-0.012025049 0.0034471427 -0.023724433
-0.011753808 0.0027214284 -0.023814565
-0.0097420979 -0.0022678575 -0.026631271
-0.0087159025 -0.0033019998 -0.027636271
-0.0097345645 -0.00072571397 -0.026578693
-0.01009622 -0.00072571426 -0.026218155
-0.012600412 -0.0027379221 -0.022159368
-0.012600412 -0.0032492203 -0.022159368
-0.012097381 -0.0037737137 -0.023183625
-0.013110016 -0.0018142853 -0.019758513
-0.012696697 -0.00027214317 -0.020724239
-0.012696696 -0.00072571356 -0.020724235
-0.011753809 0.0022678566 -0.023814566
-0.011719033 0.0018421978 -0.023800699
-0.012142587 -0.0018233563 -0.022714924
-0.012567533 -0.0013607144 -0.022011876
-0.012567532 -0.0018142853 -0.022011876
-0.01202505 -0.00072571402 -0.023093488
-0.01202505 -0.00027214261 -0.02309349
-0.01210416 -0.00071437564 -0.022710416
-0.012110142 -0.0012806719 -0.022722347
-0.01202505 -0.0027214286 -0.023634296
-0.011663396 -0.0018142852 -0.024175104
-0.012070256 -0.002736548 -0.023243716
-0.012085326 -0.0022678578 -0.023153579
-0.0012657946 -0.00508 -0.027780488
-0.0012657953 -0.00508 -0.028231161
-0.0012657945 -0.00508 -0.02723968
-0.0017178638 -0.0050800005 -0.027239682
-0.0012657953 -0.0050800005 -0.026248202
-0.0022603474 -0.0050800005 -0.027780492
-0.008227665 -0.0050800005 -0.026698872
-0.0087701492 -0.00508 -0.026698874
-0.008747546 -0.0050799996 -0.02723968
-0.0076851826 -0.0050799996 -0.027239684
-0.0082276668 -0.0050799996 -0.02723968
-0.0093126334 -0.0050800005 -0.025887661
-0.0087701492 -0.00508 -0.025256719
-0.0087701492 -0.00508 -0.025887663
-0.0076851822 -0.00508 -0.024715912
-0.0082276659 -0.0050800005 -0.023814566
-0.0072331131 -0.0050800005 -0.024265241
-0.0076851822 -0.00508 -0.025256719
-0.0072331126 -0.0050800005 -0.026248202
-0.0082276659 -0.0050800005 -0.026248202
-0.0077077858 -0.0050799996 -0.025797525
-0.0082276659 -0.0050799996 -0.025797527
-0.004430281 -0.0042635715 -0.018226223
-0.0044302815 -0.0042635705 -0.016784072
-0.0029233836 -0.0050800005 -0.021771519
-0.0042494531 -0.0050800005 -0.022732951
-0.0037069705 -0.0050800005 -0.021741472
-0.0028286641 -0.0050800005 -0.021342305
-0.0042494535 -0.0050800005 -0.020749992
-0.0038154677 -0.0050800005 -0.020245239
-0.0056960769 -0.0050800005 -0.017234745
-0.011301738 -0.0050800005 -0.021741472
-0.010660621 -0.0037605185 -0.025191169
-0.010216771 -0.0050799996 -0.025256719
-0.0072331126 -0.0050800005 -0.023273762
-0.0037069707 -0.0050800005 -0.027780486
-0.01202505 -0.0046717855 -0.022056941
-0.010216772 -0.0050800005 -0.017234745
-0.010759254 -0.00508 -0.016784072
-0.010759256 -0.0050800005 -0.017234745
-0.010035944 -0.0041728569 -0.026158065
-0.010147223 -0.0042565945 -0.02578366
-0.010108275 -0.0047050477 -0.025773492
-0.013268243 -0.0038326783 -0.019758509
-0.013200429 0.00072571472 -0.017234745
-0.01318913 0.00074839266 -0.018226227
-0.01320043 0.00072571437 -0.017685417
-0.008227665 -0.00508 -0.021290801
-0.0082276659 -0.0050799996 -0.021741472
-0.013290845 0.0018142849 -0.016784072
-0.013290846 0.001814286 -0.015702456
-0.01320043 0.00018142872 -0.015251785
-0.013170292 -0.0002419052 -0.013719496
-0.0072331131 0.00508 -0.015702458
-0.0056960769 0.0050800005 -0.015251786
-0.0062385588 0.00508 -0.016243264
-0.0062385597 0.0050800005 -0.016784072
-0.0093126316 0.00508 -0.017685417
-0.0093126325 0.00508 -0.017234745
0.010216772 -0.0050800005 -0.020209186
0.0097647021 -0.0050799996 -0.020209184
0.0097647011 -0.0050800005 -0.019758511
0.010216772 -0.00508 -0.019758511
0.0052440059 -0.00508 -0.024265241
0.0047919373 -0.0050800005 -0.024715912
0.0052440064 -0.0050800005 -0.024715913
0.0047919373 -0.0050800005 -0.024265237
0.006781043 -0.0050800005 -0.023814566
0.0072331121 -0.0050800005 -0.023814566
0.0066002146 -0.0050800005 -0.028141025
0.0046834401 -0.0032294281 -0.029583182
0.0052310904 -0.0042765308 -0.029119628
0.0061029387 -0.0038553569 -0.029042371
0.0056702439 -0.0042765308 -0.02906812
0.005663198 -0.0037935064 -0.029075144
0.011301739 -0.0032657152 -0.00019931328
0.007215031 -0.0042635719 -0.02864578
0.0047661047 -0.0022808155 -0.029608931
0.006215957 -0.0018369646 -0.029042367
0.0062023941 -0.0022497147 -0.029042369
0.0075344928 -0.0018747621 -0.028561654
0.0072072814 -0.001282959 -0.028643206
0.0072230678 -0.0022779366 -0.028621743
0.0062127272 -0.0027732654 -0.029042367
0.009299716 -0.002280816 -0.027188176
0.0085893227 -0.0022678571 -0.027600218
0.0097194947 -0.0018596422 -0.027059412
0.0086345281 -0.0027667854 -0.027600219
0.0092890449 -0.0027135408 -0.027208334
0.0080468375 -0.0022678564 -0.028141025
0.004249454 -0.0050799996 -0.029222637
0.0086797355 0.0032657145 -0.027600219
0.0085893217 0.0045357142 -0.027600218
0.0085893217 0.0042635719 -0.027600219
0.013652501 -0.0046082856 -0.0032638879
0.013652501 -0.0036285711 -0.0032638879
0.013290845 -0.0047171423 -0.0032638879
0.013652502 -0.004739821 -0.0057876557
0.012205877 -0.00508 -0.0062383283
0.013652501 -0.0045357146 -0.001280928
0.010035944 0.0033564284 -0.026518602
0.0087701492 0.0050799996 -0.026248202
0.009764703 -0.0050799996 -0.020749994
0.011120911 -0.00027214235 -0.025076451
0.011241463 -0.00027214352 -0.024655825
0.010668841 -0.00027214256 -0.025707394
0.010711667 -0.0032561657 -0.025740599
0.0097466186 -0.0048078573 -0.026662821
0.011120911 -0.0012699999 -0.025076451
0.0075947684 -0.0022678568 -0.028501565
0.0080468375 -0.0018142851 -0.028141025
-0.0016932057 -0.0047088955 -0.030263282
-0.0012657947 -0.0050799996 -0.029222639
-0.0012657947 -0.0050799996 -0.029763453
-0.0017033978 -0.0032584581 -0.030289829
0.00081372523 -0.0027214286 -0.030664798
0.0012477119 -0.0032294281 -0.030664798
0.0032549009 -0.0038099992 -0.030123986
0.0012477118 -0.0038462852 -0.030664798
0.0052440073 0.0050800005 -0.028681835
0.0012657952 0.0050800005 -0.028681835
0.0017178635 0.0050800005 -0.029222641
0.0017178644 0.00508 -0.028681831
0.0061782831 0.0027516675 -0.029042369
0.0062385602 0.0032657147 -0.029042367
-0.00027124188 -0.00027214221 -0.030754931
-0.0040686261 -0.0029028568 -0.030123986
-0.0022345155 0.0018142853 -0.030252751
-0.001265795 0.0012699998 -0.030664798
0.0027640823 -0.0018142853 -0.030188367
0.0012657944 -0.001814286 -0.030664798
-0.0012657943 0.0022678568 -0.030664794
-0.0008137257 0.0018142853 -0.030664798
-0.00027124211 0.0018142859 -0.030664798
0.00069317326 0.0016933328 -0.030664794
0.00075344899 0.0027819048 -0.030664798
0.00027124147 0.0022678573 -0.030664798
0.00027124147 0.0032657138 -0.030664798
0.00027124214 0.0038099999 -0.030664798
0.00067810446 0.0032203572 -0.030664794
-0.00081372558 0.0032657145 -0.030664798
0.011663394 -0.0012699992 -0.024265239
0.011241462 0.00018142865 -0.024655821
0.011185491 0.0012699997 -0.024677286
0.0012657944 0.0050800005 -0.024715913
0.00081372511 0.0050800005 -0.025256719
0.00081372564 0.0050799996 -0.024715915
0.00027124188 0.00508 -0.024715912
-0.0052440069 0.0050800005 -0.027780488
-0.0022603478 0.0032657138 -0.03021412
-0.0046563167 0.0037646422 -0.029583178
-0.0036553051 0.0032397963 -0.030123983
-0.003526143 0.0038100001 -0.030123986
0.0017109098 0.0018073077 -0.03029732
0.00079112191 0.0012926791 -0.030664798
0.0017109092 0.0012769774 -0.030297324
-0.0022603481 0.0001814292 -0.03021412
-0.0022603478 0.0007257142 -0.03021412
0.0071426984 0.0012700001 -0.028501565
0.0071426984 0.00018142855 -0.028501565
0.0075043538 0.00018142813 -0.028141027
0.0052440064 -0.0050799996 -0.025256716
0.0052440064 -0.0050799996 -0.025797524
0.0056960764 -0.0050800005 -0.017234745
0.0062385597 -0.0050800005 -0.015702456
0.0067810426 -0.0050800005 -0.017234745
0.005696076 -0.0050800005 -0.018226227
0.0072331131 -0.0050800005 -0.016243264
0.0033453149 0.00018142919 -0.020930262
0.0052440059 -0.0050800005 -0.019758511
0.004249454 -0.0050800005 -0.019758511
0.0042494535 -0.0050800005 -0.020209186
0.0043850737 -0.0050800005 -0.019352907
0.0043398673 -0.0012700006 -0.018767031
0.003797384 -0.001088571 -0.019848647
0.0002712417 -0.00254 -0.013178689
0.0043579503 -0.0038099994 -0.019343892
0.0037973833 -0.0032657138 -0.020209186
0.0043579503 -0.0032657147 -0.01934389
0.0044302815 -0.0038099999 -0.018857166
0.0043850741 -0.0022451782 -0.018789565
0.0044302819 -0.0027214286 -0.018767033
0.0037973837 -0.0027214293 -0.020209188
0.0043511689 -0.0027100896 -0.019330371
0.0043398682 -0.0022678575 -0.019307839
0.011753809 -0.0022678564 -0.024265241
0.011745588 -0.0027214291 -0.024257047
0.011120911 -0.0045357142 -0.025076451
0.010759254 -0.004596191 -0.025376901
0.011663395 -0.0027214282 -0.024535643
0.012567534 -0.0013218364 -0.022166392
0.012135555 -0.00073579309 -0.022702906
-0.0052440069 0.00508 -0.012277344
-0.005696076 0.00508 -0.012818152
-0.0062385597 0.0050800005 -0.012277344
0.0042905505 0.0032574679 -0.018791614
0.0043127439 0.0038009291 -0.018785059
0.0043850751 0.0038099997 -0.018271292
0.0038877979 0.0046264287 -0.019848647
0.0037672461 0.0047171419 -0.02026928
-0.0044302815 0.0047171423 -0.016603803
-0.0044302819 0.0038100001 -0.016693939
-0.0038056045 0.0012864936 -0.014702783
-0.0038877982 0.0022678566 -0.01516165
-0.0037431361 0.0018142852 -0.01469295
-0.0037640731 0.0032752627 -0.014753672
-0.0007986562 -0.00072571484 -0.013223759
-0.0022861797 0.00018142798 -0.013667992
-0.0044302815 -0.0037192849 -0.017685419
-0.004430281 -0.0037192861 -0.017234745
-0.0067810426 -0.0050800005 -0.0097535755
-0.0067810435 -0.00508 -0.0092127686
-0.0062385593 -0.0050799996 -0.0092127696
-0.0052440073 -0.0050800005 -0.010294384
-0.0062385602 -0.0050800005 -0.010294383
-0.0047919364 -0.0050799996 -0.010294384
-0.0047919368 -0.0050799996 -0.0097535755
-0.0052440064 -0.0050799996 -0.0097535765
-0.0037069707 -0.0050799996 -0.011195729
0.00081372488 -0.00072571356 -0.013178691
0.0056960755 -0.0050799996 -0.014260303
0.0052440073 -0.00508 -0.014260304
0.0056960755 -0.00508 -0.014801111
0.0018082781 0.00072571426 -0.013539228
0.0018263606 0.00021771375 -0.013539229
0.0017695297 0.0012959182 -0.013539227
0.0028932451 0.0012700005 -0.014080034
0.0022709842 0.00071504153 -0.013624062
-0.0038877975 -0.0047171433 -0.015161649
-0.0043974044 -0.0047006481 -0.016210489
-0.00370697 -0.00508 -0.011736536
-0.004430281 -0.0038100001 -0.016784072
0.0037814293 -0.0047064698 -0.020262206
0.0029836593 -0.0048985714 -0.020930262
0.0032850385 -0.0042635705 -0.020870171
0.0032850381 -0.0047171428 -0.020870171
0.0028631068 -0.0032657138 -0.021320848
-0.0032549012 -0.0050799996 -0.0212908
-0.0067810426 -0.0050799996 -0.016784072
-0.0052440064 -0.0050800005 -0.015251784
-0.0056960755 -0.0050799996 -0.014801111
-0.0076851822 -0.00508 -0.017234745
-0.0067810435 -0.0050799996 -0.015251785
0.00081372546 -0.0022678571 -0.01317869
0.0017630715 -0.0022225 -0.013539228
0.00083632889 -0.0026987505 -0.01317869
0.00087948103 -0.0032822082 -0.013227854
0.0004520689 -0.0042635715 -0.013178689
0.0018986926 -0.0038099994 -0.013539228
0.0018986916 -0.0027214284 -0.013539228
0.0018986915 -0.003265714 -0.013539229
0.0012657944 -0.0032657147 -0.013268825
-0.00081372535 -0.0027214286 -0.01317869
0.012684541 -0.0047384868 -0.0021716692
0.012663975 -0.0047413325 -0.0027230801
0.012688085 -0.0047473805 -0.0017315997
0.010759256 -0.00508 -0.00028944761
0.010216771 -0.00508 -0.00028944761
0.010216772 -0.0050799996 -0.00074012019
0.010216772 -0.0042635724 -0.00028944761
0.0097647021 -0.004263571 -0.00028944761
0.0097647002 -0.0037873215 -0.00022184663
0.010759256 -0.0042635715 -0.00028944667
0.010759253 -0.0047171419 -0.00028944854
0.010759256 -0.0037840812 -0.00025081914
0.010216772 -0.0047171423 -0.00028944761
0.013290846 -0.0018142852 -0.0012809271
0.013290846 -0.0018142865 -0.0017316006
0.013652502 -0.003265715 -0.0021822732
0.0136525 -0.0036285718 -0.0021822732
0.013652499 -0.0036285718 -0.002723081
0.010759256 -0.00508 -0.0027230801
0.010216773 -0.0050799996 -0.0021822732
0.0037069707 -0.00508 -0.012818151
0.0042494531 -0.00508 -0.012277344
0.0042494531 -0.0050799996 -0.012818151
0.0037069707 -0.0050799996 -0.012277345
0.0042494531 -0.00508 -0.013268825
0.0032549012 -0.00508 -0.012277343
0.0037069707 -0.0050800005 -0.013268825
0.0032549014 -0.00508 -0.013268826
0.0032549012 -0.0050800005 -0.013719497
0.00081372558 -0.0050800005 -0.012277343
0.00027124223 -0.0050800005 -0.01119573
-0.0047919364 -0.0050799996 -0.00019931328
-0.0047919368 -0.0047171414 -0.00019931421
-0.004249454 -0.0047171423 -0.00019931328
-0.010216772 -0.00508 -0.0038046958
-0.010759254 -0.0050800005 -0.0038046958
-0.010216771 -0.0050799996 -0.003263887
0.0052440069 -0.00508 -0.022732951
0.0047919373 -0.00508 -0.022732954
0.0052440069 -0.0050800005 -0.022192145
0.0056960755 -0.0050800005 -0.022732951
0.0076851822 -0.0050800005 -0.025256719
0.0076851826 -0.0050800005 -0.024265237
0.0076851826 -0.0050800005 -0.025797525
0.008227665 -0.0050799996 -0.025256723
0.0076851822 -0.0050800005 -0.026248202
0.0067810435 -0.0050800005 -0.026698872
0.005696076 -0.0050800005 -0.024265241
0.006781043 -0.0050800005 -0.020209186
0.0067810435 -0.0050799996 -0.020749994
0.0062385597 -0.0050800005 -0.020749992
0.006781043 -0.0050800005 -0.0212908
0.01175381 -0.00508 -0.00028944761
0.012722528 -0.0047689788 -0.0047060419
0.011753808 -0.0050799996 -0.0038046958
0.012205879 -0.0050799996 -0.0066890009
0.011301738 -0.00508 -0.00074012112
0.0076851822 -0.0050800005 -0.00074012205
0.008227665 -0.0050800005 -0.0021822741
0.008227665 -0.0050800005 -0.001280928
0.008227664 -0.0050800005 -0.00074012112
0.0072331126 -0.0050800005 -0.0047060419
0.0072331131 -0.0050800005 -0.0057876566
0.0062385597 -0.0050800005 -0.0047060419
0.0062385602 -0.0050800005 -0.0062383288
0.0067810435 -0.00508 -0.0032638879
0.0072331135 -0.0050800005 -0.0032638879
0.0067810426 -0.00508 -0.002723081
0.0072331131 -0.00508 -0.002723081
0.013182349 0.00076199992 -0.012818154
0.013182349 0.00014514265 -0.012818152
0.013239181 0.0018402033 -0.011195729
0.013652501 0.0034471422 -0.01119573
0.013652501 0.0034471429 -0.011736536
0.013200431 0.0012700004 -0.011736538
0.013200429 0.00127 -0.011195728
0.013290846 0.0022678573 -0.011736539
0.0136525 0.0036285718 -0.0083114244
0.013652499 0.0034471431 -0.0083114235
0.0136525 0.0034471429 -0.008762097
0.013290845 -0.0018142852 -0.010294383
0.013290847 -0.0012699995 -0.010294384
0.013290845 -0.0018142858 -0.010745056
0.013290845 -0.0012699999 -0.0097535774
0.013652502 -0.0027214284 -0.013719496
0.013652501 -0.0027214277 -0.013268826
0.013652502 -0.0032657136 -0.013719499
0.013652501 -0.0046082856 -0.013719496
0.013652502 -0.0038100001 -0.014260303
0.013652502 -0.0027214284 -0.01119573
0.0136525 -0.0027214279 -0.010745057
0.013200433 -0.00072571385 -0.011736538
0.013290844 -0.0012700002 -0.012277341
0.01320043 -0.00027214299 -0.012277342
0.01320043 -0.00072571367 -0.012277344
0.013200429 -0.00027214261 -0.011736536
0.013652501 -0.0046808571 -0.0062563554
0.0136525 -0.0047171423 -0.0052468488
0.013274405 -0.0047501288 -0.0038374718
0.0136525 0.0034471424 -0.013719497
0.0136525 0.0034471434 -0.014260304
0.013200432 -0.00027214322 -0.016243264
0.013290845 -0.0012700005 -0.016784072
0.013200429 -0.00027214285 -0.016784072
0.013200431 -0.00027214314 -0.017234745
0.013182348 0.0001451424 -0.016784072
0.012205876 -0.0050800005 -0.012818152
0.013290846 -0.0048078569 -0.012277346
0.012205877 -0.00508 -0.012277344
0.011753808 -0.00508 -0.014260305
0.012205878 -0.0050800005 -0.014801111
0.012205878 -0.0050799996 -0.013719497
0.012205877 -0.0050799996 -0.014260306
0.013652502 -0.0032657138 -0.0066890013
0.0136525 -0.0036285708 -0.0077706161
0.012567532 0.003265714 -0.022552684
0.013652501 -0.0038099994 -0.017234743
0.013652502 -0.0038099997 -0.016784072
0.0136525 -0.0036285715 -0.018226225
0.012712196 -0.0047624987 -0.012818152
0.013277931 -0.0047819382 -0.012805276
0.0136525 -0.0046717855 -0.013223756
0.012722529 -0.0047689783 -0.012277346
0.013652501 -0.0036285708 -0.012818152
0.013652501 -0.0032657145 -0.010745056
0.0097647021 -0.00508 -0.015251784
0.0097647021 -0.00508 -0.015702456
0.0087701492 -0.0050800005 -0.016784072
0.008227665 -0.0050800005 -0.015702458
0.008227665 -0.00508 -0.016784072
0.0076851817 -0.00508 -0.014801111
0.0072331121 -0.0050800005 -0.015251784
0.008227665 -0.00508 -0.01480111
0.0097647011 -0.0050800005 -0.025797525
0.01202505 -0.0050800005 -0.021200664
0.011753809 -0.0050800005 -0.019758511
0.012183273 -0.00508 -0.020231718
0.010759256 -0.0050799996 -0.024265237
0.010216773 -0.0050800005 -0.024265239
0.013110016 -0.0047171428 -0.018406494
0.012657949 -0.0047625001 -0.018271292
0.012205877 -0.00508 -0.01831636
0.012180045 -0.0048467345 -0.021728598
0.011723671 -0.00508 -0.021711424
0.0062385602 -0.00508 -0.026698872
0.012205878 -0.0050800005 -0.0038046958
0.012205877 -0.0050800005 -0.0042553674
0.012700775 -0.0047553377 -0.0038141841
0.013110017 -0.0048078569 -0.020299319
0.013290846 -0.0048078564 -0.011736538
0.012205877 0.0050800005 -0.010745057
0.0097647021 0.0050800005 -0.010294384
0.010216771 0.0050799996 -0.010745056
0.0097647021 0.0050799996 -0.010745056
0.010216773 0.0050799996 -0.010294383
0.0093126316 0.0050800005 -0.0077706175
0.013290844 0.0027214293 -0.012277342
0.013290843 0.0027214291 -0.011736539
0.012657948 0.0042635715 -0.013268825
0.012657948 0.0042635724 -0.012818151
0.013110016 0.0036285713 -0.013358959
0.01130174 0.00508 -0.021290801
0.010759256 0.00508 -0.010745057
0.010216771 0.0050800005 -0.011195729
0.0097647021 0.0050800005 -0.012818151
0.0093126334 0.00508 -0.011195729
0.008227665 0.0050800005 -0.0097535755
0.0087701492 0.00508 -0.0097535774
0.008227665 0.00508 -0.010294383
0.0087701492 0.0050800005 -0.0087620951
0.0087701492 0.0050799996 -0.0092127696
0.0056960764 0.0050800005 -0.010294383
0.0072331131 0.0050800005 -0.0092127696
0.011301737 0.00508 -0.013719496
-0.0028932453 0.0042635715 -0.014080035
-0.0023055547 0.0042635719 -0.013584295
-0.0022932254 0.0047006491 -0.013572004
-0.0018384162 0.0042938096 -0.013539228
-0.0029384524 0.004671786 -0.014080035
-0.0023055552 0.0038099992 -0.013584294
0.00027124214 0.0050800005 -0.012277344
0.0012657945 0.0050800005 -0.011736538
0.013165654 0.0032936262 -0.020181451
0.013200432 0.003265715 -0.019758509
0.013268242 0.0038326792 -0.019307842
0.012567534 0.0022678564 -0.022192143
0.012567533 0.0013607139 -0.022011876
0.012696696 0.0032786727 -0.021728594
0.012649729 0.0027379224 -0.021733282
0.012205876 0.0050800005 -0.017234745
0.011753809 0.0050799996 -0.017234745
0.011753809 0.0050799996 -0.016784072
0.013110016 0.00063500012 -0.018767031
0.0044044489 0.0042506112 -0.018251976
0.012678812 0.0022748357 -0.021276932
0.013110017 -0.0028121427 -0.021200664
0.013110016 -0.0022678568 -0.020659858
0.013110016 -0.0019957137 -0.020659856
0.012737726 -0.0022731926 -0.021280196
0.01209738 0.00018142923 -0.022696896
0.012097382 0.00072571408 -0.022696899
0.012107244 -0.00028039023 -0.022716565
0.012612742 0.00013607118 -0.0212908
0.012748361 0.0041728574 -0.021741472
0.012696696 0.0038359175 -0.02174147
0.013200433 -0.00072571437 -0.017234746
0.013170294 0.0022980946 -0.019758511
0.013290844 -0.0012700005 -0.017234746
0.013200433 -0.0012700001 -0.018767031
0.013214707 -0.0018238346 -0.01929835
0.01323918 -0.0018402042 -0.018767029
0.013182345 0.00076200021 -0.015702454
0.012657948 0.0042635719 -0.0021822723
0.012657948 0.0042635724 -0.002723081
0.012567533 0.0047171433 -0.0017316006
0.012567533 0.0050799996 -0.0017316006
0.0136525 0.0034471422 -0.0017316006
0.013290846 0.0027214284 -0.0021822732
0.013290845 -0.0012699998 -0.0021822732
0.013290844 0.0027214279 -0.0072298092
0.013290842 0.0027214289 -0.0066890013
0.013239181 0.001840204 -0.0066890013
0.013182348 0.00014514252 -0.0062383278
0.012205877 0.0050800005 -0.001280928
0.012205878 0.0050800005 -0.00074012205
0.011753807 0.00508 -0.00028944854
0.0097647021 0.0050800005 -0.00074012019
0.010216772 0.00508 -0.00074012112
0.010216772 0.0050799996 -0.001280928
0.0072331131 0.0050800005 -0.0057876557
0.0076851826 0.00508 -0.0052468479
0.0076851822 0.0050799996 -0.0057876566
0.008227665 0.0050800005 -0.0052468479
0.0062385597 0.0050800005 -0.0072298092
0.0076851826 0.0050800005 -0.0062383283
0.0087701501 0.0050800005 -0.0083114225
0.0093126334 0.00508 -0.0083114225
0.0093126306 0.00508 -0.001280928
0.0093126325 0.0050799996 -0.0017315997
0.0076851822 0.0050800005 -0.001280928
0.013182348 0.00076199987 -0.0021822732
0.013200429 -0.0002721425 -0.00074012205
0.0136525 0.0034471431 -0.0057876557
0.013239181 0.0018402038 -0.0057876557
0.013200432 0.0012700005 -0.0062383283
0.01320043 0.0012700002 -0.0057876557
0.013182347 0.00076199975 -0.0057876566
0.013182348 0.00014514255 -0.0052468479
0.0136525 0.0034471429 -0.00470604
0.013200433 -0.00072571455 -0.0066890018
0.013290844 -0.0018142858 -0.0072298096
0.013652502 -0.0027214279 -0.0077706156
0.013200429 -0.00027214235 -0.0077706152
0.013290844 -0.0012700001 -0.0077706161
0.012567534 0.0047171419 -0.0038046958
0.012567534 0.0047171419 -0.0027230801
0.012657949 0.0042635715 -0.0097535755
0.010759254 0.00508 -0.008762097
0.012657948 0.0042635719 -0.010294385
0.012567533 0.0047171433 -0.010745058
0.0072331131 0.0050799996 -0.0062383283
0.006781043 0.00508 -0.0062383283
0.0072331131 0.00508 -0.0066890004
0.0012657952 0.0050800005 -0.01119573
-0.004249454 0.0050800005 -0.020749994
-0.00370697 0.0050799996 -0.020749992
-0.0023808989 0.0050799996 -0.013599318
-0.0017540297 0.0050799996 -0.013250798
-0.0012657951 0.00508 -0.013178689
-0.00081372476 0.0050800005 -0.013178688
-0.0037672461 0.0050799996 -0.014741021
-0.00370697 0.00508 -0.014260303
-0.0042494535 0.00508 -0.015251783
-0.0012657951 0.0050800005 -0.010294384
-0.0017178641 0.0050800005 -0.011736537
-0.0022603483 0.0050800005 -0.011195729
-0.00027124197 0.0050800005 -0.0097535755
-0.00081372529 0.00508 -0.010294385
-0.00027124127 0.0050799996 -0.010745057
-0.00081372546 0.00508 -0.010745058
-0.00081372535 0.0050800005 -0.01119573
-0.00081372459 0.0050800005 -0.012277344
-0.0032549012 0.0050800005 -0.012277344
-0.0028028309 0.00508 -0.012818152
-0.0032549009 0.00508 -0.011736537
-0.0022603481 0.00508 -0.012277344
-0.0028028307 0.0050800005 -0.010294385
-0.0037069707 0.0050800005 -0.010294384
-0.0032549 0.00508 -0.0097535774
-0.0028028314 0.0050800005 -0.0097535755
-0.0022603476 0.0050799996 -0.0097535755
-0.0022603478 0.00508 -0.010294383
0.001265795 0.0050800005 -0.010745056
0.0022603476 0.0050800005 -0.010745057
0.0037069703 0.00508 -0.008762097
-0.0047919373 0.0050800005 -0.0052468488
-0.0076851812 0.0050800005 -0.0052468488
-0.0037069698 -0.0050799996 -0.00074012112
-0.009764703 -0.0050800005 -0.0032638879
-0.0097647021 -0.00508 -0.0072298092
-0.0097647021 -0.0050800005 -0.0077706166
-0.010216772 -0.0050799996 -0.0072298087
-0.010216772 -0.0050800005 -0.0066890018
-0.010759254 -0.00508 -0.0072298083
-0.0062385593 -0.0050800005 -0.010745058
-0.0087701492 -0.004263571 -0.00019931328
0.0038619658 0.003291633 -0.019771388
0.0038056036 0.0027379219 -0.019766705
0.0043850751 0.0032657138 -0.018271292
-0.0029233829 0.0018142852 -0.014140124
-0.0037672459 0.0022678573 -0.014741022
-0.0032631198 0.0022761035 -0.014243915
0.0047919364 0.0050800005 -0.020749992
0.004249454 0.00508 -0.013719495
0.0042494531 0.00508 -0.013268825
0.0047919378 0.0050800005 -0.013268825
0.0037069707 0.0050800005 -0.013268825
0.0043850741 0.0022678573 -0.018271292
0.0038103003 0.0022548984 -0.019771388
0.0043011182 0.0027214282 -0.018792784
0.0043190033 0.002274835 -0.018780898
0.0044302819 0.0018142856 -0.017685419
0.0044302815 0.0013153575 -0.016739005
0.0043850741 0.0013153565 -0.018406494
0.0022861809 0.0050799996 -0.022243649
0.0012657949 0.0050800005 -0.02327376
0.0028028316 0.0050800005 -0.022732951
-0.0017285013 0.0047064698 -0.013263525
-0.0018534844 0.0027214279 -0.013539228
-0.0018384168 0.0022376191 -0.013539228
-0.0022965129 0.0022678571 -0.013611337
-0.0022965132 0.0027214282 -0.013611335
-0.0032729842 0.0046990006 -0.020858154
-0.0057219085 0.0050800005 -0.02772898
-0.0056960755 0.0050800005 -0.02723968
-0.0037069698 0.00508 -0.024715913
-0.003706971 0.0050800005 -0.025256719
-0.0032549007 0.0050800005 -0.024715913
-0.0032549005 0.0050800005 -0.025256718
-0.0028028307 0.0050799996 -0.022192143
-0.0023055552 0.0050800005 -0.02228228
-0.0032549005 0.0050800005 -0.022192143
-0.0076851831 0.0050800005 -0.024265239
-0.0076851817 0.0050800005 -0.023814568
-0.008227665 0.00508 -0.023814566
-0.0072331121 0.00508 -0.023814566
-0.0072331135 0.00508 -0.02327376
-0.006781043 0.0050799996 -0.023273762
-0.006781043 0.0050799996 -0.023814566
-0.0012657953 0.00508 -0.030304253
-0.011301738 0.00508 -0.017685417
-0.011301738 0.0050800005 -0.017234745
-0.01172367 0.0050800005 -0.01528183
-0.0087701492 0.0050800005 -0.023814566
-0.008227664 0.00508 -0.023273762
-0.0087701483 0.00508 -0.02327376
-0.0087701501 0.0050800005 -0.022732951
-0.0093126325 0.0050800005 -0.023814566
-0.011301738 0.0050800005 -0.021741472
-0.010759256 0.0050799996 -0.0212908
-0.004430281 0.0038099994 -0.018406494
-0.011663394 0.0032657147 -0.024535643
-0.012712196 0.0047897147 -0.018767031
-0.011663395 0.0050799996 -0.019307839
-0.0087701492 0.00508 -0.017685417
-0.0087701492 0.00508 -0.018226227
-0.0087701483 0.00508 -0.018767033
-0.008227664 0.0050799996 -0.017685417
-0.010194168 0.00508 -0.025234185
-0.011301739 0.0050799996 -0.018226225
-0.0097647011 0.0050800005 -0.018226225
-0.010759254 0.0050800005 -0.018767033
-0.0093126316 0.0050800005 -0.019758511
-0.0097647021 0.0050800005 -0.017685415
-0.011301738 0.0050799996 -0.019758511
-0.0087701492 0.0050799996 -0.026248202
-0.0092674252 0.0050800005 -0.026203133
-0.0052440073 0.00508 -0.028681835
-0.0046111098 0.0050799996 -0.029222643
-0.0072331135 0.0050800005 -0.0083114235
-0.0082276659 0.0050800005 -0.0083114244
-0.0067810435 0.0050800005 -0.0072298096
-0.0062385597 0.0050800005 -0.0083114225
-0.0076851817 0.0050800005 -0.0083114244
-0.0087701501 0.0050800005 -0.0087620951
-0.008227665 0.0050800005 -0.0092127696
-0.0062385597 0.00508 -0.020749994
-0.0056960764 0.00508 -0.020749994
-0.0056960755 0.00508 -0.020209186
0.0037069696 0.00508 -0.028681835
0.0032549005 0.0050799996 -0.028681833
0.0037069705 0.0050800005 -0.028231159
0.0028028311 0.0050800005 -0.028681835
0.0056960769 0.0050800005 -0.028231159
0.0056960755 0.0050800005 -0.027780486
0.0062385597 0.0050800005 -0.028231159
0.0028028316 0.0050800005 -0.026698874
0.0037069698 0.0050800005 -0.026248202
0.0037069698 0.0050800005 -0.026698872
0.0032549002 0.0050800005 -0.02778049
0.005696076 0.00508 -0.019307842
0.0056960764 0.00508 -0.019758511
0.0062385607 0.0050800005 -0.020209186
0.012639865 0.0038100001 -0.022156095
0.012600412 0.0032492212 -0.02215937
0.013290844 0.0027214284 -0.013268827
0.013290845 0.0027214293 -0.013719498
-0.012567534 -0.0047171423 -0.019307839
-0.010216772 -0.0050799996 -0.017685419
-0.0087701492 -0.0050800005 -0.020209186
-0.0076851817 -0.0050800005 -0.019758511
-0.012205877 -0.0050800005 -0.019307839
-0.012169712 -0.00508 -0.019740485
-0.0072331131 -0.00508 -0.017685415
-0.013652501 -0.0038099997 -0.015251783
-0.013290845 -0.0041728574 -0.015792591
-0.011753808 -0.00508 -0.015251784
-0.013290846 -0.0027214289 -0.017234746
-0.01327638 -0.0027286862 -0.017670995
-0.013200432 -0.0027214286 -0.018767031
-0.013110016 -0.00063500006 -0.018767031
-0.0131281 -0.001288143 -0.019307839
-0.013110017 -0.00067387742 -0.019307839
-0.013182348 -0.0018142859 -0.018190172
-0.013276379 -0.0038245148 -0.018219018
-0.013290846 -0.0038100006 -0.017685417
-0.013290844 -0.0027214282 -0.012818154
-0.013290842 -0.0027214291 -0.012277342
-0.01320043 -0.0012700004 -0.013719495
-0.010216772 0.0050799996 -0.01119573
-0.0097647021 0.0050799996 -0.011195729
-0.013290845 0.0046717855 -0.0091677019
-0.013652501 0.0046264282 -0.011195729
-0.013652501 0.0032657145 -0.010745058
-0.0136525 0.0036285711 -0.010745056
-0.013652499 0.0046264287 -0.010745056
-0.0136525 0.0046264292 -0.0017315997
-0.013652502 0.003265715 -0.0021822732
-0.013652502 0.0027214284 -0.002723081
-0.013652502 0.003265714 -0.002723081
-0.013652503 0.0038099997 -0.016784072
-0.013652501 0.0042635719 -0.0072298092
-0.013652502 0.0038099997 -0.0072298083
-0.0136525 0.004263571 -0.0062383278
-0.0136525 0.0036739279 -0.013764564
-0.011663395 0.00508 -0.013719496
-0.011301738 0.0050800005 -0.013719497
-0.010759254 0.0050799996 -0.014260304
-0.010759254 0.0050799996 -0.013719495
-0.011301738 0.0050800005 -0.012277344
-0.0136525 -0.0034471431 -0.016784072
-0.013182348 -0.00076200021 -0.010745056
-0.013200429 -0.00127 -0.010745057
-0.01318235 -0.0007619994 -0.010294385
-0.013200432 0.00018142918 -0.010745057
-0.013290846 -0.0022678573 -0.010745056
-0.013652501 -0.0034471424 -0.010745056
-0.013170294 -0.00024190421 -0.011736537
-0.01320043 0.00018142833 -0.011736536
-0.013290845 0.0012699999 -0.011736537
-0.012657948 -0.0042635715 -0.011195729
-0.013652503 0.0027214291 -0.0092127696
-0.013652502 0.0027214289 -0.0097535755
-0.013290845 -0.0041728574 -0.017144609
-0.012657947 -0.0042635715 -0.013268825
-0.011301738 -0.00508 -0.012818151
-0.011301737 -0.00508 -0.012277345
-0.01323918 -0.0018402043 -0.012277345
-0.013290846 -0.0022678575 -0.012277346
-0.013290844 -0.0027214286 -0.011736538
-0.013290845 0.0012699995 -0.012277343
-0.011753808 -0.0050799996 -0.010745056
-0.013336052 -0.0036739286 -0.010294383
-0.012657948 -0.0042635724 -0.0097535765
-0.012567534 -0.0047171419 -0.0097535765
-0.01320043 -0.0012700006 -0.01480111
-0.013182348 -0.00076199957 -0.015702456
-0.013182346 -0.0007619994 -0.016243262
-0.013290845 -0.0022678575 -0.014260302
-0.013290845 -0.0022678568 -0.013719496
-0.01323918 -0.0018402039 -0.014801112
-0.013652502 0.0038100004 -0.015251786
-0.0136525 0.003265715 -0.015251785
-0.013652501 0.0032657138 -0.015702458
-0.013652502 0.0027214284 -0.015251786
-0.0047919378 -0.0050800005 -0.012277345
-0.004249454 -0.00508 -0.013268825
-0.0052440073 -0.0050799996 -0.011736535
-0.0093126325 -0.0050800005 -0.008762097
-0.0093126306 -0.0050799996 -0.0092127696
