# .PCD v0.7 - Point Cloud Data file format
VERSION 0.7
FIELDS x y z
SIZE 4 4 4
TYPE F F F
COUNT 1 1 1
WIDTH 469
HEIGHT 1
VIEWPOINT 0 0 0 1 0 0 0
POINTS 469
DATA ascii
0.003108619 -0.0010776311 -0.00032603811
0.002152395 -0.0015044772 -0.00035636383
0.0018685629 -2.388059e-05 0.00075454544
-0.003541992 -0.00057910447 -0.0012545452
-0.0035754459 -0.00061500713 -0.00068338739
-0.0036867494 -0.00023521286 -0.00026252912
-0.0036355837 -0.00068765244 -0.00027763005
-0.0035242515 -0.0010268657 -0.00028545456
-0.0032400514 -0.00073993939 -0.00026213774
-0.0035555519 0.00014130854 -0.0042369929
-0.0030393712 0.0010388059 -0.004209091
-0.0035360777 8.0597019e-05 -0.0045606825
-0.0031519372 0.00064378639 -0.0045660809
-0.0031862429 -0.001143658 -0.00026420853
-0.0030976271 -0.0010786076 -0.00069121213
-0.002743718 -0.00074029854 -0.00026181736
-0.0027349233 -0.0012152062 -0.00026181759
-0.0017502994 -0.0015044794 -0.00026181829
-0.0012535878 -0.0012417948 -0.00026181806
-0.0012535924 -0.0015044796 -0.00026181829
-0.0022464194 -0.0012412604 -0.00026197406
-0.0021424009 -0.0015044787 -0.00026714499
-0.00075688621 -0.0015044794 -0.00026181829
-0.00026486328 -0.0015044793 -0.00030394248
-0.00026128179 -0.0012403642 -0.00026323274
-0.0021050898 -0.0015044776 -0.00054545468
0.0027437177 -0.00074029854 -0.00026181783
0.0022470052 -0.00074029871 -0.00026181736
0.0022408392 -0.0011993956 -0.00030353246
0.0027160693 -0.0011638888 -0.00031876657
0.0017461432 -0.0012084445 -0.00028823363
-0.00026018015 0.0012345851 -0.00026984466
0.0002601798 0.0012345851 -0.00026984559
0.00026017943 0.00074029871 -0.00026181876
-0.0012504202 0.0012284849 -0.00027040532
-0.00075648964 0.0012355658 -0.00026860368
-0.00075688871 0.00074029859 -0.00026181876
-0.003048416 -0.0010549607 -0.0027450267
-0.003542447 -0.00057619589 -0.0027448479
-0.0030460136 -0.0010556534 -0.0022498628
-0.0017503037 -0.0012417941 -0.00026181829
-0.0018050742 -0.000109348 0.0012210526
0.00073842565 -0.001504479 -0.00031485595
0.00026017957 -0.0015044793 -0.00030909106
0.00025830741 -0.0012343137 -0.00027060602
-0.0017503012 0.0011462669 -0.0022472735
-0.0017502995 0.0015044778 -0.00035636383
-0.0021050898 0.0015044772 -0.00035636383
-0.0022375479 0.0011984825 -0.00029552262
-0.0027437203 0.00074029865 -0.00026181759
-0.0022470108 0.00074029865 -0.00026181736
-0.0032404147 -0.00023880562 -0.00026181713
-0.0027437173 -0.00023880588 -0.00026181736
-0.0017383983 -0.0011619348 -0.0045993151
-0.0017424151 -0.0011828847 -0.0042563644
-0.0012535917 -0.0011940297 -0.0042563574
-0.003542837 -0.0005737028 -0.0022495245
-0.0035424049 -0.00057646644 -0.0032449465
-0.00024719382 0.0015278915 -0.00034246012
0.00026017966 0.0015331352 -0.00034690928
0.0017502988 -0.00074029865 -0.00026181876
0.0012491387 -0.0012252245 -0.00027641957
0.0012535927 -0.0015044782 -0.00035636383
0.0012535932 -0.00074029871 -0.00026181829
0.003541992 0.00057910441 -0.001254546
0.0035718777 0.00061282777 -0.00069142529
0.0036841843 0.00023703813 -0.00026037358
0.003632382 0.00066459022 -0.00027125375
-0.00072678278 0.0015077353 -0.00032090931
0.0031207642 -0.0010661985 -0.00054545468
0.0036059809 0.00023388407 -0.00071722467
0.0036461644 -0.0002125668 -0.00026159897
0.0035866529 -0.00018985919 -0.00071929127
-0.0032248038 0.00023010623 -0.0045839851
-0.0030511986 -0.0010541581 -0.0042563644
-0.00304392 -0.0010562571 -0.0045836372
-0.0035427618 -0.00057417265 -0.0045615816
-0.0035419923 -0.00057910441 -0.004256364
-0.0012535919 0.00074029871 -0.00026181829
-0.0017457883 0.0012131555 -0.00027568941
-0.0017502974 0.00074029854 -0.00026181899
-0.0017870368 -0.00010924105 0.00075001922
-0.0022470078 -0.00074029859 -0.00026181736
-0.0012535891 -0.00074029871 -0.00026181783
-0.0027437182 0.00023880588 -0.00026181759
-0.00075688929 0.00023880591 -0.00026181876
-0.0012535929 -0.0015044775 -0.00054545468
-0.0027119024 -0.0011203286 -0.0017492797
-0.0027118351 -0.0011192722 -0.0022472737
-0.002243479 -0.0011487628 -0.0017509079
-0.0027119936 -0.0011216471 -0.0012527142
-0.0027156 -0.0011397799 -0.00074016466
0.0017502992 -0.0015044778 -0.00035636383
0.0032404156 -0.00023880554 -0.00026181759
0.0032240078 -0.00071961811 -0.00027215108
0.0035721201 -0.00059985783 -0.0002938963
-0.0017503003 0.0011462673 -0.0012545447
-0.0012535894 0.0011462675 -0.0012545427
-0.0012535914 0.0011462678 -0.00175091
-0.0032404142 0.00023880562 -0.00026181689
-0.0032257335 0.00071916962 -0.00027398346
-0.0031125818 0.0010997894 -0.00032384926
-0.0035718421 0.00059413764 -0.00028687855
-0.0027282212 0.001169753 -0.00031583221
-0.0036098054 -0.00023236967 -0.00071358809
-0.0035890455 0.00017619462 -0.00069541659
-0.0035699271 -0.00023139478 -0.0012545475
-0.003566301 0.00014593701 -0.0012545448
-0.0022436008 -0.0011466306 -0.0045863762
-0.0022434776 -0.0011487624 -0.0042563505
-0.0012535937 -0.0011687436 -0.0046025682
-0.00075408007 -0.0011754102 -0.0046028942
-0.0035699212 -0.00023139473 -0.0017509072
-0.0035419925 -0.00057910453 -0.0037600012
-0.00075688685 -0.0012417939 -0.00026181829
-0.00026017975 -0.00074029871 -0.00026181783
-0.00075688894 -0.00074029848 -0.00026181876
-0.0012535916 0.0011462676 -0.0022472725
-0.0012535907 0.0011462678 -0.0027436346
-0.0017503009 0.0011462678 -0.0027436363
0.00075729867 -0.0012316771 -0.00027539651
0.0035242515 0.0010268657 -0.00040363648
0.0035421962 0.00057780067 -0.0037627183
0.0035419934 0.00057910441 -0.0042563658
0.003569924 0.00023139476 -0.0042563635
0.0035699254 0.00023139476 -0.0037599963
0.00026017937 0.0011462678 -0.004256363
0.00026017948 0.0011462684 -0.0046109064
0.00075688632 0.0011462684 -0.0046109091
-0.00026017966 0.0015044775 -0.00054545468
-0.00070958084 0.0015044776 -0.00054545468
-0.00026017954 0.0011462683 -0.0046109124
0.0022411176 0.00073703687 -0.0045906054
0.0027123084 0.0011188806 -0.0045809904
0.0022453815 0.001145357 -0.0045867297
-0.0012535928 0.0015044782 -0.00035636383
-0.00026017913 0.0011462675 -0.0012545462
-0.00026581125 -0.00116939 -0.0046049105
-0.00075688632 -0.00074029743 -0.0046109203
0.001253593 0.0011462683 -0.0046109073
0.0012535924 0.00074029714 -0.0046109143
0.00075688661 0.00074029755 -0.004610911
0.0002601796 0.0007402972 -0.0046109091
-0.0027031074 0.0010858277 -0.0042450442
-0.0026541189 0.0010427858 -0.004559339
-0.0022351812 0.0011343276 -0.0027436337
-0.0002601798 0.0011462676 -0.0042563574
0.0026832644 -0.001081702 -0.0017509088
0.0030393712 -0.0010388059 -0.0024836366
0.0026873804 -0.0010823247 -0.002252717
0.0026832649 -0.0010817017 -0.0012545467
0.0012414443 -0.0011649848 -0.0017509104
0.0017503017 -0.0011462674 -0.0017509109
0.0012414433 -0.0011649851 -0.0022472697
0.0035457537 -0.00055142469 -0.00059702492
0.002700727 -0.0010846228 -0.0027493676
0.0022351809 -0.001134328 -0.0022472746
0.0035614462 -0.00019920904 -0.0037810104
0.0035699194 0.00023139476 -0.0032400012
0.003560785 -0.00019553713 -0.0042395159
0.0030393712 -0.001038806 -0.0037599995
-0.0022351816 0.0011343282 -0.0022472714
-0.0022434779 -0.0011487632 -0.0012545432
0.0035675678 0.00022931129 -0.0045613549
0.0035452759 -0.00010878939 -0.0045566335
0.003239339 0.00023967834 -0.0045869537
-0.0032097804 -0.00070829957 -0.0045845201
-0.0018988383 4.8716425e-05 0.00017309072
-0.00075688976 -0.00023880588 -0.00026181876
-0.0017502995 -0.0015044775 -0.00054545468
-0.00026017966 -0.0015044775 -0.00054545468
-0.00075688603 -0.0011940293 -0.004256364
-0.00026017963 -0.0011940298 -0.0042563584
-0.003046962 -0.0010553799 -0.0017505561
0.00075573311 -0.0011992721 -0.0022472709
0.00075573247 -0.0011992713 -0.0017509086
0.0012414441 -0.0011649849 -0.0027436337
0.00075573334 -0.0011992706 -0.002743636
0.0017503011 -0.0011462679 -0.0032399998
0.001241445 -0.0011649852 -0.0032399995
0.00075688626 0.0015044775 -0.00054545468
0.0012535928 0.0015331352 -0.00034690904
0.00075688591 0.0015331352 -0.00034690928
0.00075781287 0.0012368571 -0.00026696804
-0.0017503005 0.001146268 -0.0017509097
-0.0036467523 0.00021543351 -0.00026275171
-0.0035497237 0.00055292773 -0.00056727289
-0.0031665689 0.0007053506 -0.0022472693
-0.0022159328 0.0010807144 -0.0045622429
-0.0022380159 0.00073023234 -0.0045886482
-0.002235183 0.0011343275 -0.0042563514
-0.002736748 0.00071847852 -0.0045811594
-0.0031677468 0.00070235773 -0.0042542554
0.00026017978 -0.0011940302 -0.0042563658
0.00025574458 -0.001142537 -0.0046086898
-0.00026017975 -0.0011940313 -0.0037599963
-0.0027119026 -0.0011203286 -0.0027452649
-0.0027119287 -0.0011207078 -0.0032411101
-0.0017424168 -0.0011828853 -0.0037600021
-0.0022434779 -0.0011487625 -0.0037599972
-0.0035699205 -0.00023139473 -0.0022472725
-0.0035663 0.00014593701 -0.0022472732
-0.0035693017 -0.00022978446 -0.0037593981
-0.0030511974 -0.0010541579 -0.00376
-0.00026018012 0.00023880559 -0.00026181736
-0.00075688626 -0.0015044775 -0.00054545468
-0.00026017948 0.0011462675 -0.0022472716
-0.00026017966 0.0011462675 -0.001750913
-0.00075688603 0.0011462678 -0.0022472735
0.0022351819 -0.0011343277 -0.0012545434
0.0031709352 -0.00068827992 -0.0012516978
0.0027140637 0.0011260991 -0.004255055
0.0025781437 0.0015044776 -0.00054545468
0.002240049 0.001505884 -0.00031187176
0.0026316193 0.0015044776 -0.00030703563
0.0017371589 0.0015257061 -0.00034060632
0.0022470059 0.0012378147 -0.00026575709
0.0031631705 0.0011440656 -0.000270708
0.0030505494 0.0010576161 -0.0042573358
0.0030485694 0.0010507463 -0.0045636366
0.0031105746 0.0010910967 -0.00067064597
0.0012535927 0.0015044775 -0.00054545468
0.0017502994 0.0015044775 -0.00054545468
0.0012535902 0.0011462675 -0.0022472688
0.0017502996 0.0011462675 -0.0022472737
0.00026017966 0.0015044775 -0.00054545468
0.002247009 0.0011462679 -0.0042563584
-0.00026018021 -0.00023880604 -0.0046109143
0.00075688667 -0.00074029743 -0.0046109161
0.00026017945 -0.00023880601 -0.0046109087
0.00026017951 -0.0007402972 -0.0046109091
0.00075238105 -0.0011303481 -0.0045973971
-0.00026017995 0.0011462673 -0.0027436414
0.00026018004 0.0011462676 -0.0027436358
-0.00026017975 0.0011462676 -0.0032399981
0.00026017966 0.00023880601 -0.0046109087
0.0007568869 -0.00023880602 -0.0046109143
-0.0022351821 0.0011343277 -0.0032399998
-0.0027067529 0.0010865669 -0.0032400007
-0.0017503018 0.0011462671 -0.0032400023
-0.0012535925 0.0011462676 -0.0032400021
-0.0012535893 -0.0007402972 -0.0046109194
-0.0027437124 -0.00074029807 -0.0045872806
0.0022351805 -0.0011343275 -0.0017509107
0.0035699247 0.00023139476 -0.0027436325
0.0035445271 0.00056289975 -0.002743636
0.0035699222 0.00023139473 -0.0012545455
0.0035699236 0.00023139476 -0.0017509088
0.0035638402 -0.00017638842 -0.0012506924
0.0035419923 0.00057910447 -0.0017509086
0.0030393712 -0.001038806 -0.002735758
0.0035611372 -0.00019683086 -0.0022472737
0.0030393712 -0.001038806 -0.0031927275
0.0027013069 -0.0010848095 -0.0032355993
0.0031724733 -0.00069344713 -0.0032396761
0.0031700511 -0.00069325633 -0.0027445906
0.0035595989 -0.00018553391 -0.0027368823
0.0035432922 0.00057080446 -0.0032457651
-0.002243476 -0.0011487622 -0.0022472725
-0.0017424157 -0.0011828854 -0.0022472709
0.0035419904 0.00057910453 -0.0045636371
0.0027437117 0.00074029801 -0.0045872787
0.0017402826 0.0011439741 -0.0046045138
0.0032108803 0.00071164174 -0.0045854291
0.0032258248 -0.00023025174 -0.0045810435
-0.0022351809 0.0011343282 -0.0012545439
-0.0030622361 0.0010571145 -0.00060218188
-0.0017424161 -0.0011828851 -0.0017509116
0.00026017963 -0.0015044775 -0.00054545468
-0.00026017972 -0.0011940306 -0.0032400026
-0.00075688632 -0.0011940299 -0.0032399914
0.00026017998 -0.00074029877 -0.00026181852
-0.0030511983 -0.0010541583 -0.0012545453
0.0017503022 -0.0011462675 -0.0022472721
0.0027437194 -0.00023880582 -0.00026181783
0.0017503018 0.0012378132 -0.00026575779
-0.0031665741 0.00070535025 -0.002743646
-0.0030393712 0.0010388059 -0.0038072728
-0.0035663028 0.00014593701 -0.0027436356
-0.0031665678 0.00070535077 -0.0032400037
-0.0027130013 0.0010868956 -0.003761305
-0.0031697191 0.00070337718 -0.0037605164
0.00026017975 -0.0011940316 -0.0037599967
-0.0012535909 -0.001194031 -0.003759996
-0.0035620972 0.00013213935 -0.0017461826
-0.0035690642 -0.00022916992 -0.004255943
-0.0035613305 -0.00023751512 -0.0045597986
-0.0035699261 -0.00023139473 -0.0027436337
-0.0030473627 -0.0010552644 -0.0032476655
-0.0027121762 -0.0011243776 -0.0037600007
-0.0022434758 -0.0011487618 -0.0032399995
0.00075688848 0.00074029848 -0.00026181829
-0.00026017978 0.00074029871 -0.00026181783
-0.00026017966 -0.00023880559 -0.00026181736
0.0002601798 -0.00023880562 -0.00026181829
-0.00075688685 0.0011462678 -0.0012545424
0.002688464 -0.0010830859 -0.00074972201
0.00075573288 -0.0011992719 -0.0012545458
0.0032397024 0.00073957886 -0.00026210304
0.0027437152 0.00074029854 -0.00026181783
0.0027373217 0.0012299102 -0.00026691379
0.0022470101 0.00074029871 -0.00026181759
0.0031740083 -0.00068896258 -0.0022480253
0.0022470059 0.0015044775 -0.00054545468
0.0022470078 0.0011462676 -0.0012545431
0.00026017954 0.0011462676 -0.0012545456
0.00026018004 0.0011462678 -0.0017509053
0.0022470083 0.0011462673 -0.0032399965
0.0017503019 0.0011462676 -0.0027436332
0.0022470094 0.0011462672 -0.0027436332
-0.0002601803 -0.0007402972 -0.0046109143
-0.00075688626 0.0011462678 -0.0027436367
0.0017502991 0.00023880602 -0.0046109133
0.001253592 0.00023880607 -0.0046109124
0.00075688673 0.00023880601 -0.0046109119
0.0012535914 0.0011462676 -0.0042563658
0.00026017975 0.0011462674 -0.0032400007
-0.00026017983 0.0011462675 -0.0037599977
0.0017502987 0.0011462676 -0.0037599967
0.0012535912 0.0011462674 -0.003759993
0.001749523 0.00073951291 -0.0046105739
0.0012535914 0.0011462676 -0.0032400012
-0.00075688685 0.0011462675 -0.0032399979
-0.0027149173 -0.0011192737 -0.0045841844
0.0022351802 -0.0011343275 -0.0032400002
0.0022351809 -0.0011343278 -0.003760004
0.0035432912 0.0005708044 -0.0022420844
0.0030354299 0.0010587064 -0.0022472725
0.00026017957 0.0011462676 -0.0022472686
0.0022470069 0.0011462674 -0.0022472714
0.0027118353 0.0011192726 -0.0012545451
0.0035613759 -0.00019307947 -0.0032340679
-0.0027067533 0.0010865659 -0.0027436339
0.0031579519 -0.00064988423 -0.0045583234
0.0027437112 0.00023880601 -0.0045872792
-0.0027111797 0.0010962989 -0.00075043656
-0.0022351798 0.0011343274 -0.0017509079
-0.0012535935 -0.00119403 -0.0017509095
-0.0012535917 -0.0011940309 -0.0012545452
0.00070958084 -0.0015044776 -0.00054545468
0.00026017963 -0.0011940318 -0.0012545456
0.00026017983 -0.0011940299 -0.0017509083
0.0032404182 0.00023880559 -0.00026181759
0.001253591 0.0012378141 -0.00026575709
0.0012535912 0.00074029883 -0.00026181783
0.0017503011 0.00074029848 -0.00026181806
-0.0035587286 0.00015852941 -0.0037543911
-0.0031665706 0.00070535101 -0.0012545403
-0.0017495246 0.00073951308 -0.0046105683
0.00026018001 -0.0011940313 -0.0032399995
-0.0032404149 -0.00023880601 -0.0045872764
-0.0017424156 -0.0011828854 -0.0027436349
-0.0017424213 -0.0011828853 -0.0032399995
-0.00075688679 -0.00119403 -0.0037600002
-0.0035426833 -0.00057468493 -0.0017506022
-0.0035694551 -0.00023019087 -0.0032395506
0.00075688824 -0.00074029859 -0.00026181783
0.00075688772 -0.00023880588 -0.00026181783
0.00026017937 0.00023880557 -0.00026181829
0.00075688807 0.00023880591 -0.00026181806
-0.00026017972 -0.00119403 -0.0027436363
-0.00075688714 -0.0011940293 -0.0027436325
-0.00075688679 0.0011462678 -0.0017509093
0.0017502999 -0.0011462681 -0.0012545447
0.0035596008 -0.00018553386 -0.0017545444
0.0012535909 0.0011462676 -0.0012545438
0.0017503011 0.0011462678 -0.00175091
0.00075688586 0.0011462676 -0.0012545455
-0.00026018001 0.00023880604 -0.0046109143
0.0017503015 0.0011462678 -0.0032400002
0.0012535905 -0.00074029726 -0.0046109152
0.0012459761 -0.0011306863 -0.0045826603
0.0012414461 -0.0011649851 -0.0037599939
0.00026017948 0.0011462678 -0.0037600016
0.0022470085 0.0011462674 -0.0037600042
0.0027120544 0.0011225713 -0.0037625481
0.0017503003 0.0011462678 -0.0042563598
0.00075688638 0.0011462675 -0.0032400035
0.00075688632 0.0011462675 -0.0027436342
-0.0012535914 0.00023880604 -0.0046109129
-0.0012535922 0.0007402972 -0.0046109124
-0.00075688621 -0.00023880601 -0.0046109166
-0.0012535909 -0.00023880598 -0.0046109166
-0.0027121743 -0.001124377 -0.004256363
0.0030432027 0.0010564644 -0.0037699884
0.0027090788 -0.0010858475 -0.0037556672
0.0022351816 -0.0011343269 -0.0042563607
0.002671276 -0.0010432835 -0.004548864
0.0027342367 -0.00071686128 -0.0045768055
0.0022220395 -0.0010839141 -0.0045636329
0.002238841 -0.00072722638 -0.0045872335
0.0035699187 0.00023139472 -0.0022472746
0.00075688667 0.0011462676 -0.0022472716
0.00075688655 0.0011462676 -0.00175091
0.0027118335 0.001119273 -0.002247276
0.0027118339 0.0011192723 -0.0027436409
0.0030354296 0.0010587065 -0.0017509093
0.0022470094 0.0011462676 -0.0017509095
0.0030354301 0.0010587064 -0.0027436365
0.0031747979 -0.00068611582 -0.0042537549
-0.0027067524 0.0010865657 -0.0012545456
-0.0027067547 0.0010865665 -0.0022472721
-0.001253592 -0.001194031 -0.0022472756
-0.0017424175 -0.001182885 -0.0012545447
0.0018591017 4.2985073e-05 0.00075454521
-0.0031501353 0.00069623545 -0.0017472457
-0.0022351809 0.0011343278 -0.0037600012
-0.001749524 -0.00073951302 -0.0046105688
-0.0022399526 -0.00073536002 -0.0045917444
-0.0017503006 -0.00023880601 -0.0046109105
-0.0027437108 -0.00023880602 -0.0045872796
-0.0017503016 0.00023880601 -0.0046109115
-0.0022434774 -0.0011487629 -0.0027436353
-0.0012535928 -0.0011940302 -0.0027436381
-0.0012535912 -0.0011940319 -0.0032400019
-0.0035621522 0.00014174744 -0.0032325364
-0.00026017978 -0.0011940314 -0.0012545419
0.00026017978 -0.0011940299 -0.0027436404
0.00026017954 -0.0011940317 -0.0022472681
-0.00026017948 -0.0011940317 -0.0022472709
-0.00075688778 -0.0011940302 -0.0012545446
-0.00075688749 -0.001194029 -0.0017509104
0.001241445 -0.0011649854 -0.001254544
0.0031700677 -0.00068603997 -0.0017499309
0.0017503002 0.0011462676 -0.0012545445
0.0012535914 -0.00023880604 -0.0046109115
0.0017502989 -0.00023880602 -0.0046109119
0.00075573364 -0.0011992709 -0.0042563668
0.0017306396 -0.0011217681 -0.0045667007
0.00075573311 -0.001199272 -0.0032399991
0.00075688597 0.0011462676 -0.0042563584
0.0012535907 0.0011462676 -0.0027436332
0.00075688667 0.0011462676 -0.0037599998
0.0027118353 0.0011192727 -0.0032399963
-0.00075688679 0.00074029731 -0.004610918
0.0022333364 -0.00023756482 -0.0045973547
0.0022333367 0.0002375648 -0.004597357
0.002678233 -0.0010810811 -0.0042537148
0.0012535938 0.0011462676 -0.0017509097
0.0030354296 0.0010587063 -0.0012545458
0.0027118311 0.001119272 -0.0017509093
0.0027437124 -0.00023880601 -0.0045872782
-0.0027067526 0.0010865668 -0.00175091
0.0022351805 -0.0011343275 -0.0027436363
0.0027437201 0.00023880579 -0.00026181806
-0.0022330002 -0.00023836101 -0.0045978012
-0.00075688638 -0.0011940302 -0.0022472725
-0.00026017966 -0.0011940303 -0.0017509128
0.001241445 -0.0011649852 -0.0042563686
0.0007557327 -0.0011992728 -0.003759997
0.0030354296 0.0010587065 -0.0032400002
-0.0017503005 0.0011462679 -0.0042563579
-0.00026017992 0.00074029714 -0.0046109152
-0.00075688621 0.00023880599 -0.0046109152
-0.0007568865 0.0011462676 -0.004256363
0.0031743129 -0.00069506688 -0.0037617655
0.0017503009 -0.0011462671 -0.0027436337
-0.0022332089 0.00023880601 -0.0045971293
0.0017503005 -0.001146268 -0.0037599986
0.0017480776 -0.00073730695 -0.0046099578
0.0017503005 -0.0011462673 -0.0042563612
-0.0017503027 0.0011462675 -0.0037599965
-0.0017232333 0.0011095863 -0.0045921393
-0.00075688626 0.0011462676 -0.00376
-0.0012535921 0.0011462676 -0.0042563556
-0.0027437115 0.00023880599 -0.0045872796
-0.0012535919 0.0011462675 -0.0037600009
-0.0012479757 0.0011428356 -0.0046086921
-0.00075688574 0.0011462682 -0.0046109054
